# .PCD v0.7 - Point Cloud Data file format
VERSION .7
FIELDS x y z
SIZE 4 4 4 
TYPE F F F 
COUNT 1 1 1 
WIDTH 803
HEIGHT 1 
VIEWPOINT 0 0 0 1 0 0 0 
POINTS 803
DATA ascii 
1.571368338728874 0.24514700914407683 0.3810208200041103
-0.5790311807902526 0.10424406936824937 0.03574928859330839
-0.557035189321823 0.09126633516014238 0.03658594409085936
-0.3862062191726636 0.20006580202341695 0.17677198382176584
-0.3930073375483971 0.1538487367188992 0.18647375920869536
-0.3682196011902761 0.20742134115160127 0.17355128223158545
-0.41359469873327726 0.20361824071467538 0.2118969842240972
-0.3956546702208925 0.13657561799944062 0.11780174294568724
-0.3317799681933593 0.14524130261004586 0.13773051308550066
1.4761424783641388 0.32407918269420577 0.29967815173155543
1.5694230312505653 0.22687963000173283 0.3838976349245655
1.5600778192305853 0.2692411474385352 0.3217427332449603
1.5529943604046395 0.19182992423559142 0.47934159380680796
-0.41608132441956514 0.1863701752709659 0.1864891409323377
-0.44103081544358247 0.2721776153749289 0.19852534527041144
-0.6167836601050567 0.44116086623132844 0.5465518108949823
-0.37457714994866365 0.3285911168760123 0.23766529778100676
-0.44176768158990853 0.17537837306470294 0.1607271042567504
-0.4235288484157991 0.18864300305456538 0.1525699862659735
1.6760910276347687 0.24315895209694816 0.34177570161706683
-0.5371876323731613 -0.09723534324704985 -0.05577286859892183
-0.5972046816857528 0.13840033224285264 0.015024947320000592
-0.4032165745409202 0.18954249022961278 0.14115926096297926
1.7000277910405686 0.17529848660016967 0.41754697379953143
1.572532228848516 0.28786387736583663 0.32693102700001475
-0.4854846412451934 0.1276422377532782 0.20028802597977347
1.5074685636931946 0.2939303971328826 0.6035469297815013
-0.48718776201326364 0.10687100252569337 0.1658371019557876
-0.4152001535655927 0.14104032254279275 0.14949813144363588
-0.12363110130149835 -0.1570736680322824 0.1361646636769933
-0.5678003395112228 0.23509190714419503 0.1588903612837953
-0.3858619371565055 0.19683304911912103 0.16173671706661708
-0.40960249417889827 0.1516119029229941 0.12384798595763868
1.5420357186371376 0.4916392087438197 0.3511279013503241
-0.29673668389636987 -0.19575210550367217 0.097318241690175
-0.4650758991153907 0.2552353527253928 0.15711185693822927
-0.3737851476432752 0.17117131052971502 0.16790450302966065
-0.6984443480284881 -0.029283738523119496 -0.07492425819776827
-0.3817871773751449 0.22686283773244043 0.1511490962848825
-0.41992456113416665 0.1389187250143351 0.14174904147245115
-0.2538879329474639 0.11064661404550691 0.16240686227416745
1.5787853532960554 0.21121998387063456 0.4157525051880526
-0.1543035620959472 0.16854845470250268 0.2495028323874635
1.5756836861396124 0.23939233901585055 0.37905762275046584
-0.26791873221714013 0.0257644142812552 0.12347136655904478
-0.4546866903217506 0.10666708013475557 0.04743081549264616
-0.4024858923764896 0.19837114884019513 0.15899412854656703
-0.3953195942192451 0.17690682009295244 0.16230896944495043
-0.39047045373786204 0.16753278224230428 0.15122578417964405
-0.4360657820614051 0.2373185690349402 0.17093216287054247
0.3045429771630097 -0.23522549012243132 0.2529729104981584
-0.4165265264125537 0.14015290251434465 0.18127398969687647
-0.2984963918240737 0.2532344546026053 0.010069119130150739
1.5856007497781803 0.18917389656091643 0.4065834090609002
-0.36769389567393773 0.17425864858985562 0.18192612039007372
-0.3410033585639667 0.18712820921525974 0.17448648562736935
-0.3978317819671702 0.18151792540182043 0.15812020780600733
-0.36632233133036607 0.2001731909668507 0.15359082570381588
-0.43875825425106996 0.16229030600250383 0.11452673221089071
1.5848561313027432 0.23848846240109367 0.39806880359834906
-0.3894284518571567 0.18664671940230448 0.12566657954909033
-0.4074900142984461 0.20762294082403798 0.12807115385390944
1.5768825748959472 0.24917769035930348 0.393194423060109
-0.3940890393821519 0.17034786025494952 0.1199092290744943
-0.20529307072479241 0.32975570222795625 0.31345014492131895
-0.42328527403492444 0.25123275181711335 0.2371359563813371
1.575679481567434 0.20848374138260795 0.4742532793927836
1.551554561781316 0.19611368397856666 0.3934916604805636
-0.38084391431380027 0.12456524482429643 0.007589625512139264
-0.267161008170433 0.039287054151898815 0.16266176396771925
-0.46867111717779153 0.11003014555633683 0.1285849384412927
-0.41269454007465356 0.140936528504497 0.14173068510450548
-0.4910146633299064 -0.010071909814470814 0.04563107559539503
-0.3730499075861644 0.09128233155668397 0.14814209876664108
-0.4016967152381312 0.1873967379188599 0.2592313907489938
-0.572475161603279 0.17728004668340702 0.22007778504945463
-0.44467402642089837 0.14842384046376367 0.13801119508303827
-0.3882652690770101 0.3712803806966605 0.24665612945415205
1.5787938631396656 0.19781633536005927 0.40304359444714066
1.5432059850567867 0.23498180391872836 0.38946502248587933
-0.37268773858863824 0.20116770005286355 0.2158107108817262
-0.27659197544176095 0.06687492242515702 0.17302090520121283
-0.7097004467757415 -0.0348190430694757 0.2564038954124612
-0.447611622712202 0.173482963987297 0.1179304554507894
-0.39755414586011284 0.18485070211779941 0.16101546140004075
-0.5277067834647369 0.1031550627058806 0.08312217364169783
-0.9452332073958587 0.4273641791051688 0.08550321528770155
1.6697769362503578 0.1546690061190219 0.31170104933268306
-0.4060739075900983 0.1987147426089706 0.1797079465732736
-0.49366759156305307 0.288109989077455 0.17812004717148966
1.5372167836898853 0.270587525094399 0.33186562476045367
1.2684929866367867 -0.42819960718368577 1.9648072693992304
1.6799046520167877 0.16767084295535994 0.42379984376317736
-0.48793657516557687 0.3972939189380469 0.30154536882497496
-0.3861676409976553 0.14489160215914865 0.02041869083501524
1.60359950103107 0.2895340032377334 0.3403654221940684
-0.515213968258351 1.4610698618268714 0.48146209867555
-0.4509017208727073 0.16138425207198281 0.13447407664813227
-0.40311042937878483 0.19178128725350518 0.15006579397328323
-0.4802543634684753 0.16010830661714692 0.14226609872736162
-0.5764946306260299 0.1306347075706782 0.044344658349530164
-0.32477999126035684 0.23251829779208322 0.15262276804156727
-0.32926462983209603 0.15824801026344915 0.17434238860465712
1.5672739010328343 0.1577006399133296 0.46259839576966044
1.5650155974576165 0.2506817865618558 0.35862890375143763
-0.39308249621149116 -0.009652069597834156 -0.0015573777808981504
-0.37985245996583217 0.1554402589654984 0.12925812447525686
-0.29383902644235604 0.25377247592867036 0.2004858128175897
-0.5140467176940291 1.4129396075656757 0.47257002444821694
-0.43655034547168725 0.22331666311681886 0.15561846768565601
-0.39367038543764465 0.20505065394998212 0.16636886013753838
-0.4392149189623069 0.1945715464508595 0.18401646832086271
-0.4058435440199446 0.18631486169495304 0.16104327558156228
-0.49284779672939294 0.06649743130863328 0.06031804749824232
-0.5161965826662254 0.35634326300085206 0.19889828408219046
-0.43190418203789704 0.2878082554644408 0.10358973810531324
-0.5048722962053489 0.3580937769120993 0.20727216297842688
-0.38989684145394676 0.175476997331387 0.16264603883342943
-0.3847256882252168 0.18549139488921185 0.1576118034691376
-0.4878233263405036 0.18155830498751868 0.14829237697728104
-0.3932987318510186 0.19036059191883226 0.1529016181276006
-0.15503151362258905 0.3526509638732733 -0.03680515071295076
-0.45026172345001214 0.10188667586506028 0.13105100611306852
-0.4876592124016952 0.2313867557650866 0.1765126775399608
-0.5575668776543807 0.4998397018617453 0.24955231914378828
-0.29841547851879113 0.22754628321588655 0.2221646852240724
-0.46287149583417886 0.24013209080756326 0.17517061470158524
1.5670686692023565 0.22391867148364497 0.4263278481114554
-0.3717753125490617 0.17384720704019685 0.17984258042730517
-0.5297784024985503 -0.10567899683057647 -0.04227064331911379
-0.4572380038114261 0.29433988145054 0.1824325233147306
1.573714757992505 0.24282890627766562 0.3741163883853602
-0.38917979990560525 0.2912399407333197 0.1969985946462316
-0.15452576821166986 0.08669506868780275 0.2308486274824304
-0.20797198658306115 0.3415581222480597 0.3308416775808496
-0.36555324701089376 0.10764721146286149 0.2098854541227979
1.548199012132912 0.24072002264112768 0.4358113233495402
-0.36452660543341153 0.23020937776625772 0.09495340505696959
-0.4368370624395084 0.2629719834631743 0.19684490034438795
-0.29390347396451943 -0.2700679514700113 -0.03498211285017305
-0.4055055689202618 -0.02914634981691222 0.1316527038262052
-0.6157835537703704 0.4122600789970221 0.1769801157907409
-0.47882398610431665 0.1663242850309672 0.15524676427327222
-0.39018176935110205 0.1952340986436667 0.14107454413630194
-0.3367509173365306 0.0660040240591826 0.19864683816291517
-0.4161019513519477 0.19183580035776515 0.18951931441284842
1.584573843705087 0.26760838622833205 0.4406256650138545
-0.42946255227047914 0.00406517943800111 0.10398457789875692
1.6921355996305039 0.5254157900312038 0.02208554488903758
-0.24036398177463525 -0.08856274822294097 0.11220390940167135
-0.4805689940365028 -0.6513983521753488 0.22671988079406447
1.728489239888816 0.24977759341383887 0.16211749357468364
-0.20459960048515313 0.22887883818209787 0.29887873152352995
-0.2372747773440551 0.3072786789244475 0.311896520052926
-0.3425803708048534 0.0665392886704268 0.1881001632110042
-0.4583693931015205 0.15016266068876405 0.10785364577628798
-0.5022151330746709 1.4951344676589713 0.441070011834384
-0.3456485236199569 0.30367774626672883 0.2268624700055284
1.424321835117965 0.3459284200766177 0.2781544078636813
1.5927826484689405 0.22462058695639087 0.3731009077776122
1.580229038794144 0.24461152334372116 0.3859845127474415
-0.448878657272644 0.41664751729429383 0.22557034561492628
-0.571598913720436 0.49741617700517793 0.21733046913601584
-0.4447631130130958 0.19362307915896793 0.14351717786945528
-0.613430898836441 0.2566045086687865 0.11704917470075316
-0.3655004037680101 0.22802902495921273 0.15069208698429293
-0.41479701010007375 0.17624831356540938 0.13948860237456984
-0.4380899036439132 0.27359823247850557 0.18960772113956637
-0.3804189229520034 0.17458605969757457 0.18059255214490122
-0.5345237815888595 0.05148864647806306 0.03778317788697905
-0.5326232427867126 0.24054117611110826 0.09558336654760069
-0.3825642310218882 0.18373979246560168 0.17619157986797518
-0.5560784900696945 0.44603226444185395 -0.2960710652723151
-0.3455995770307254 0.40881849190652986 0.27827496299602217
-0.2685514951260757 0.26237507274807115 0.29041204074479765
-0.38111603373158687 0.1969576116508307 0.17254748599685854
-0.1571382844956588 0.2928789641565146 0.328982519303338
-0.30331373607236856 0.06588108202875276 0.07336095193483061
-0.9298322016509246 0.2723982121652426 -0.04038460334680849
-0.4078463848816227 0.19204778334558625 0.1522320549384517
-0.4327875713022422 0.20692018157303949 0.18433141740121073
-0.4171482158960771 0.19781988783240934 0.14684033984400457
-0.3977351023020219 0.21220813056886811 0.1572914275721473
-0.4235173465820026 0.17343149630785604 0.2849440000400705
-0.40705466290432923 0.28738369903028627 0.11999535033561415
-0.44855201636869424 0.23901635146201272 0.1885854325637979
1.6148917239183476 0.212533243695745 0.6529944215465235
-0.5233661795170974 -0.22013952472745757 -0.09669519742868715
-0.6660586709292602 -0.5851319346719919 -0.4282860585107642
-0.519862469485588 -0.15687825420438628 0.28579031149007506
-0.6294644290717315 -0.016795492559069203 -0.04199336251161867
-0.37474341524261945 0.19590348674417157 0.16286461602345526
1.685255703704982 0.17526805842901183 0.42557082814461467
1.6454454336339523 0.15599497104669524 0.5187592480827021
1.5623056508624842 0.2654220822700353 0.3855279635202038
1.6457552660280754 0.22736960905278636 0.43243542430288073
-0.2768110225113105 -2.241521471546548e-06 0.09756037810899443
-0.4091372054206204 -0.041030249386423634 0.027231516634003583
-0.3616208734126758 0.1571234661942782 0.22517557287670797
-0.33795724829155915 0.5148944642251791 0.22260152766563124
-0.3705158291520547 0.17837592976600547 0.16431056181050963
-0.1933042669804763 0.08454773685396333 0.17485094288446135
-0.4039768168838691 0.09939081332147737 0.1727028855503363
-0.38014021256435626 0.1792463950669827 0.15828682467423505
-0.5360970312865447 0.3505554731792273 0.15443893274374432
-0.14700922017414086 0.1962637642255487 0.26396731505252546
-0.41869555619973653 0.17019799275756498 0.1507731073916716
-0.3195831293376159 -0.16259451845228057 0.020208837781922284
-0.5028784537823867 0.03991039952695985 0.06495076635934538
-0.42365508732814305 0.26672186812818666 0.16109428039368368
-0.41746416894216054 0.2995053987807097 0.21118088284589476
-0.40077770148832315 0.25942214688718934 0.2109938062176866
-0.3792927527936172 0.17442154529005904 0.17184054417617745
-0.48265228067953103 0.02314707002103944 0.06949036041356749
-0.4007943051071834 0.15168734005153794 0.12108934516169256
-0.5413425807170569 1.3354473211145148 0.5355431800882826
-0.3192195186527442 -0.009212157517069386 0.08784619191743559
-0.40081460328269714 0.34476163348615785 0.07671494999982542
0.04986058528106696 0.10808724275291581 0.7619219593153161
-0.4416739830883216 -0.023179746060961293 0.1766561524391932
-0.3403035516055297 0.2873514603680434 0.2503496728286905
-0.5094196984680366 0.20388631446719785 0.12698330948211378
1.5584981862479736 0.4194966524341197 0.19685631734616038
-0.5636135006459426 0.0845952641075911 0.13848673397757238
-0.48333182578403466 0.10900928190410752 0.09120858678676314
-0.382603670670278 0.19138798600495477 0.20723380366422361
-0.3861238036440682 0.1954757228350701 0.166045456510858
-0.40751326290387624 0.3090983714765372 0.24631092170335478
-0.5518594086430966 1.4119955165585623 0.4753989488410326
-0.43534244989473336 0.19369500333876033 0.21224751168944067
-0.38994510165844076 0.17023615463138242 0.15910113844171292
-0.42495101710278504 0.2018741920447411 0.12963839465834326
-0.37713288535792344 0.12207890412271638 0.21629716301418966
1.4780442241603424 0.32040554727102233 0.2759006742883372
-0.404182724854536 0.19917291140616555 0.19460541600443548
-0.4013764459775757 -0.0221946898990808 0.08106383154250807
-0.26014014726001733 0.2005815945422711 0.10253102177836126
-0.2840282136710357 0.23874994105160852 0.2393037028060121
-0.31392126922924035 0.2034582450842919 0.07653104731895155
-0.42818997075278276 0.12100666871727128 0.18990631060756868
-0.2292099112780761 0.3018777903026404 0.26837253788568205
-0.3957783299226776 0.17534804175109286 0.1835832058832807
-0.6258827263625335 0.0724226321882071 0.46758227268315977
-0.35965038110930436 0.1605012129849257 0.15274850403972096
-0.17712011580783837 0.020041310400372936 0.1803819856987161
-0.4260485248776149 0.3409092660850348 0.24406495908357329
-0.4535408171029758 0.1553639389431538 0.13673309268511957
-0.5944667721303176 -0.1064990077310739 -0.05874281903646761
1.5448149155849507 0.227750955844769 0.37474103202409026
-0.22997472827751153 0.3060589741772475 0.05977994421579069
1.5755404952937653 0.24602679279307438 0.38924328552390364
-0.5850338304551315 0.5053193952745261 0.22395228067495054
-0.4270614685626697 0.9020119991010489 -0.044939292277319964
-0.38467301913965457 0.03898600599229951 0.0773565865502519
-0.403544857366569 0.1781478497988047 0.17465422241099304
1.5428452353948643 0.2262474100538583 0.45917142671829936
-0.29623248820621484 0.1516796920305552 0.18926209988154596
-0.32031133418399804 -0.08154012897550444 0.08587482044555372
1.3434229392582466 -0.2686810672781377 0.46576150250918147
-0.37096287888903134 0.16533344908118863 0.16190179224673784
-0.30848820900041574 0.17062715737581868 0.17863654935814566
-0.44142028709370607 0.13250405079186578 0.15498915439553684
-0.40552668107170575 0.16223313769758363 0.05605174074031538
1.567607744785576 0.27577453921223594 0.4095164940256524
-0.45521785338837617 0.24052498599947114 0.2834175176367921
-0.37344885078687184 0.19388455076575895 0.17588182011701292
-0.32182432358581536 0.14787049701870103 0.17386586437083906
1.5729237275222232 0.3086473464467616 0.34898483124858615
-0.4192206079276275 0.20868582575083394 0.21212723696686453
-0.3188637236269187 -0.07174729445516448 0.24160714665509886
-0.3822323346646499 0.22253048157752175 0.17835917541839308
-0.3838076323406767 0.20543484872639795 0.21044335732318586
-0.1599858963998031 0.12909292167485376 0.3233960590706033
-0.39648174793887847 0.18575325252921004 0.16179188582196957
-0.2127299422534179 0.09268454572618623 0.17901882561005777
-0.5702155346186828 0.07231658062399049 -0.0854386963500815
-0.5416883194955062 0.30901029071272035 0.17269848225720352
-0.2864090168984603 0.2581131245797934 0.16699023110874123
1.5072408814007332 0.4063169776895137 0.12389728171116587
-0.33607363348323815 0.17885876371026654 0.14549094842828936
-0.25370014851409906 0.22349672129810472 0.04707690546371168
-0.418529244339652 0.11714031657636781 0.19041154937900728
-0.34892204051334375 0.2681267868584456 0.12755889663554854
-0.20966408794242852 0.0803722377723517 0.39233783105470366
1.5063704002672722 0.23201532917703105 0.2863602314639735
-0.5177106573507189 1.4171247197589025 0.4827352622698555
-0.5067939201505851 0.0798161264365973 0.222396726106183
-0.5622805321725082 0.49767039081514497 0.40959310749627775
-0.3820851177113127 0.25698027125061174 0.1900741088584823
-0.4199645875157785 0.5050615157789053 0.06231196442701048
-0.3718124089898538 0.22148975840271135 0.1362223572478456
1.543045063691764 0.29899083892489386 0.4003458723921227
-0.40922081583607905 0.29514488688171525 0.2523267290935678
-0.3949263975334816 0.19323036371231694 0.19576395148493475
-0.3388927916200828 0.38164328894079347 0.33050513485528654
-0.30924866741020196 0.21151116041899343 0.2026889308736486
-0.45112323408443444 0.27703639230192323 0.18629266353406138
-0.2784035692127418 0.2776199515765967 0.13271009953774637
1.577519662896023 0.18388559366250945 0.38474567211530086
-0.3108016142757606 0.1190195914214911 0.15935507448472208
-0.3943084809832271 0.22537499776542802 0.06939871082164473
-0.3954372920959486 0.2175947550541224 0.18470065886236853
1.5847259533615699 0.2005059055485816 0.38535532704851505
-0.2534346098216247 0.46057266852319856 0.23651903340675062
-0.3816540299119424 0.17353383468896766 0.15535717675544447
-0.38941424779090994 0.03898678085268159 0.2723290271506471
-0.6684274489196014 0.2797346647685828 0.29819333771325773
-0.24318270032722467 0.16178684233189244 0.15996100529179103
1.5547038309300234 0.18908079038048697 0.41016833414620635
-0.3691390140118074 0.22624881675899644 0.14933591088362164
-0.3908331107484173 0.17847824812368174 0.15760147556744641
-0.41952679885048383 0.2754642750924887 0.1594647272405041
-0.6652411932261657 0.007734441370374157 -0.06756154974840456
-0.38641309385616296 0.1451804537183108 -0.017591593469603595
-0.5880532080443572 -0.004908940582865284 -0.056792778576834735
-0.406261727413721 0.1880558009116413 0.18071840735234446
-0.38918845096100085 0.19216668623001 0.18075188839890188
-0.3858379295231771 0.18071176338442285 0.14378795618273443
-0.4062704865025353 0.17385061102420707 0.1630695712202055
-0.31060450916606896 0.1266932796543898 0.19994892397977537
-0.3873074801774692 0.18249778501656522 0.15771342286922163
-0.4034690914811563 -0.004913440733545826 0.04939413288690275
1.5465106174373915 0.18422567168856574 0.3055259485293078
1.597140721234112 0.22217465075338794 0.41336899926251647
-0.5180994859226047 1.4313444443320975 0.48984612433123687
1.5910774238431742 0.25826314719999743 0.39140604401769963
-0.2633336747201156 0.2598485659664931 0.2396928838834924
1.5832067487785508 0.2415551223061101 0.39031281246867877
1.5357662674063732 0.2256253182389827 0.35961215687281367
-0.37671339718122 0.1964916514089765 0.05546161005355543
-0.3975778438286852 0.13187132513583322 0.1479794209272427
-0.39350909526888245 0.20576829201043267 0.13933580959297842
-0.40609384720642083 0.24051049462021012 0.18750180335797495
-0.39290926741864496 0.19921257270932813 0.15013741081662602
-0.41946460326630586 0.21134915499449392 0.17269644918002314
-1.0206682497771453 0.23564962408006807 -0.0829478927507239
-0.2961175555499267 0.06232848873794694 0.1910671706692142
1.7771909434372475 0.3879972069957347 0.3598564278829741
-0.478785384646244 0.17342151532382388 0.18500363672234243
1.8318356174999764 0.43029442126537276 0.18645830196625468
-0.4012229225734245 -0.10839994886457305 -0.013992158378584918
-0.15295806174594873 0.10265753528535981 0.27415131250478453
-0.5475868994506072 0.09320493897855897 0.019017534647957746
-0.41640774553138726 0.10278821846902986 0.13999315755523867
-0.39551433324572827 0.17510157468230148 0.23445636252023405
-0.38841468907389753 0.08524610957563539 0.16805815542198843
-0.3698464540900659 0.21206521539450307 0.1829041730061931
-0.3968877739641812 0.1311866689330401 0.15701621150680012
-0.5154060090096664 0.3677448268836798 0.1896579138384027
-0.3020430693538856 0.09694630762994905 0.1151739231691522
-0.4607242012532424 0.23579759633601327 0.177973991577403
-0.4139603210749101 0.12125865852893014 0.12618841821409887
-0.3053448090465736 0.010915079326039745 0.10526845077134794
1.5772477804998317 0.22710501192743493 0.40704846685117957
-0.45486481135208123 0.025467583150273754 0.2301198563919229
-0.40056164582688325 0.4325349416440787 0.31468561509706205
-0.41239745003599637 0.266833969563848 0.16639833533287174
-0.5097402046928181 1.4195895441150412 0.4756230818049545
-0.38842996974904054 0.20877583807767053 0.17365319220431275
-0.4207822626592588 0.3012388732141318 0.017780127321259442
-0.45127504711467736 0.23142591974199433 0.1790138095066709
-0.25931392257530206 -0.06040129700242858 0.08296842346049971
-0.38601449151951783 0.17908732936218996 0.19333148593165106
1.6602040130669167 0.20728024164820624 0.4210690178472447
-0.40336634331811183 0.18574420030661543 0.1737171861723823
-0.3924539473043751 0.2005061406499209 0.16483073573641605
-0.38984240378681534 0.16583172342241426 0.189094746802823
-0.3814681658657264 0.16355996502996106 0.15239084916271395
-0.4062280303003263 0.22130693233073373 0.17799537567503876
-0.3711635826291513 0.1413664419061007 0.1352372787342233
-0.5436845237525176 0.16457692830324788 0.09164334306575483
-0.33715750297028535 0.17716585303158183 0.11180348912336058
-0.5230620766194534 0.198291994803256 0.12041239658452696
-0.3844355188446116 0.14077585300863404 0.13094315150834746
1.6036207538122227 0.2224421154209466 0.4028200230125236
-0.5571005160124969 0.4627617981141867 0.23753234962083525
-0.44242766146976464 0.13003610184848924 0.17357082324184603
-0.5336095804484557 0.08970020821750779 0.08909383634187407
-0.4975135270766913 1.417648065769498 0.48008991733077266
-0.4068808306144547 0.19455997663051505 0.16291257784638447
-0.4295279944451522 0.29639592132032533 0.20604306677438444
-0.38151421883571857 0.1797042413937362 0.16093017541885501
-0.41602567417044156 0.18895502871335168 0.1590893176299346
1.523168434577613 0.19199255178357078 0.3671657119441676
-0.5790397489579391 0.01758741697729249 -0.030824554766638812
1.6174288179749539 0.20946348714316798 0.41133565944916484
1.649068420010238 0.16110381181026412 0.4475781035173583
-0.3796973137320947 0.16147679387093206 0.1791251956865949
-0.2248192841323089 -0.10064654686986785 0.06060476819135374
-0.397195086432248 0.16913636418492217 0.15919262318953997
-0.437272753766365 0.04425438603819032 0.0650672338352365
-0.2335453892262649 0.16986902261585612 0.2101378797934217
-0.4486494401605796 0.17540571203888078 0.11031120488502211
1.4347029823833992 0.3021238341429324 -0.04105365532153371
1.4978088486963799 0.2327268582270534 0.38478985312691805
-0.2766225973280143 0.39833062252462526 0.3153522781477136
-0.3851976610856127 0.18008788482718785 0.1617751663698641
-0.2693008745225143 0.2296819064623179 0.36436559477903074
-0.3868830438839268 0.17503753601074834 0.14182527953840918
-0.5227581227334213 0.2992513414329352 0.123339088951127
-0.43543793653566354 0.10679762175739427 0.07449913242913908
-0.3973135588128116 0.1571143671727242 0.13250827262260145
-0.2270334923775863 0.09176052472055574 0.17352600613691038
-0.35043777545411103 -0.0014979902797875866 0.2935121230230493
1.5803162457445552 0.18134855921054793 0.3510822106648135
-0.5098057503016662 0.1710884349277677 0.1672927996524436
-0.44070726653058045 0.20991499273539205 0.11043660560704893
-0.40712775682527536 0.19898472184748073 0.12706769103266424
1.545509186762004 0.13234279746795607 0.5756296787906336
-0.4407495970042419 0.3316641088432135 0.2065636649177236
-0.37064339054245465 0.17246219160468002 0.17644698577083773
-0.6652143711360168 0.115038500339395 0.03925131479360289
-0.37886434813458436 0.259871543557054 0.12542365709401793
-0.4195913860710334 0.1924547685167255 0.13684471914626783
-0.33270508443433755 0.14622837415397782 0.16513975857839114
-0.4246404322000217 0.1998300470268788 0.18097561257042116
-0.4091955611618232 0.14693792274654527 0.17513117412187285
1.5577591687465002 0.27872740546847297 0.335146387343471
-0.39496970435334333 0.23422789683998246 0.16357814575627572
-0.4312954286249351 0.16043081058622022 0.16577411614440507
-0.40135236244145744 0.1652502298212113 0.18242964366532988
1.5849254966737618 0.25957429851079894 0.36961419997102496
-0.6611092800410461 0.4534811165040793 0.2007551252291364
-0.3996483578482639 0.20773262640894075 0.16850593065925068
-0.33744592239577287 0.14230442902506013 0.12409357199527449
1.5393018882745793 0.3055897697308154 0.36085506086534735
-0.7105781549723815 0.07996361067951341 0.5251070133791131
-0.24548239653427117 0.050138258547193004 0.1071570053146047
-0.4059506191076707 0.25143428257167955 0.23289487728931135
-0.3574348056824874 -0.21310400107442717 0.275275463555829
-0.4058392888071012 0.16043523064315934 0.1677401101597411
-0.3901407245682549 0.173783172093934 0.16416634080547965
-0.3940159082083028 0.25931526830852647 0.1917337834284467
1.5716815685877492 0.23046520887548638 0.4024555191893029
-0.3932406755300235 0.1788212700603964 0.15733813479624814
-0.4030510682748627 0.529240557164556 0.3008571437940759
-0.2992274651439857 -0.09513928630887847 0.03395611265756315
-0.3452520745011043 0.5273151781266989 0.3251412085638208
-0.3532680014284324 0.1570487573599877 0.16271519947355273
-0.4197132738443088 0.19819545390517135 0.14346526594914621
-0.41074151100087875 0.2210090767449202 0.20960146779276556
-0.40801617523152345 0.5251976039117636 0.32012957552529997
-0.6233704650910568 -0.02335416415273528 -0.08603675445459658
-0.3959389111512337 0.21943580469549318 0.17219844026573128
-0.3370725551756095 0.2222818557030024 0.16865375110961622
-0.19411368315536492 -0.1103565905386148 0.08815339425660795
-0.3865637678788971 0.14713831728757043 0.1643382172015322
-0.42142462564129346 0.3162689592546286 0.1386177375362081
-0.28865993415433877 0.23778859263718743 0.1925184357360763
-0.40324910377580636 0.27734785637319703 0.27241686949588484
-0.64032542352993 -0.0026138637357888683 0.142523998712079
-0.46752596294004434 0.049852647990590526 0.07513866791583723
-0.41673576851803773 0.051897400230771495 0.07268414864398665
-0.3825231550397348 0.15520661062062402 0.12983432257630056
2.1681750018173744 0.5418352007367702 0.7577114079642939
-0.4086989818276834 0.18661255197100957 0.17507090171881146
1.623232764380603 0.2745994373657794 0.4079694740969586
-0.3853910586001348 0.17764019657359142 0.16252724951215214
-0.5116928110035133 -0.05593971052705626 -0.04224963268183046
-0.42302490977067464 0.0769269030398192 -0.32136080941103273
1.6151730950945904 0.24882502643997384 0.36599293281621215
1.5733158133948137 0.24130705708778066 0.3768686617288637
1.491440800207286 0.1999132789173217 0.39285555342509326
1.5610382735753348 0.24754788516695214 0.3894679578982192
-0.39471696046143734 0.1839981926578531 0.13830506833352274
-0.3888907467151057 0.17807223758161683 0.15408570071764416
1.584721767066597 0.26514206523681594 0.3757942395780134
-0.6084295177968215 0.18625401373454054 0.030940922294632855
-0.4051818169789385 0.21546636632145066 0.22576789030887312
-0.404350384338386 0.10947471222341676 0.11400984073139853
1.5095300946408798 0.2774734466769786 0.374383018587892
-0.3587524557622146 0.0872687037891211 0.14624876560725397
1.5664191043028524 0.25212126574153615 0.3980406287621605
-0.3975195681812238 0.1643755838131966 0.1716763566628856
-0.4188018703969192 0.22709988913000245 -0.3225523360624152
-0.33519885709006303 -0.21801342704831939 -0.014111963714583453
-0.43561234345156663 0.17871284176096935 0.07735493252135939
-0.3759254759313535 0.1582070786362948 0.197504030858056
-0.4606029356034469 0.18185636837468167 0.024917261992470685
-0.3985081808311861 0.19873248989195247 0.16536674633704251
1.5991257030540993 0.23364094667742563 0.396268914689486
-0.25909790044147485 0.14107503107250352 0.2117332130119962
-0.51634130274374 0.49045080801904817 0.32625328222371763
1.6425164464885285 0.2326500329622121 0.3457357857871699
-0.46080337857324594 0.25353463849485536 0.21615596706129736
-0.3745880445601415 0.11898829153240342 0.1624397531823547
-0.32479736601430886 0.257080339998609 0.19834167728282637
-0.46024340783674234 0.3130777414745154 0.21636725435115522
-0.416115384748764 0.1807017947404148 0.20326796019531912
-0.4277578035505485 0.17384697327823062 0.15905172246590382
-0.41845704262573236 0.1998635392493071 0.1833994652525348
-0.38476396651435607 0.19143311789692063 0.13828538762487597
-0.4009474462034177 0.18044466938324888 0.15910802044987804
-0.38083254472780936 0.14952278620064874 0.16424931396346665
1.5790131606185724 0.18134128371859504 0.45943685365206477
-0.25677278285343164 0.179752948633066 0.15045647913672155
-0.4672746250541877 0.18072380026303847 0.22479108193971342
-0.35755948369819635 0.3004534404581847 0.2628058887467546
1.6272871878022244 0.3180889382460208 0.21441156906372782
-0.39365663224793934 0.1487805481857123 0.207358787153737
-0.42444947568196767 0.1716193931034269 0.18192068332888311
-0.39859957104977184 0.5891099061673941 -0.07546965559862429
-0.4097770417245101 0.140650973827249 0.11693169022061056
-0.3764839137108993 0.36322748026312013 0.24674209425307936
-0.3445283549042415 -0.006903654723757313 0.08336715618230528
-0.4027212240869176 0.19163827894688268 0.1900059602604074
-0.402933632223494 0.17704860929832478 0.14628892237402624
-0.38257823252547496 0.31066986283720155 0.1655288609591139
-0.368819067454524 0.2156687538927855 0.11383182028390593
-0.27388250475246423 0.21565660572112222 0.15985755141906566
-0.33180190270263665 0.21475532388747354 0.12110705146648115
-0.345431469580717 0.2598003085559668 -0.2783409782304602
-0.5060629213364791 0.16647522261798997 0.1259352661118669
-0.5123892763765525 -0.5659378085428415 -0.3125076719178992
-0.37398425137121194 0.264046111316091 0.20811949888326353
1.571274737550496 0.23375544254342628 0.3850421521376717
-0.25977752750236505 -0.16197072604238372 0.07403639922000593
-0.39417953751012647 0.22865766024649758 0.13550577530719465
-0.4055998252840709 0.20930080412388463 0.1377583726689977
0.0005020683495331468 -0.25712226965963225 0.13750013182021803
-0.38538887651134246 0.19514989311308284 0.15380589788861698
-0.481365811279602 0.24971388390720506 0.1907003692732019
1.562872570196717 0.25234973686421824 0.3682450607914376
-0.36740622316915506 0.14301933831036706 0.12430796990253157
-0.38829903929922693 0.031460845083600475 0.0946813843593759
-0.4007641768218946 0.18743007833570857 0.16165597791865594
-0.6651394480975341 0.5741040196126761 0.2558560840234918
-0.7957183534415435 0.2642934407895865 0.027413742934243146
-0.4269290009649467 0.2056496843552651 0.15987562513060993
-0.0933853799613189 0.7579243268674674 0.582518177424447
1.5275679279142906 0.1665459021427722 0.32167476904875514
-0.3966374252593141 0.18972010741443057 0.16381039193680635
-0.3416183145852756 0.3751396026319327 -0.05869084378622347
-0.24402728324253076 0.02801849803388734 0.014164837394730512
-0.5169189015539359 0.05989188811243196 0.28455237517215437
-0.3920618979861956 0.18052129231826086 0.16244584283873564
-0.42723717187959664 0.20032242795885224 0.1806018933103246
-0.396461113090254 -0.15512084105550628 -0.01590686818502718
-0.46508600955326074 0.6237923886483969 -0.14881218751810366
-0.39661526781469547 0.18608536402196307 0.17110226055689282
-0.376061968705244 0.19827242305935044 0.15833930330433077
-0.4315155523033809 0.18592038628146668 0.16919697340659923
1.759907265382438 0.2695696882405372 0.691774842565124
1.5720150272386064 0.21121441456163836 0.39806746156251904
-0.3860288776593279 0.1650097977227034 0.17050784159533805
1.5820894666971554 0.2720703638591857 0.3761377113435316
1.5858312344202687 0.295805317113647 0.40191215486562726
-0.2716829294474792 0.030789041132337047 0.1680392472454173
-0.40234046263117307 0.20120457111359258 0.1745435049206776
-0.3855948822708797 0.16397222428084035 0.1558677566618485
-0.4170653319122266 0.16635414323270936 0.16717645837076134
-0.4193263633312654 0.18518698360738028 0.04954613963224119
-0.4288574384661388 0.157351390630609 0.18263027662493414
-0.40150898901242726 0.18241155746825655 0.20362253332592672
-0.4658144453676414 0.3200219806140723 0.1328482016370458
1.5507202308649113 0.29563777218247367 0.3605318807560849
1.5731020655507137 0.24195908545191003 0.36542606843001124
-0.3943514986565333 0.18673082295306642 0.17519343489863104
-0.36115523075181954 0.1539540003842177 0.08605335125781721
1.616479830073743 0.2527531727650256 0.3340645183373141
1.5996662631655028 0.24789419560367776 0.34202488628513095
-0.2748691255362701 0.075141378850347 0.16735620642162985
-0.4796100521596145 0.21154190151453633 0.13221139306284613
1.622370184587865 0.3061412915089221 0.2313714001823115
-0.49724229072648995 0.26151910534561296 0.04360841432668394
-0.28856577371675485 0.022923060864812328 0.20553008684970564
-0.3708261942626905 0.15536150819123407 0.14168554203666872
-0.3923083734368902 0.13730465731084962 0.1721038598016662
-0.2960175464065742 0.34290074667394776 0.26783312330104536
-0.4818448910625648 0.1427901174730124 0.17761246146716303
-0.4351330997558307 0.33999990782201905 0.20104204336263365
-0.3819623908163976 0.23461321851671357 0.15612481333397454
-0.34754078855235093 0.2441009778386416 0.17402448536910242
-0.44933527728039735 0.07187786808670182 0.047429206167237226
-0.4089281262965869 0.2938419740504088 0.10011530140496916
-0.44031372686345094 0.16528027987540383 0.17541319908656305
1.573913858926474 0.24070377734862802 0.3841613640572774
-0.3583177479119968 0.2861498456305327 -0.16729514082811647
-0.4815118799122047 0.05051625630319734 0.03920538196422285
-0.4997562134774398 0.317779340953237 0.2002758144781751
1.5651559244865467 0.2568775291987748 0.38034235430247065
-0.5046025777371597 0.16642187832356115 0.0774142540440721
-0.3372428344698619 0.16266170068145414 0.0871314279184503
-0.4359890410812568 0.1380189332968058 0.17179648051120466
1.4671671140963127 0.288996551881084 0.3606444441277432
-0.3946213964625258 0.5191249634927573 -0.029429239834769305
-0.6348877215893935 0.3006332825726332 0.15427447887219614
-0.44468880092222207 0.07387373706758638 0.24488942543126768
-0.38327975963670724 0.12803928664386888 0.15644519947551316
-0.5986679608138274 0.39599486550748964 0.0038058779583138858
-0.43851219510156625 -0.17017530539571624 0.48057504216291136
-0.4506384806843471 0.20326962246060987 0.15833613168530292
-0.4166478626690804 1.474046880779241 0.36443422270822623
-0.35988171046096795 0.14076306781232972 0.034066843186394635
-0.4115349764140319 0.43637056014001985 0.2545980311379594
-0.44125803580004686 0.1935236539548697 0.14190909484483427
1.512710129099517 0.2862832851209731 0.40203340375161645
-0.41966312957424634 0.15897663793028016 0.1656780390449626
-0.3919699147479605 0.18468874337584396 0.1664154760920269
-0.6934918278964233 -0.4199830208116708 -0.13124961933039003
-0.519501988044567 0.16772375179887433 0.12089811483480162
-0.42280730997640603 0.1662158623194756 0.17693481532938904
-0.5053653830798339 0.09290942660034318 0.09840062478639311
-0.6070542598279189 0.15501923224390168 0.08908183345653242
1.6095306139463474 0.24138723418256802 0.4121001299966025
-0.4242494071038436 0.20494182331920285 0.15121317686595148
-0.37990208269525283 0.2061617757982077 0.14376447381533808
-0.3808251537518572 0.3770692583030524 0.31775045612909025
-0.5386407489093017 0.16062864212752004 0.14144820937968916
-0.34103344028312677 0.09733984729707856 0.13634379798628515
1.4204058844620278 0.34038358623767806 0.4383273955929923
-0.3844650007920336 0.13140938168824334 0.17215681107796854
-0.20134333913642877 0.4705407406991782 0.35814193109132475
-0.40545797088611835 0.10278201958597322 0.12395319188095755
-0.220180850675888 0.41198318561971803 -0.238501531685813
-0.36791031082589143 0.16973296104431768 0.12652062097646422
1.6207922708267262 0.25448436359549476 0.39408447873144326
-0.48614528422672265 0.6690667357152762 -0.1585772164716559
-0.14420620744544976 0.3222237761920752 0.350144805704133
-0.3935576661858704 0.19002075650230665 0.16214557227527848
-0.417175786769576 0.1793579982450666 0.12379076177336401
1.56069266163054 0.23155445395643426 0.3791384205717492
-0.4007313612053167 0.17858229222208877 0.200564513300435
-0.4482130447538566 0.3031808074420752 0.15135759612627453
1.5612932566577484 0.17857682774449302 0.4205711644638228
1.5447205875093033 0.329942841778049 0.5005390394974398
1.5356998454803517 0.25678442301834536 0.4058783922839808
-0.7671416515620422 0.1840274687247785 -0.008233857954962787
-0.5044624770196151 0.5224066462224783 0.2560829989061517
1.5833592351550152 0.23371950746188475 0.4026600366953659
1.577950282472969 0.23853891098080737 0.38638713234401223
-0.3992858542731028 0.1443000260597529 0.1580723527268333
-0.2925310472162437 0.17750502488077302 0.2004947944924993
0.0008060222355652513 0.28281502535999437 0.3346326670990152
1.5537596467906525 0.31755841220403624 0.38913124066608873
-0.38074190282691234 0.17723826010212917 0.1693011036523444
-0.3473253252120685 0.11835704854190965 0.15355044355698055
-0.2908557022126388 0.08311184606016297 0.149509684500174
-0.38821336646992677 0.29783603659332414 0.22627651909448332
1.6082277309173634 0.2666013694801421 0.30225611967331645
-0.38496518248189204 0.1780450015185835 0.14997504869558043
-0.4013281643526625 0.19380614085555692 0.17187329692848152
-0.38718217910695785 0.1825543561690921 0.13242123307742304
1.648283739762931 0.22002743626619292 0.381755029087131
-0.14921065812427514 0.19699989090175052 0.26675925621844954
-0.45565508698541635 0.13593083357871194 0.0913508556232614
-0.4104771206291389 0.18248937529013176 0.15974392820231742
-0.4284601809592914 0.38729538878858705 0.21208416143514341
-0.19543237631637567 0.29308492800653596 0.2893881074533624
-0.8298392409594726 0.33453773817480226 0.0495732522950334
-0.29925801252443307 0.24574955663145204 0.22711785355664915
-0.2069042289765548 0.44691873452127595 0.37161249140359587
-0.42938813214618676 0.21518781891525407 0.043995375131146375
1.5882524533221414 0.22720138611877871 0.35551293311006305
-0.3944938589954745 0.21799283585012574 0.186440004353301
-0.5850260669501495 0.04323025903165956 0.03877351651050276
-0.541636031320877 0.15975791512489934 0.06801962325431532
-0.39737767816018277 0.1725016070386829 0.14695282870985693
-0.3480249757083129 0.21883369720042367 0.21117410654284186
1.5874957844639113 0.1368934928872676 0.41724479128903624
-0.5871119016917419 0.21634272968829293 0.08535446444608397
-0.2852768117697906 -0.1525292012983499 0.04319738069631285
-0.3666501401128244 0.2804977606839003 0.21456399405457205
-0.2778614724190902 0.3100768711274924 0.004256742392556134
-0.39264108307156675 0.17009990772665162 0.16836945371784395
-0.2819239983471107 0.022622415036565258 0.10295977288939184
-0.43355385234076493 0.3934654082959952 0.24647319534875578
-0.13760231082756036 0.20147361716688295 0.23911538938142485
-0.7278043741496276 0.03303515276373048 -0.0035414077892141904
-0.4410999978097152 0.1844817619394945 0.11354213053442663
-0.3860738698529076 0.22856933361352105 0.2170318871185941
-0.3930629312196743 0.17658478923574705 0.16857478100888557
-0.5070412496240806 0.17232006712318082 0.0031328670129937564
-0.3957859811741855 0.20426563097596784 0.1563525892243547
-0.41973190215844625 0.05806683859289308 0.14625835077919191
-0.46686182563621514 0.20272061897874494 0.08421353468753523
-0.5915985072167587 0.13340459129274507 0.04172194222070402
-0.3669243494184684 0.24083327984870095 0.21208289483644194
-0.42103419286627286 0.13868757820189614 0.1839780847922725
-0.4764440098913383 0.5149141635602774 0.3118717990265054
-0.3439403215559196 0.07534933945596833 0.11723389694549269
-0.30496029948312753 0.05974557361066957 0.12587596321560568
-0.3761970775337886 0.18297778191943337 0.1667195072778327
-0.4001362181404602 0.18500746850357075 0.1802452619568271
1.5027569208318283 0.37568807298923446 0.26830193889624354
-0.8696774060042571 -0.36266486981450896 -0.3573319741144019
1.5773686540628233 0.2309631162756176 0.3704048667598414
0.09903242046516425 -0.2658046100431619 0.12712766075588888
-0.41461413187403195 0.19917056819856782 0.19461233759381003
-0.5347276592763137 0.15741260460079332 0.09497173348523802
-0.3675224149735641 0.03754098078668733 0.08921206960536665
1.5829005266563883 0.48287529940391494 0.6778671119857478
-0.4209054300697517 0.18838704720572252 0.10285691017367071
-0.3698806224526834 0.1849617404487418 0.17314394222654528
0.07157658393066413 0.12876092752874513 -0.10625614007852846
-0.46593004112560266 0.12583983799875398 0.11540655264712996
-0.5463059619329869 1.4312228638952718 0.5139944506983767
-0.4427976610274982 0.009509959430104686 0.0893117360220117
-0.4217003101618957 0.20762395782828946 0.10492430100299543
-0.37870186959821694 0.2648225959247412 0.19205732675351328
-0.1582914108546447 0.2027641843861403 0.2892582736358804
-0.48570936565715783 0.15361255890191217 0.11762276882387823
-0.4521961102398109 0.2462742488688292 0.20701657826163
1.5878526579612782 0.24080448172428248 0.38898281788284805
-0.413152720979042 0.2399437997347178 0.09389457324601835
1.5738922133600255 0.28276203269744826 0.39267374878114936
1.448063587027221 0.28836084599281264 0.4536877993989634
-0.6377678329261016 0.27813691756189485 0.12447629341937727
-0.30831181650478356 -0.026757127433413075 0.0951849243984384
-0.3806500176103782 0.16396604588688035 0.15357873061753935
-0.465844396701641 -0.15617697575628142 -0.0446599402084189
-0.5072549918802451 0.9080398168271842 0.43469263831235594
-0.3824347278239202 0.19693861639559884 0.15329705303616947
-0.3935661312095817 0.18166726251099874 0.1583412544251246
-0.3678356690468263 -0.0494265470796762 0.1433542318091554
-0.38360629157591575 0.15309892146349569 0.1300827063069505
-0.32164363210517877 0.20238295121551175 0.26856389859773344
1.3576459635073235 0.5417283296086879 0.7473869298148799
-0.3280742282183837 0.09237811079681535 0.31534098306752867
-0.4324487934025001 0.18838942068130393 0.15884081631980962
-0.2366017067940902 0.4597137059873404 0.32486997762777037
-0.20047540610153192 0.16998982260436435 0.2207758783743543
-0.5059648418935012 0.28998743107975145 0.1789774879262609
-0.2631956601651382 0.013145172209149791 0.18511507133104033
-0.3551106194170188 0.2845915417975249 0.20174900660373396
-0.2461859250577163 0.20718189998031278 0.13901638643898195
-0.47001733633503306 1.3866644747829184 0.4266468649904738
-0.4119909649850797 0.1819174149396332 0.1602115732067091
-0.36776728016752713 0.17242597526372094 0.17496692607261366
-0.4006702566655349 0.09328015258968492 0.08807587096549696
-0.44369318728763574 0.0734604682630362 0.05949017623521513
-0.32294772957880014 0.032039010137921764 0.4234963528261346
-0.5125858218204229 1.4101717429509506 0.46668566113221743
-0.4353597352417182 0.1689144998645844 0.2058883703694505
-0.12051950042564386 -0.008172309785479115 0.18442673640407747
1.5527764942521145 0.20943063008273555 0.46018871409184214
-0.3996736618826162 0.19160189869315047 0.16497536175035066
-0.3269598672302436 0.219293561936027 0.1935005414680404
1.5095961440378716 0.2893365293243022 0.3887316372740912
-0.4171788880737495 0.18319407362749018 0.16702333543531722
-0.22910560314971917 0.31401319167078157 0.27937194177962965
-0.36473889296371453 0.20194017438650746 0.15205855792470402
-0.46243099515754693 0.20551614759922643 0.1710948723749084
-0.8561175579341125 0.5994713689988913 0.18048576111056036
-0.5698694849522781 0.5263352777665915 0.22981243798591322
-0.49661472087223046 0.1704430498039784 0.14257464403368658
-0.22050195579845422 0.21080415619969983 0.2507225743875665
1.5653590627038767 0.25090889050299836 0.38632062939292666
-0.40309129116553777 0.20167987904012818 0.17485819229938215
-0.12761683409530633 0.09069984516561647 0.2194767057345075
-0.4990425193943082 1.3981342207914338 0.47625084083411195
-0.47128974293786996 0.22230145445526261 0.20953074315644926
-0.39687520844358914 0.18772418534815927 0.1348854753569526
1.5472542561614802 0.2014170780279727 0.48473792267328975
-0.5288673360161482 1.43647170945016 0.5026973160158406
-0.3604619505019855 0.13757975882352014 0.21552891874767965
-0.221021738103218 0.7900279845899405 0.2087446957276029
1.6767560441071083 0.2100489966073127 0.35390006122476336
-0.36222624798733705 0.18127986200586577 0.19089946555055803
1.4122954804474404 0.15627766842628432 0.4347756591189551
-0.5226876700432967 0.35004315635622163 0.1405602156565351
1.7251020718390038 0.1861343539753051 0.36346993525809523
-0.0034687036784362135 -0.2363924596601663 0.19633340681053824
-0.5049831533940505 0.1009468968814673 0.14646832304157442
-0.4015821006285023 0.12402222415865083 0.15907486443489915
-0.4692803437026214 0.1688712697333159 0.04931924710132307
-0.4142295887829732 0.20161833538175244 0.16917644985102243
-0.5409498775513839 0.10004664322794099 0.04626242289401716
-0.22052757089454644 0.3066712256377997 0.021017449294106427
-0.5329591000588607 0.14552429801285882 0.09299037078477568
-0.5226187223704528 -0.013719386249178456 0.04861656794406599
-0.3983357897629958 0.19175702723175903 0.15257850879885382
-0.16797829811889642 0.11836756131113191 0.19231405140914148
-0.41966912356633657 0.31234324833810945 0.203237278704421
-0.3951520109073954 0.13342601171196122 0.17827404787846035
-0.21120901053268426 -0.1688377175623117 0.07789144883014387
-0.5530251229317855 0.22790228313267846 0.1704782907300455
-0.5032093936713409 0.16233730426490922 0.12642726147629446
-0.41791672279555314 0.18355670553599168 0.18725519286550707
-0.3810562297837805 0.2218137208229365 0.13704340191640085
0.05111311728637702 0.2579268302625479 0.38392079094506926
-0.21700451915580743 0.07869731000126023 0.15693760555319614
-0.42913581450898164 0.19231403263718505 0.16697602797381705
-0.37466253919023984 0.17647581005901714 0.1572271933228535
-0.030414533069915706 0.15662490686834474 0.2794950924263162
-0.35595491548497193 0.12707859388054032 0.2636828220830125
-0.41463633646685594 0.1752831676831903 0.2009835451290769
-0.15846208875495904 0.4056717093890967 -0.21426422675989443
1.549055378141432 0.21878674695874167 0.4476392988610911
-0.5157062376054 0.2884585421389403 0.17656625280238814
1.5017404679233124 0.1786502420404048 0.43477555853611705
-0.39936226626355165 0.1936798591023745 0.18754358807660765
-0.3741546461494636 0.19092344370172043 0.15060797272332138
-0.4100276671485972 0.19089660903871675 0.044935340379254285
-0.44592072089631074 0.22518063819468637 0.17187473768450445
-0.3487070167573165 0.2118732008940043 0.1634322988948611
-0.4212821034850549 0.23151935002267976 0.2478241420731706
-0.41951438245791906 0.1683054875439467 0.15508138233877844
-0.2779067123444747 0.0934240531033339 0.08628899077035612
-0.270944614163227 0.2982702117270293 -0.02791100522421175
-0.257832315018959 0.16028397081852575 0.20839091235853857
-0.41884576921779626 0.22771576529801507 0.1590613718990994
-0.5947501624139022 0.3729323383277716 0.14060934664763636
