# .PCD v0.7 - Point Cloud Data file format
VERSION .7
FIELDS x y z
SIZE 4 4 4 
TYPE F F F 
COUNT 1 1 1 
WIDTH 804
HEIGHT 1 
VIEWPOINT 0 0 0 1 0 0 0 
POINTS 804
DATA ascii 
-0.3487686186389851 0.17890506382067883 0.2143140747158725
-0.41168234094674006 0.18739565167840055 0.19717060856575586
-0.35287771474962426 0.16650310895290943 0.19800966485070148
-0.39154995875438203 0.2496641123573795 0.38188716383045573
-0.20668006158675212 0.14014865502677765 0.19271953005032572
-0.3992363992657886 0.23306420655352156 0.24324023946620343
1.4862305071409736 0.24783234334023518 0.3715397706221495
-0.4479030843908163 0.13607428000638322 0.1572790260288741
-0.1677129959434609 0.24992376849438358 0.25213389565867317
-0.5302314274619278 0.502290902045516 0.258473861390911
-0.3427148066823662 0.19101612284377723 0.20594466731695604
-0.37104985695741277 0.21533032710892996 0.16763833258649186
-0.2685485865436732 0.14708444386431552 0.1922361558235366
-0.4243844699424528 -0.044133536008672536 0.04277873689159151
-0.3226902562130789 0.23145275049982672 0.20675404289119115
-0.3012191913460214 0.4384699624679911 0.7852520984281455
-0.41151246951314135 0.2220786404840709 0.4599158088956301
-0.34257726104391395 0.22425973162658863 0.2128857332934615
-0.3461174674842624 0.25059994940419017 0.11949250685229629
1.4574191766607214 0.2347587905556736 0.35622506181579183
-0.32435443820860144 0.21762763445637745 0.20685343400707268
-0.4719434865174321 0.3164412937597234 0.19770134758961433
-0.3903558343047564 0.18279362285879586 0.17318375295585042
-0.35546138156024654 0.1897411811169718 0.17153653967237403
-0.07288578807272472 0.18351315651794664 0.34162059405750256
-0.31578770099827125 0.20780433765365558 0.07952464663122782
-0.05748503657653714 -0.00361214061487658 0.20229474522231783
-0.3324508257454539 0.1827522869551359 0.18960164706960825
-0.010743940059910528 -0.0018045486255999776 0.22157054929229503
1.48072245800455 0.2866093462375403 0.36654805664331036
-0.3297980456170393 0.15657424892538074 0.20444690061599147
-0.10515720930158068 0.16764613944610574 0.26162081124093106
1.4633329698641688 0.29988789639556046 0.33839941224853476
-0.40634302631451646 0.07658198451484566 0.08839033974383881
-0.39668986164159037 -0.14651749239313006 -0.009456147458479336
-0.37658979724793085 0.3202176420496272 0.10565743677567241
-0.3741948353249569 0.16706497120249253 0.20106338796979628
-0.4882963479750657 0.8285126586496006 -0.26474097827035337
-0.6200372475013154 0.07831336101179431 0.38640469350083606
-0.5997684557089968 0.1348720365888738 0.027196956360100444
-0.3921702278235131 0.2754367603989465 0.23167289247611222
-0.3029099107036899 0.14560028982921835 0.19479822649499567
-0.36341229004182196 0.17919843176724726 0.19830621919757618
-0.3438664515086174 0.20385917942464005 0.21734547888192424
-0.3814027921580845 0.37755947114295907 0.2586888155046978
1.4677677637474318 0.2975987705275003 0.35028902022438047
-0.35304632560426796 0.19832572621422173 0.18779549186139377
-0.4162677316003851 0.2542061242601932 0.2478454285138696
-0.23502415466364823 0.1406727189968393 0.3505416803783845
1.5833602408691405 0.25815346996088806 0.2624567555604074
1.4165630740812531 0.3143174571505227 0.27732387820019255
-0.3545386492937155 0.39125389733301574 0.12164493595363979
1.4154555061128065 0.273984982056902 0.43590983236215664
-0.4338762060122434 0.1279770917848424 0.12128920410799537
-0.3481479967301482 0.19210475155365714 0.17890022371108216
-0.0753081411424148 0.06681024465179064 0.2670466341653537
-0.5040872614788015 0.15644774866298405 0.3482778067158705
-0.35195166004254475 0.17071500000903939 0.18222697403992072
-0.3494877907898797 0.18329407521602548 0.18330139000762813
-0.42825532367479013 0.28557117512852415 0.1693976524587697
-0.37030686736771656 0.18857920292573738 0.15959937331713547
-0.7175381885897707 0.12922812621647495 -0.007000446469319854
-0.3474925561923783 0.1891666435623165 0.1818314127608005
-0.19234207115094648 -0.027220419300277854 0.13291278062590095
-0.27170777890340503 0.5256517632419673 0.39187217067393476
-0.19608702514609888 0.33396361430287413 0.29725166962232663
-0.3175736866075596 0.21801109329015844 0.18854652045735065
-0.38422415480081895 0.2903538779688404 0.19286105939782772
1.5586155964636959 0.24847300308573494 0.28919440391557316
1.4511886374461085 0.2589573855321987 0.3563892592621869
-0.320183358085643 -0.10718680259695645 0.02217755034108393
1.343762894265197 0.22879125240474707 0.5505944404202268
1.5000505692732133 0.1872045035714649 0.2988257954512932
-0.3463390307889256 0.17157476727132348 0.17041897427614572
-0.29485916342036944 0.07192793431644873 0.0754107131977122
1.5169188106975184 0.27620020216960484 0.3250218125698012
1.6202742796182577 -0.12940526663894047 0.30677408964713493
-0.3965917366469398 0.15873330791606577 0.1770056990830824
-0.2688353604207947 0.1739052739897602 0.2206697782271192
-0.35809094271418473 0.189568914718663 0.17997419515064905
-0.38599899828290063 0.17917646726965586 0.2062250822851155
-0.31154013593713614 0.20378210800738827 0.1783482118775339
-0.28949478532940986 0.12494208608673318 0.22133035916580468
-0.4689812654075638 0.3191055540066259 0.20000046362039825
-0.5028037129461893 1.332411793098487 0.37094276760871026
-0.48150646246298834 0.3144732012663525 0.3082729644359574
-0.28536914582430484 0.4135056333174987 0.3817852973668181
-0.19594322587995805 0.3007280658844991 0.2895885618858074
-0.3736006697441496 0.18016800660993226 0.19102076237626875
-0.5232633473228816 1.2415101713938839 0.3880731754293407
-0.3393240806148583 0.5474230192987193 0.3670219598190272
1.4286266710747668 0.2421285449938182 0.34776813862092126
-0.20226491809781066 0.28473039726868876 0.2779197498566788
-0.3796392665764614 0.21501370681960452 0.1722344192960179
-0.37299123089687214 0.19115188459278443 0.19962639380140956
-0.4733172637400145 0.23333836576387057 0.15690166680495565
-0.3823153213848798 0.18363819212059695 0.17174201444586856
1.6042209358516573 0.045615167774926135 0.40865155324530633
-0.36992543743285466 0.18502202206450136 0.19352234063892126
-0.6283969687622601 0.3000415421481648 0.11257883488181619
-0.1790961325438758 0.873975678369078 0.5368321092314119
-0.7967876581455329 0.7734352856167561 -0.4113817262944508
-0.33972607033962277 0.1685747935382551 0.20233715637080252
-0.1589409929005967 0.06988067082779992 0.16894845588315377
-0.32533287305088265 0.13178912123132136 0.11268501015543109
-0.40619886996204 0.05769839158024581 0.11952453187504375
-0.23569723142607302 0.13468305614374287 0.17545916598237454
1.5243578092412235 0.3401224058320196 0.5651115242134779
-0.37943759395895427 0.19064194474248097 0.17023722719743262
-0.3201416287674732 0.19643336100193665 0.16478916490649453
1.5005100937529932 0.21554093667472785 0.36045946636926374
1.4605743662177844 0.26420947269964756 0.3850654908167144
-0.30976308328573054 0.168395571074484 0.26645877224606807
1.4493464712681003 0.19773751396861883 0.31366296050980225
-0.3756164715691739 0.2165050534155597 0.17756304573636328
-0.376520266303487 0.15665406997231912 0.15027808311006652
-0.2592772129895593 0.14853491462099555 0.20013751280883696
-0.3980073320108062 0.10204007537204518 0.10327566987383818
-0.5064124370890681 1.3351837603851777 0.3754746714875665
1.6209824882063515 -0.62992622735635 0.48926923090273533
-0.3539938078700686 0.3350572835232697 0.2810254121770299
-0.3453477676069241 0.17825584817437345 0.1805633009664973
-0.3502682090903022 0.27080434599392333 0.1903620405506956
-0.2705954058616129 0.1522802777263479 0.20983516186151974
0.2764845904071507 -0.32728846302738646 0.7991966241327901
-0.3712299934045262 0.1863756469009985 0.16729022710885033
-0.2835988059178476 0.24231462810203652 0.20685371491266835
1.4815524037636152 0.2788612498307117 0.34623252131966353
1.5410763510958105 0.20481499278302806 0.4041667717666684
-0.31196353294066625 0.29464883834995703 0.27468772260459673
-0.3263591577107121 0.23386656667088346 0.19029987630385392
1.2873356044243565 0.3375999019002478 0.30327135584896325
-0.5833983362018813 0.21951906944562438 0.11235979318034595
-0.3434803317548898 0.18510062830600305 0.19500720568187546
-0.2930936551508836 0.22468451001638812 0.1970163755964478
-0.01828123830004813 -0.14162890274467088 -0.2167680076463796
-0.16901009809971868 0.04970056968983272 0.20207095062448843
1.4644112807717846 0.20832964037003876 0.3955858537208883
-0.3463378276795339 0.19614029164104352 0.1745891545322138
-0.29710002817616044 0.206873641539417 0.18657198809167141
-0.3343064515451175 0.1894144627823522 0.20237254770678703
-0.40448885300673965 0.18110993022003186 0.17199801959627337
-0.4034313438282169 0.18538110665058127 0.35110558281229487
-0.3507310562753503 0.17366351513989287 0.19892873753117613
-0.21006813577268701 0.21414972008314237 0.2529477865628422
-0.5256163959049474 0.09880421449921073 0.0902870825745481
1.481387234204206 0.23834965992304546 0.31338607419382924
-0.3377331273823643 0.15034843117625485 0.15110295868254298
1.5728013731028483 0.25835257830783576 0.2420624050066209
-0.34852394936525855 0.19713484407368753 0.17837469567106723
-0.36359686207191544 0.18895112861068242 0.14165427383973395
-0.4884780587142643 0.3044964567143609 0.15131841600123153
-0.4612838952497924 0.17660991513945135 0.15624448875101393
1.4729306212695263 0.25868479574126013 0.3633063198349049
-0.39302033451910745 0.2670557856437341 0.20772726480829817
-0.6764075920660844 0.31892422092406036 -0.03639912234443443
-0.3920599891166603 0.22551740449361546 0.15304387062472813
-0.3387164000239835 0.2488601586336756 0.22765823509418226
-0.37542460099055575 0.19299355955061515 0.1660771290097358
-0.10857857178827146 0.2009212584596014 0.3046290399782521
-0.320875787381496 0.28240212988899316 0.2689420826451965
-0.3940100592414666 0.15201869239012922 0.17628988009418833
-0.8811084632212953 0.40510775506162133 0.22095430799406302
-0.31246868188496535 0.1683147506125806 0.21073493157571477
1.5347743281517552 0.28462058995249606 0.45779456896457305
-0.20392603573796464 0.2820333426729036 0.14739239912165658
-0.3520448235455689 0.21398742246401525 0.21759118914786768
1.6249451778238324 0.05017249741067076 0.2679735669303227
-0.3908781152202465 0.26310321413754423 0.19088444595826104
-0.3537828712082387 0.16795505127339538 0.15911975736814554
-0.37685538394244134 0.22712335072711198 0.1302649330722403
-0.34805257582917193 0.18303215935746664 0.1533776048407418
-0.70162321600192 0.34554653663619206 0.10933414866147473
-0.40314790391683175 0.1738752222563562 0.1690067200889871
1.4733674518975448 0.2718741555985247 0.39996367696556945
-0.4237989649114695 -0.03294769104553552 0.04045309039742051
-0.22253166202780506 0.12945824534568828 0.21181880573067247
-0.3575685367277117 0.18064875776524048 0.1700363964843632
-0.3498719558491814 0.20973564853892412 0.2498389482253316
-0.3243601495825317 0.2501455493179776 0.17569270060249664
1.501036671236747 0.2502704180667479 0.3848371439585918
-0.41346484324940036 0.20257062613649168 0.18358242389570023
-0.3632183192308531 0.2104407184053798 0.19102912817852769
1.510288119820018 0.24456646085430123 0.3551348828741965
1.456834184559213 0.2891486423856975 0.2630618799949218
1.5323074795639116 0.2312626212875557 0.40078828707315495
-0.29865281185453796 0.18587779542941973 0.1781946944254713
-0.3566776926986961 0.20410960350389473 0.1900702288928926
-0.2654868741655889 -0.034843947564539235 0.11230071394120955
-0.37151387814645886 0.5741052385061352 0.3368851492550533
-0.2442663626143542 0.1465293936211367 0.16525712944859094
-0.3677426774453636 0.6741444362593825 0.3854743698257437
-0.47928837438072946 0.0742414459710119 0.05696826331771376
-0.27077189793634204 0.11022301814708158 0.2848269122701339
-0.4611064037368635 -0.07896115393245395 0.034330691223317444
-0.337192337242314 0.19564568494539003 0.20778537621144721
-0.2740928064589241 0.4614789718700223 0.3632436197432014
1.4855177636096784 0.2460400328258885 0.33954323414671705
-0.3729544919932266 0.08922049670150045 0.27976987613305937
-0.35721716868799547 0.15821936232349287 0.18440765536607273
-0.4486637695002287 0.14647249222419134 0.1026345991121218
-0.3702478874681816 0.20142403589115077 0.14659712109168765
-0.35037736588513724 0.1957424005868802 0.18529135525766094
-0.3399169004343747 0.22745434976525303 0.1854410702895848
-0.19121451643646026 0.01386837393116025 0.15764571234097957
1.456821829401946 0.2266824097639244 0.36599517637891665
-0.374247550402643 0.1301629428027269 0.14361675904231674
1.5653827257563222 0.20232558866044315 0.3834108746238343
-0.5390581054394659 0.2962039739506963 0.17403244577718624
-0.32678853720707934 0.1306865931812098 0.1923440116554076
-0.3296466915895593 0.20008146117578463 0.18911622436540654
-0.32652446418570946 0.2180778232793017 0.1798633647192247
-0.372153720346617 0.21066552494572477 0.2178569603416065
-0.10456269390557793 0.052275103911881615 0.22166505311450635
1.5094630524482255 0.24782151472957992 0.32577882713842143
-0.39514909158826583 0.2021573208369034 0.1253409607582796
-0.753792199562497 0.4239204403156691 0.2168879291390624
-0.31758513196794524 0.12954636525238072 0.2713017547275456
-0.31270233473698283 0.20404018929099266 0.19223683173984796
-0.2200308574776102 0.20890850027289787 0.2913532133347161
-0.2803458737060822 0.18357212370652576 0.14534860359142954
-0.4094715187890472 0.17264164193099418 0.26010400879198414
-0.3180395745795863 0.17917684348631724 0.17271637154075847
-0.4825181585895564 1.2959559163679302 0.43780023171385096
-0.34897435109391495 0.18877353705255473 0.17751442588145494
1.433609876278581 0.28813734484823783 0.37645738180141564
-0.40138878088012575 0.17967339030903418 0.21733358137225878
-0.4605024319097737 0.2994560317022632 0.3446340081834762
-0.3429120658782381 0.22770920552132168 0.19069316236139855
-0.4358914137725378 0.12441143862379533 0.17538659078374508
-0.729211350025821 -1.004952111704739 0.22050389419452188
-0.35445844077426614 0.19496019866133452 0.16572705688250267
-0.31290993220024177 0.1771883803026384 0.16984704016502405
-0.22544783673252766 0.2381496640020373 0.22400921553700925
-0.1844277298250745 0.24843150525767044 -0.158151850066659
-0.33440276804533653 0.21317772723260475 0.19572011203229067
-0.35939109563629756 0.19489844118176336 0.19193106032896878
-0.33072303836463846 0.18688095284770156 0.17547904021616034
-0.03434439256328403 0.13568897275762026 0.2756988383887631
-0.5037596540155818 0.32101930145965696 0.15834593843767664
-0.37208474803215097 0.10231534024993039 0.15216702898834455
-0.3457770896498005 0.16662925276135354 0.19193897117648362
-0.33878386503090496 0.2240484165451022 0.19823051036409822
1.437266823726958 0.018946133904165663 0.3593799896731298
-0.27831812387766774 0.37811745126177243 0.1050342983057817
-0.4635911634663188 0.20046438228551722 0.11158075950979196
1.7410114815854314 0.25410061183508503 0.5867529023818463
-0.34252991985262327 0.21019761776837242 0.16691493691003245
1.4305944288625483 0.18948666061864117 0.13891327963528965
-0.3879855985573073 0.21326042707029558 0.19720727028095553
-0.33960196388001407 0.010952974813150718 0.1241907466772858
-0.4947564906007642 1.280489467533883 0.3531063636113032
-0.3526094413420253 0.16992786467326937 0.14763895590618858
-0.4444439153901101 0.22427360920882222 0.2187773248194702
-0.7718477783952693 0.43562359961299535 0.13367492504966094
-0.27005268615985756 0.14916637468341776 0.27637251952161535
-0.48679633496369945 0.37354120642130795 0.2424224326825879
-0.4282661877456917 0.1839250828168133 0.13584350161288228
-0.4542164667683153 0.227253008269372 0.15724797113171007
-0.44130586421216833 0.1798844300850675 0.14612106018940096
0.2940923939388256 0.09984912573565907 0.5144544900411319
-0.14384184564286784 0.0778408921368623 -0.07179357117638574
-0.9643384191590769 0.2930791971182032 0.5124727090107655
1.5030202289937904 0.18820290009948337 0.38324059817298917
1.4359942971636315 0.2622213828461355 0.4137361392001111
-0.3627334506546589 0.18064694934376746 0.17378903106290977
-0.3128568992498231 0.21506367799661064 0.10272176672164335
-0.3733376622093232 0.18200118986506197 0.17291923162449052
1.5572253973244443 0.21086217412647557 0.32406565257049635
-0.33715167414111136 0.18908325402237836 0.20583851431733535
1.506624734921317 0.24228974041240292 0.38370511522138884
-0.21545664675767284 0.0996880131838509 0.18641045361158604
-0.4341784045315791 0.25906776096476847 0.21025931284822263
-0.17066947396229182 0.11304468348609475 0.19674230901533463
-0.40649508316604965 0.19324677167101356 0.10967588874696332
0.1500093131875957 0.010090021053244413 0.020746683658430243
-0.4812628480383836 0.538907346223084 0.3040562582860673
-0.47420272203720515 0.1939839970441568 0.15550097249420958
-0.3195958116230173 0.1711569180449004 0.18311357653335847
-0.35147113879389735 0.2250708172222602 0.21228070601897286
-0.6619212334802853 0.09796592102239288 -0.01859743162552263
1.5458513250202373 0.20102315185241082 0.3600364257548847
-0.31489931194755627 0.15944170891179965 0.1488060362741237
-0.2917533047039882 0.3824566115062993 0.3099317315421928
-0.2298210907313063 0.21917325290526435 0.3195565260063091
-0.4216335711049908 -0.04440300372112915 0.3275831995508014
1.4305349438978112 0.2706667259463842 0.3308107976871213
-0.358620294639195 0.1949103617337613 0.18013703986942176
-0.6408578207662714 0.29937105141067377 0.6847137214680004
-0.339993431411159 0.10108050926464784 0.10728539154487748
-0.5561308990449021 0.16674733561238497 0.06796874430561672
1.3341566886219312 0.2279763504127459 0.46755043264771246
-0.35285823867828014 0.1980797420348921 0.16930172510254238
-0.5187237170414676 1.264249366942309 0.3967066391771823
-0.34952079364666133 0.19420064696855377 0.1799908171289104
-0.3480624549911653 0.1406018789741097 0.12947714940085575
-0.2824611842841591 0.18731649820345808 0.20708264054637482
-0.4369749936973193 0.21342307388104587 0.09453365261603608
-0.2802442112295864 0.16105398106763857 0.25833038703650857
-0.1899665300681903 0.08588284361351839 0.2280469591594141
-0.500146498594205 1.3188919261893375 0.37173417338154024
-0.21886980970539582 0.17457419538978058 0.07518397521616293
1.4537649734771492 0.22036874633464265 0.4494051081519501
-0.372651411633953 0.21263983871651249 0.1937644261762017
-0.30578581252721904 0.20133308131025274 0.19423017230006678
-0.41909000045279754 0.5213051745590747 0.32461676059844535
-0.4126748005933223 0.1380507201081116 0.13079292529367592
1.440439816631752 0.2506713186338203 0.3636690401873466
-0.3210715230481327 0.178240836123706 0.17945846309810065
-0.6328903696379626 0.18662226677594163 0.05859537596725772
1.762116361321148 0.40722557406958515 0.13633609462783625
-0.5645206754917638 0.17402865466735307 0.39183993877651346
-0.35084054956070077 0.1706999832872924 0.15781157999747109
-0.2776241154257235 0.3649087568648923 0.295804196025216
1.5172117890751196 0.14795198635748363 0.2801261898347178
1.5600698230652625 0.19159461535075195 0.3368850506918193
-0.147716620438473 0.13150737112154331 0.2834779815133146
-0.3976097299092771 0.18016502881656038 0.17425617579898756
-0.2913793988219311 0.31390244557749725 0.2568502715526506
-0.39407899168655547 0.339515238299569 0.24326217359055136
-0.3871506637410107 0.3414186140531541 0.1403915322532754
-0.3421988813315977 0.1798919535175827 0.19104436993779927
-0.3823053868655677 0.15508712707270433 0.16048538668825074
-0.17924782769679837 0.1971762443422307 0.2847156507180273
-0.3639164020761143 0.21053308202895948 0.13326474758673612
-0.3785719909954963 0.20512149940745417 0.1958318552138536
-0.3054170373905549 0.18744071999388723 0.16670270148915733
-0.37573908312802473 0.1669424794932013 0.14614679985706402
-0.3008060139879234 0.13080499488252428 0.2104528293599941
-0.3345830751566723 0.1940283235021667 0.20183652612699632
-0.33988035616036427 0.0696868976114331 0.10865045387203054
-0.40667096480204634 -0.06439628861683389 0.10464698156245333
-0.41497488815213046 0.18612796849379265 0.22067262431042423
-0.3450851478362722 0.1949034615887797 0.19407716955493015
-0.16004473932207475 0.09902971204394362 0.26456172103851827
-0.510201317654932 0.2188391350665455 0.14302670650126004
-0.44231689720575673 0.009067639502049474 0.24226984619460268
1.467670514925743 0.2609120963704328 0.34414589539986196
-0.3959377482481017 0.08243424555270451 0.15857833725203818
-0.7215866112690463 -0.0209777711315553 -0.09467631148127964
-0.3515731854325139 0.19053492269578953 0.17724551946920997
1.4591307580345045 0.2331228128798699 0.34308086454596776
-0.44756684977436123 0.24496340945454165 0.19275589029824403
1.4486775925858666 0.2312245470175469 0.26054182141849935
-0.2832902219846858 0.19897198385476145 0.23392364988411884
-0.34207817420407594 0.12206058314211532 0.1353404911192655
-0.35722748286661954 0.18994562019076966 0.17479771204925498
1.3136836096998366 0.2414451983040493 0.4847828071212348
1.5208317672480547 0.2211379733174681 0.38232045373715096
-0.4328823685377188 0.2878998229087273 0.21004137184350213
-0.3511219061517039 0.20510831148098418 0.20935156539057687
1.4751348582380075 0.23794811314054698 0.3330330946441791
-0.3449142664342446 0.18976205558377046 0.1852364217710516
1.4196775351615258 0.2582855153682857 0.39794507824862535
1.5152843768670152 0.2204200347509726 0.35267692637647485
-0.5221334540891007 0.16569658040494062 0.10923222888182238
-0.3426445419277684 0.20443497284949785 0.16571621584586183
1.54463834125103 0.2961716286606588 0.546593754750333
-0.605024098585929 0.1082230957031527 0.0401609258915272
-0.33917999086204986 0.1518626318198102 0.1475063657503881
1.3767577485034934 0.2754188118002219 0.34969035479700494
-0.48739048377528604 1.3262385216627735 0.3442084132100689
-0.31775653197701104 0.18631567635890178 0.16197556648172906
-0.2749953880436351 0.15430815374655538 0.21722957858237635
-0.3694669769162857 0.1464638235633231 0.2748376048334933
-0.0444382557852947 0.08484389828720396 0.4483155331356983
0.027761179125192825 0.24334505584002386 0.41634137189929277
-0.3344456413823025 0.16472248260002686 0.1070748370323713
-0.39282217884164083 0.297171935661126 0.10359488798897587
-0.6193640193476568 0.2690915456276173 -0.09724681776010868
-0.35066875046776147 0.1963292369472498 0.20774673871159166
-0.42828656637964 0.005886235130844852 0.062476229023701535
-0.22242612471600864 0.2931215781366632 0.310450848283395
-0.32130671539241007 0.219847129501332 0.18646473610428416
-0.35444481177474074 0.17547441956182297 0.17993808288625246
-0.3909425735581351 0.14828475998019996 0.11618657838323543
-0.36052997323240277 0.3951091658486803 0.2850670352223972
1.4315116587240908 0.2570571023031931 0.3979850524582673
1.5397088805521975 0.31064390528210595 0.2726272757482917
1.4665706693356668 0.252537512329738 0.3849809672980342
-0.4479310059331709 0.04935415627879536 0.23075767222670152
-0.2518305042983684 0.07685486511689987 0.25402913236281677
-0.319154493206824 0.17770036939516842 0.14068060291448603
-0.24700984124301328 0.2404808370206979 0.25719239271434446
-0.5095889576763 0.12325834289508464 0.2801667923330484
1.532375456717574 0.30507013445263453 0.3710026277960452
-0.28007328725217917 0.1465410359578243 0.2552477687547565
1.5032526810638558 0.2836729756507026 0.3316690063717971
-0.1403958161741201 0.19503346816752298 0.0732110405675428
-0.3057602374505848 0.19846949799499214 0.19822627988160946
1.4899281965303288 0.2421613217362335 0.35918492757379283
-0.4453806734932044 0.17921110437553978 0.15942230516127154
-0.3526751601816045 0.19827037610779996 0.17942902817013362
1.554584234468777 0.23067938767509588 0.33083626793505516
-0.38530078257467437 -0.003619639488547932 0.1092993194551326
-0.31443005764495524 0.20502327600193837 0.19517388701966354
-0.23483353030202636 0.3052630708898789 0.24965408282734813
-0.2756116589729771 0.24260890307823502 0.2144731714052739
-0.1999191560619238 0.25796456186306216 0.36110692035586567
1.4971070040375025 0.2633471010975228 0.3562652078063877
-0.21495832937438308 0.09897382446936831 0.1882255643768076
-0.13979235722544558 0.2068058621767932 0.31126220262157744
-0.33007307058680624 0.17698943925415733 0.15332799352140114
-0.34281273046434535 0.1620832177575693 0.16891549315828058
-0.3950146897488622 0.23791422526944928 0.14756139676110536
-0.3461345597582124 0.18087534893756185 0.16113201698306057
-0.34047320199898934 0.3024803858443903 0.18833233417848305
-0.14009712427908028 -0.05046383356950912 0.4460086787485835
-0.36871715005186445 0.15328273862552066 0.1794214793153941
-0.4006434627167863 0.19310119756518418 0.15522424766186305
-0.257588013867462 0.25292299339221813 0.2361292785243876
-0.36369442041292643 0.17752690153952244 0.27905142079103484
-0.33018123781212694 0.15939557390085213 0.1986464372251504
-0.16558739300793945 0.059060022500432297 0.19867665793374556
-0.4181085573615917 0.058105541156493246 0.1937107435744565
-0.5183165417707585 -0.09128538709504141 -0.055283311590571316
-0.21347746368860498 0.27135872761331825 0.12273288473120658
-0.33996306139512456 0.18574462717174356 0.16289910854827383
-0.38133500325497494 0.18272442137231337 0.16233682404076433
-0.5340908624413458 0.13947335053275367 0.054758994063462296
-0.3492122761950469 0.1228546466666387 0.12903163706405962
-0.36795729897838214 0.15943304522532742 0.15280656464676667
1.5202843844880363 0.2103768032408624 0.4211694832406323
-0.3388566085118043 0.03969578673752494 -0.17703967070305282
-0.173291110992551 0.3441276757571927 0.4922502735983443
1.452805822127047 0.2334452713794093 0.39555902967597945
1.4767578683378844 0.3719861351459315 0.36605090938155627
-0.3303346047429727 0.18710383064677671 0.16964920401761674
0.03606687445625312 -0.33874730447682566 -0.12721629194916773
-0.132684046763913 0.18099700681126762 0.3062171476814797
-0.1164180199392888 0.18386021127619756 0.10067302269359857
1.4972177118891778 0.2398809031786726 0.358228262724154
-0.3563244931497138 0.2179428642854333 0.07347659408968354
-0.4518634890679891 0.22118517962900341 0.363660500700675
-0.3452052209118648 0.20200200057725226 0.1852385600791706
-0.36271429646959064 0.15931621971768095 0.15227704812502907
-0.3275995044264306 0.20943730857034382 0.1691853910564447
-0.5639742394554617 -0.3537820377928824 0.08879758682169836
-0.37745904689255383 0.12143848317283812 0.15747915448250183
-0.3515381874741905 0.17207459823507065 0.1216801428642782
-0.5481485165012856 1.3214901786423212 0.39085445689690346
-0.2937166807727607 -0.0036506362516348645 0.16963843185860128
1.5879561645121925 0.16122884515972657 0.4340421754805419
-0.16862764065565727 -0.009756170100729378 0.154520353311014
-0.22507618206243762 -0.010593419335336307 0.1447995705280789
-0.3124752751039921 0.2283269392189169 0.18518758590329298
-0.36531293452542 0.16063083863176075 0.17589952923087537
-0.350342461228081 0.14266332320555364 0.13604046380420698
1.5063853091694739 0.2254296101075255 0.31022856200026183
-0.9596454497975486 0.17822075232616896 -0.10142536300847382
-0.42709758434142486 0.11643065003909214 0.07357022669029334
1.4847410797109433 0.20601132071516304 0.42418963371456186
-0.30485732779165176 0.12702355419629896 0.5454905307083067
-0.348027722138994 0.37591831193599035 0.03357836792561386
-0.5963774636129244 0.659399412546378 0.32165103515316673
-0.5131943933440937 1.3084427449754372 0.3838649923641526
1.5208335106928814 0.22527563695233255 0.3772842399527718
1.4908198621099018 0.26791100002387225 0.35571054837637917
-0.3795588257425493 0.4213318798421284 0.3021690383483815
-0.3246943775118609 0.17290596340208708 0.16220991713642263
-0.37117866096556895 0.18481257080256341 0.12404674404659488
-0.37929669900769625 0.22562926748042855 0.15465684145605962
-0.24248224171051902 -0.022075401855758514 0.15070261585107403
1.4304193335799624 0.24734749124380073 0.3857904691036538
1.4692429341700404 0.2881971688605347 0.2570309622714859
-0.3554189169795734 0.38897488422450976 0.27449597463119346
-0.3427117278608165 0.19925575420167263 0.18201553576217577
-0.5366536824785726 1.405881260214727 0.4098837846008365
-0.3214395881857115 0.24171970515877206 0.0254930877224524
-0.3493347607326456 0.16979510272113885 0.16483577820879702
-0.36949391801785225 0.18437105313140023 0.17546355134909675
-0.1275538447788449 0.16887825899037523 0.2734518132048578
-0.46736456949294336 0.12910838818135062 0.2313003311069508
-0.3281182084092933 0.26068557934935654 0.35638571729857915
-0.32833055404614697 0.23903735494991452 0.2201897312227743
-0.3754551082438269 0.20636812330720034 0.16108352296363648
-0.28525118670982863 0.2574605617088679 0.23913128416013762
-0.5080255651529484 1.2685058999491332 0.37838903923766054
-0.3253443494787973 0.19726803765438206 0.2046976566058305
-0.5035406640486713 0.3670995729550981 0.09717199232476048
-0.47922188109515673 0.11234076267903959 0.08498937554473684
-0.6530236507746991 0.861590318718541 0.3892212197593068
-0.28151853594103216 0.40240037255210837 0.05097067489055007
1.5036732155847545 0.25276840943028844 0.3734620099677812
1.521823748046586 0.24102310891741752 0.33551259675867584
-0.2924676733043583 0.19114753487727398 0.23010708503510102
-0.4845402859526331 0.1136840873777345 0.11634989409888874
-0.7251243509051335 0.2308687471774249 0.15722449448865916
-0.32632629308945127 0.19261792884699958 0.14827776341768129
-0.3618608020287297 0.19412853227646565 0.20405362654572912
-0.5378433443376878 1.2471955059262 0.4162389608253534
1.4720987793925389 0.21170039549029696 0.44618374521135706
1.6193462712550257 0.1462118069567282 0.45519788987385823
-0.2228141259017633 -0.17822290795076867 0.07336234005410347
-0.3532905534249835 0.19250703551945492 0.18365941227908422
-0.3504104382329558 0.18100476518189623 0.16947167097050908
-0.38836145547351464 0.3098996423921676 0.02574227110132199
-0.46170678821246725 0.154944840607115 0.3779067905635429
0.2901985889883889 -0.32448477685933597 0.1965241085983962
0.11399792804458286 0.8674522689396014 0.5694095269425787
-0.3462737297445386 0.20596634184556706 0.21288402235268222
-0.4513316826171092 0.041258201390462546 0.27656047102014725
-0.29975553790670517 1.0431025242136371 0.7747206697422797
-0.43704165684248153 0.15819218561571802 0.2435002020865653
-0.3023783591792295 0.1824164802602155 0.1804480453256616
-0.3446693486167476 0.12933320091016753 0.1694985549196133
-0.42884534309160927 0.2555989135148735 0.267126251719219
-0.28520214215964756 0.08506576499723906 0.15968991509004127
-0.5083981847887742 0.3997684884385251 0.2527055554328115
1.6294922443122601 0.47171592481169 0.3824636762967799
-0.25289961688397966 -0.011221958241918628 0.12693412647925584
-0.3354123492969592 0.20506339330326284 0.2082326256348921
-0.3837321905196234 0.2134840544871821 0.17353090119348735
-0.3376596335919828 0.2859374382446873 0.21051747477116578
-0.3519446801483639 0.37601281370000095 0.3804814281203761
-0.40509838848119273 0.16402642494827546 0.13605930983196401
-0.48926450863973514 0.18301506902382414 0.08682781294233166
-0.35083929661836066 0.1935830096552138 0.19528660253978103
-0.30743112313851384 -0.17124519039130348 0.020822465752758035
-0.4188075154886661 0.08658806646108985 0.11483122758360764
1.452949194332433 0.1884515168004981 0.42840192135786026
-0.35003076284603196 0.015382060268777309 0.0984580118966818
-0.34745760277479576 0.2111312742284781 0.18669258732218452
-0.34555174790969545 0.2342287520778683 0.1931837525419411
-0.28868981629521784 0.1921289561640407 0.2455418204638704
1.5771147578181655 0.23313373208060284 0.28704198227384836
-0.3539786233043003 0.19171204537589404 0.18408735010680743
-0.36295087490961464 0.20372499660176402 0.19941793370530547
-0.4041891061881273 0.21403929025488821 0.13337571132871062
-0.2517086274146436 0.3916911122109923 0.328968820500549
-0.30535886832304016 0.23047525963947635 0.23729578590643996
-0.33372968325329566 0.126196011848009 0.19607891886647622
-0.3688228332166119 0.20229001004450708 0.18471246320261514
-0.3549157121971689 0.030210940614736614 0.09740875472591881
-0.3160624742036333 0.3412040314968152 0.25356773709123104
-0.3347173680855917 0.017856853727849398 0.1389610080343573
-0.20975022168815372 -0.10040101126212164 0.278880161099778
-0.337942149605837 0.2031960843763585 0.15724720143482784
-0.39348227177583794 0.1613914923007087 0.16484302980109078
-0.42951560309982995 0.8375373743423182 0.54324844379029
-0.33999502630591394 0.08855519379491739 0.132519676308803
-0.3789267267043357 0.2357629972961348 0.16976091238956315
1.465200993623185 0.2367649936874585 0.3462230066757428
-0.4104903045206072 0.05538569806368798 0.09160640828547173
1.4475868608121658 0.24243674918619718 0.35875397592293723
-0.34017610916288277 -0.05858749604777813 0.08436555164630022
-0.5592944534596569 0.018746972608070678 0.01792553774023986
1.5091438079461739 0.1994031722598777 0.36391888866080535
-0.48015028766575085 0.07536365445577076 0.061895492882598546
-0.26339339677390683 0.018686015582986215 0.09356688296558957
-0.3633518251095751 0.2066323089082971 0.0643613076705094
-0.3937738445261516 0.148884940542942 0.1367975683467364
0.591642902997009 0.5217480275636888 0.4544718089441915
-0.3499893932086309 0.1967731654199696 0.180844697752633
-0.4038044491920232 0.18395003343752592 0.19368552558654528
-0.329118436572827 0.1969923636525266 0.20061601068211132
-0.05721138734013209 -0.018679458360466583 0.2038273643364903
-0.5398763910733493 0.1813283180395331 0.076335915514818
-0.3607860558477398 0.19113674954211035 0.19095080713242396
-0.3902380095830722 0.2249017553658348 0.17705136864414328
-0.22289884345384792 0.402334735227015 0.3210724370034228
-0.363880708021739 0.07877769518886168 0.13545030637183686
-0.3885505442897994 0.19801116453669465 0.1773142489906263
-0.322743460775996 0.1946833612372103 0.1784162123166766
-0.2614999453964231 -0.03570265826461139 0.11940189779046761
-0.37836530688460357 0.20900229939121573 0.1971835345624413
-0.3151913206116319 0.3837241809330578 0.2792154146926862
-0.3954698723298691 0.16786799467598712 0.19749922379480722
-0.36621107347369275 0.057973738337707914 0.06821870686057707
1.6202894512955055 0.21430423841603385 0.34016152658173837
-0.4929330950693753 0.20376708829489587 0.11674380743386337
-0.3795663255163646 0.18901580709488996 0.23041013468990457
-0.34124643909564156 0.2697132886298874 0.21275449839261285
-0.24581037103808967 0.4483616376157471 0.2620532820672281
-0.6159015494211957 0.13944560358429214 0.06902196204252675
-0.3193072096682812 0.19169472647948282 0.19025641292219575
1.359995656208568 0.3139038357200974 0.29182794686863645
-0.29973032900181806 0.2533062577747671 0.24315473510674224
1.490724194860391 0.1862360043400173 0.4266062706388283
1.5037157298996817 0.21201491848893284 0.40547508110931574
-0.30588793511614654 0.020901082952136107 0.1236820647453527
-0.6868564910678998 0.236218230551259 0.08373175876752725
1.2937458403949336 0.30981710714048916 0.36171110596873746
-0.5176023918127726 0.20701213827145182 0.10426835729501249
-0.1003666659610758 0.4275748891799651 0.40625819817273623
-0.34591215746527837 0.23719757635497274 0.1400857753685898
-0.3725987384404732 0.13190979619335508 0.27578945310943936
-0.34298080839469947 0.19781426288753323 0.17396237390096303
-0.3526401146458227 0.28205429134915505 0.2089978089053801
-0.43451299227233164 0.07429222201636776 0.08222337321572581
1.3187563626202063 0.28791902545795267 0.3851145291080229
-0.2899172593816246 0.2648562737904001 0.20147928713862484
-0.36614056877270684 0.1946209782057906 0.235365532207652
-0.6144197905748854 0.23664139359524938 0.08045162527865557
-0.3354832097906666 0.19275138292445604 0.17940926321900008
-0.3364230941562596 0.19125435323771 0.20478064108517913
-0.33315773772299906 0.23509440456712127 0.20954649099634537
-0.5355883786065192 0.5373342808984773 0.29874399696073795
-0.3217161939686264 0.162506944466557 0.15653228351465032
-0.22444151876224794 0.21766890752878965 0.3046462088695563
-0.476892853375233 0.05297607398922821 0.05532667040343142
-0.41194573362646736 0.16313665425160195 0.11171869201176321
1.403292570752214 0.25296501781375014 0.34435205946486747
-0.750339686821647 0.2248434519554081 0.023655125024006907
-0.7019104776044855 0.27924859889550646 0.07458363600109408
1.391294267477761 0.2780096548250839 0.35937898640708
-0.3944464479113492 0.2047036685197554 0.2146458073871429
1.465177945769625 0.19014941471522206 0.35523437444918216
-0.3419972234403019 0.15461250735400256 0.18130728988531075
-0.3584063198154439 0.4436804338485274 0.06174903248826524
-0.3742078322513578 0.245927996242699 0.34938669349467943
-0.060157040001570294 -0.34928094049573133 0.4878934044402712
1.4889526166724352 0.2511102820922275 0.36204704637619045
-0.36114614129232336 0.1681212962530907 0.19128029341264607
-0.5078400421222256 0.17654887135698516 0.10058893050485551
-0.32938878980726827 0.1699001672247391 0.174621578149754
-0.2461527677189963 0.18724083943644132 0.2098981809964755
-0.4139336357626888 0.26042848275574215 0.17915988390043935
-0.3220574475265181 0.2066189675272483 0.21908367366356174
-0.3691009234365481 0.22218324943833068 0.22787840237988632
-0.19574471351899092 0.5095499829458134 0.39362970394424224
-0.4716844055094498 0.12207981881341823 0.11009069320239462
-0.19735924568115593 0.2011736719131676 0.24088590262907417
-0.07249031743160117 -0.11268832100000736 0.15917487923925933
-0.3972267984640325 0.06618206304679575 -0.5561693249492095
-0.46068698963109966 0.22858837474491622 0.1705832361136288
-0.40200610395348235 0.4575264511999251 0.28410528114339684
-0.28217569517327945 0.1554655946748511 0.20421562530441406
-0.35543391522210754 0.16653855717179056 0.18501677271312644
-0.3461343985425316 0.20928412669877616 0.18163751137099382
-0.304454756896817 0.18122246246269924 0.1636077239181759
-0.3497313996302296 0.1865059833009468 0.113365902299293
-0.34606800463501486 0.22323862323939636 0.1250728507315415
-0.8839624665083079 0.5372160962660644 0.10107127282682882
-0.3038289281957134 0.20933536273611253 0.11750111665502061
-0.3453282472192569 0.16484931148035287 0.19217320847988617
-0.41318126611730577 0.20324631915050873 0.10018279046833811
-0.4651183030186701 1.3159038593107795 0.39418775362443625
1.4573398128958388 0.24836367223201705 0.3575043981853838
-0.42851292924655127 0.10546861001655827 0.1631630548916263
-0.49998990720023073 0.3066296873663532 0.19261625847195774
1.4741865655338415 0.24903367389246966 0.3412474505710179
-0.544349943856588 0.5063970701610714 0.27980684663445743
-0.30386626593332267 0.3520184923679466 0.05525306768461746
-0.36031647263195055 0.2673079252719077 0.23025604480541517
1.362724619970379 0.45854590922334637 0.15434569535133846
1.5707656335437008 0.194555609985386 0.3354543084153363
-0.21458381211894562 0.1373516523125744 0.23691680171150153
-0.36700854985076603 0.22132378658247376 0.19560015909652861
1.4516887438306583 0.30685548759028336 0.27536416332984004
-0.48533703560127606 0.39757898199354713 0.19855196466886582
-0.11802602007540486 0.19030136263218367 0.2978525917122994
-0.505694403300609 -0.011823146459221334 0.15628018161402224
-0.5667050850577766 0.48566287141366615 0.273934812462727
-0.3660675611583315 0.18480598029950102 0.17304082444621827
-0.33162541193698303 0.1932362035386319 0.22978892596803746
-0.3522819145219671 0.20131708975067397 0.2161104181908371
-0.3994644323496601 0.24687622026593203 0.22566962673569435
-0.29056910436824523 0.31986507670919195 0.270543943568768
-0.34563559657813414 0.22318032954045464 0.23568883247924077
-0.315032512897389 0.17409069196993698 0.1768653448598343
-0.33223038135203353 0.12680707657435164 0.22707766258014317
-0.3924966658546367 0.1735935416081844 0.15442041323497335
-0.9339729053436372 0.6707973819491855 0.16074761803277227
1.4616870433545017 0.2548172457442206 0.35192210026345094
-0.26246602690908105 0.19327601575595565 0.24991675074008413
1.4020620695599604 0.24199126948381888 0.38413464669854136
0.41052310331212993 -0.5956450573569896 0.646691066946147
-0.05455147831732177 0.30146804982491915 0.39271957164622506
-0.2534772213170555 0.3513298003013716 0.31962890581864656
-0.3729831856454524 0.2717792380980768 0.14806956832663332
-0.28163243226818224 0.10538621972453655 0.18911387898839394
-0.7151681565458006 0.040438636678686635 0.34403715858292117
0.6950571665418579 1.9002555252954494 0.9589988032140013
-0.381646792313461 0.17799971390240898 0.19806644752412694
-0.3066918966496388 0.14794368925241486 0.22615971140753288
-0.3961049132585117 0.16712131831782528 0.16378044192666152
-0.33805366143946003 0.19677795901299078 0.195013922074196
-0.3865890052343417 0.18549286815300547 0.2525205856661188
1.4115327026228925 0.26449305667645717 0.3490458811970143
-0.3747464963527847 0.02017295629023863 0.2562350971054883
-0.20407276582950828 0.18973816250122866 0.2361678127271034
-0.41780418955409004 0.26188512230082495 0.11711650498978088
1.5147730526770715 0.19440805783789017 0.41160582421272807
-0.5142952337320565 1.341815500771503 0.3799239592504051
-0.6059485798901392 -0.06408371507298227 -0.0409316961765569
-0.3699880626719221 0.19566887455133042 0.18801972911134612
-0.3919208375551477 0.18111507842006347 0.163146646666533
-0.3406174591715967 0.18650477873592308 0.18279392148704687
-0.5727607714029261 0.0036257299374256036 0.0046676416212818594
1.5595935705926252 0.21404252896113007 0.38046768675599196
-0.3348447156797789 0.18818530841400616 0.17811991220882817
-0.3480170890865679 0.16387190306102184 0.17009540318557015
-0.5323154633153138 1.4092567513013137 0.3901904560642748
-0.30691261677679904 0.12032835015544663 0.14493903583149859
0.40275423394450627 -0.0008983285549248876 0.3495468148860965
-0.3800017187892877 0.20947690981186895 0.13707261349226485
1.3447347146410351 0.27549412205860335 0.30956947269099544
-0.33142580990696047 0.1526162940127591 0.16488532239783638
-0.42460722619995295 0.15169337408809724 0.2133867438874546
-0.28115066390843424 0.23384741201009263 0.20886040305589404
-0.32282061270137774 0.2119487529159585 0.2183610508518683
-0.3985073484729469 0.23805945213980806 0.23103679620291473
-0.05691597511558655 -0.04649168672852966 0.19348396027659476
-0.342442025640068 0.172829833723668 0.1875069494785322
-0.6807395955586628 0.40320563857042657 0.1691475856885205
1.485803844708272 0.2521405373557286 0.3635953656214781
1.4657577701566566 0.24245510099949286 0.3712996256196419
-0.49913299581655224 0.2339116995041337 0.13668814850638
-0.3426129628788033 0.15703544994784124 0.16489962840172723
-0.31676604350161597 0.1753212127960211 0.16650539139834564
-0.33902016961890524 0.18636493068378002 0.18184343551058646
1.5549400151499952 0.21959796050104785 0.4244672416328825
1.6422612559183136 0.13340967676001014 0.2127383763920676
1.5964550985913775 0.21333110601925398 0.3645069707513642
-0.2914544689480323 0.23001890593577912 0.24103344694819384
-0.3798652079311893 0.16551441294507185 0.15597070632166776
-0.0707871410971137 -0.043533634520329656 0.17229380421434826
-0.28314163162303885 0.29122638718152416 0.1072165931979896
1.6932912048346225 0.11956305845194493 0.17415896590105717
-0.3499628741699894 0.1943727298138498 0.23343999759832457
-0.37214181392864987 0.1709986367386449 0.23469348003030177
-0.5284944925583943 0.11901678228286983 0.06432873908150327
-0.37176442174653346 0.11471003698542859 0.19919654993448432
-0.35018919542467586 0.18268107201841133 0.1854831156924206
1.448869210359092 0.27950144828288614 0.3088435727427026
-0.35291996521057456 0.16843985911408765 0.19041151366516829
-0.20345282022351796 0.36739246733385755 0.2994901289992953
-0.13166685916814913 0.1629483252894346 0.2253121012813608
-0.27289721916834253 0.006490795182898523 0.07509736599109829
-0.5602779023551108 0.3677057427232029 0.28202206350187
-0.34929665822375 0.17730765865044873 0.18835156973740652
-0.34698245991661736 0.4031174078564419 0.2732055318212474
-0.009764342759893907 -0.05327938203230076 0.18970100050874805
-0.05491768129103036 0.35379857192556585 0.023611509394214636
-0.22576329587234056 0.19103946271162897 0.267677600125495
1.4839627039299614 0.24475061219470717 0.3646224700406151
-0.3575697041479913 0.1118337134070515 0.34664288336631444
1.50242642123915 0.220001087269452 0.41006348882801547
-0.43768401311561433 0.13592197651840365 0.1635896825686416
-0.13783555294946837 0.14019617457324784 0.28985406996243057
-0.3747090556892374 0.24863170524571387 0.18342147456245073
-0.3448658706830656 0.15196969195183385 0.09680726679246732
1.4770279350012032 0.26442295742093336 0.3526488585582541
-0.33046553419197267 0.2988152300964799 0.13921042986243037
-0.32449294967831577 0.18073878311346903 0.1713091644435707
-0.43594094101359815 0.25264013220491677 0.16397216926721114
-0.3544831534116071 0.19894168657894795 0.16933147331937448
-0.36965311187498173 -0.03722516725889591 0.06772474391969752
-0.11438201711310114 -0.0003757793343766025 0.20272042086915576
-0.07266736242446825 0.33824740540724463 -0.27355347177969236
-0.08479131200463996 0.578214421168397 0.5121231307686429
-0.33392243656336973 0.1570651178682283 0.14476748192758748
-0.3361109937110598 0.20311883510817097 0.21753643278928791
-0.5180986184877554 1.3846652328320062 0.43312418715424883
-0.43835001804772844 0.16871756336648502 0.18223910178205927
-0.3527207471420155 0.19787665948739175 0.19511475696793923
-0.40965674816226283 0.19741872735832544 0.19520401982229885
-0.3537368598154842 -0.10646901329477032 0.03268979260334959
1.6168183909811091 0.2105517637768628 0.2964686642477119
-0.23632873047745306 0.04031171259538269 0.2099524457571249
-0.39326549858057547 0.17014045223665164 0.15581606946923898
-0.2769470405373511 0.14150447959352164 0.1911148476768716
-0.26731685888425716 0.2166149618695954 0.22626400693228277
-0.3014882030465742 0.37510852294232677 0.6627013408039204
-0.3472006709475437 0.1813659012973261 0.17315882348577816
0.14818719689759519 0.13378079515199204 0.15192428958897608
-0.5173481576279926 0.22443612819368752 0.21798076326348337
1.3024266838290401 0.2531403677607784 0.4641229594994343
-0.18333857339864323 0.046837457457002074 -0.17451496722237891
-0.35991715641270616 0.15936676664415472 0.20655517571552195
1.5966056404325428 0.24771037428480724 0.33594126845287064
-0.20532264945680367 0.02211224470491402 0.14079660328508226
1.5162537745497247 0.36141303217652876 0.47382228932440285
-0.39994621355229754 0.15809641941473274 0.0850166398478791
-0.3247031238657456 -0.015877805415073 0.04058739049216342
-0.3367119363565365 0.1852610407831179 0.18426613369105382
-0.3160583881626309 -0.008537627891840316 0.10083038209198492
-0.623585296478609 0.02065880548421717 -0.04291405426897654
-0.521001240818805 0.11868784781472641 0.09498391320055077
-0.08177148424925917 0.09515237682373368 0.236723092829223
1.4618929184090064 0.16723166924067812 0.3956960878301743
-0.318744619021615 0.18119941461489475 0.14990193808364438
-0.17679562615492728 0.01830537236251928 0.18072721893538812
-0.40393592532268485 -0.07479590500867062 0.04602045149533751
-0.40634181400464797 0.12875450055841497 0.13256414348040835
-0.33952929439196566 0.2247100554442767 0.12209604394210771
-0.07783065071713224 0.38011061423847536 -0.6012580183251117
1.355749726393114 0.24971249579498078 0.3708433054597293
-0.17214645441724485 0.04765521777450488 0.19926894168291653
-0.42955108432160216 0.25638558238659925 0.31507089881164063
-0.34224329727732083 0.16813302134725916 0.16832008000807264
-0.4944263053130413 1.3272556927513932 0.3426994257514906
-0.37084750250930654 0.17442001861068945 0.13601226669588584
-0.27550912446950804 0.25173410143926844 0.19517924761227334
-0.5116784612688576 1.3417757125424714 0.3809899137438606
-0.26112774073668277 0.10624089984877116 -0.05935687263568923
-0.4629601338958764 0.13281402235074324 0.11315909602068075
-0.8138089664903418 0.06938617764144794 -0.12735351790135496
-0.49619154997463966 1.3333895908683502 0.3649297793551085
-0.39117403630282865 0.29978400124512916 0.21408279111474826
1.5000765018234006 0.19326187907903147 0.2994060421675755
-0.4393388872128554 0.16927345396392468 0.24962172273352223
-0.4234322337851495 0.245235964442287 0.07227158815011592
