# .PCD v0.7 - Point Cloud Data file format
VERSION .7
FIELDS x y z
SIZE 4 4 4 
TYPE F F F 
COUNT 1 1 1 
WIDTH 798
HEIGHT 1 
VIEWPOINT 0 0 0 1 0 0 0 
POINTS 798
DATA ascii 
0.521639620178405 0.1672118740156634 -0.09120054163250302
0.5416105112262244 0.1804132143918764 -0.12212895911983424
0.4913380094246236 0.1703907626027501 -0.05598435412321123
0.4510689117321931 0.2126844121461886 -0.015249780928400014
0.5192005343602091 0.14042908378274888 -0.15679566065423955
0.5942697931210432 0.23719213072241985 -0.09399776823852335
0.5091467180855602 0.21552450509713594 -0.0034741898253258796
0.4859970973633949 0.20120216767253396 -0.05378136763573593
0.5583638069161623 0.16496316810399492 -0.04410542295929076
0.5182613951966175 0.22458858156380757 -0.12417317966506403
0.5506620894546757 0.13528560872080675 0.03533991104796996
0.5268637709942254 0.22597005599297404 -0.08035644300986178
0.4951444074754363 0.18005027169510868 -0.07252011851730344
0.4812749674235306 0.19160520760664213 -0.05486969712060841
0.5201900645971023 0.3552645770646734 -0.05266254374788559
0.49976917544478283 0.16734334130174489 -0.09250014219864511
0.4471497531200157 0.15057736875343153 -0.10046458190805652
0.48023639080571456 0.196434926573005 -0.05361099396630209
0.47384732873535995 0.22672792826426758 -0.021304163834429346
0.4849958912329271 0.20129618566582508 -0.054691999380764855
0.5443542459253479 0.3531785062330073 0.061556489614645216
0.4869531465568002 0.20089825285484153 -0.023380823486149893
0.45835050453951 0.1746692807265049 -0.07941817731520473
0.4822681158472051 0.2275469649605668 -0.02863173210720049
0.4797365735891219 0.23330245849248854 -0.01646887293250643
0.4030405229796088 0.22305373956943697 -0.000510009122663746
0.47484467801112373 0.16501683025879288 -0.09029862943310718
0.47448435592448845 0.16299717918630563 0.03135305566729585
0.3715780529840913 0.07561903551280125 -0.17137625394138922
0.532969780823322 0.19986532095541065 -0.10458733509841522
0.4945045512924082 0.2975641430084863 -0.03558044018865303
0.4141902494876035 0.1694335613629221 -0.003954192312448868
0.48514769653172607 0.21067030373930606 -0.003006896228427536
0.4862533272216183 0.14561052788207007 -0.03752206953282666
0.44189236256934805 0.17039000424148298 -0.06843083870464284
0.5816509734511612 0.20797208976014758 -0.08882351232628594
0.4205122643092807 0.2376955007565016 -0.18723249062645664
0.473616954574851 0.19293091210371927 -0.05530249507518192
0.5316995056729183 0.2679862438010332 0.00793061825082475
0.5265578150549004 0.17471653589429081 -0.07410457657572067
0.44491812049628265 0.12265381087188132 -0.12614712494666946
0.6886552106647343 0.3290540208942474 -0.09685787196087858
0.5057095498576984 0.14256699602067613 -0.08840120930662465
0.5372867196853122 0.14261248902612067 -0.15425536387968464
0.5193848978652511 0.2073443861487192 -0.01882635802873267
0.5428845427492774 0.25059096189160357 0.00756896941850016
0.4024597632833604 0.13628913112476937 -0.03573369590091602
0.4225576458869966 0.10879858363618666 -0.13624293696543077
0.5175654807261196 0.20364453380489067 -0.06138438606829766
0.4778429245037046 0.1928520031849814 -0.05660791602747395
0.48795138630251245 0.17301718835815905 -0.11090427152608129
0.5901946923966648 0.1697082627075872 -0.13405087074728783
0.4923104806661911 0.17862880538990566 -0.07695176123708336
0.4007796657786855 0.2938720053572581 -0.012499109040930989
0.49573008514218486 0.2635022532087987 0.03520395313159952
0.4657351416331039 0.21041719208922416 -0.010687070238390106
0.511839373938983 0.20365195619562826 -0.02965890698519047
0.46985209477327317 0.23849481886753665 0.016603477693394098
0.4834898082408188 0.20508874378592168 0.00400704444930966
0.4776224517594585 0.2103751625362662 -0.06203539058540741
0.39704844527275895 0.22744129779829336 -0.021019354587679118
1.0982831717109605 0.17799572995659219 -0.1255582786094891
0.5043376308734651 0.20428750009904206 -0.050489806937065396
0.442643120185096 0.18264032804579244 -0.06617674443941723
0.476085412075264 0.15618079276620733 -0.09400196399154481
0.474821638119181 -0.05146570991023225 -0.2800918054837638
-0.017169896778170823 0.01827385615035837 -0.17855091721128247
0.4939293780866194 0.24728785914442142 -0.06443239183661831
0.40652589520942684 0.19111061728054324 0.016390444980871166
0.4260182741099072 0.168563551922972 -0.0883566019442128
0.500585133564698 0.17657857281103873 -0.0449677854622621
0.5201398897683873 0.16492242180487438 -0.08371109340038174
0.4322172345983972 0.187268864402796 -0.013315094860303134
0.5765344046308201 0.21511249804484578 -0.07992523394091222
0.3829095971451295 0.16271804200709994 -0.0680200311952035
0.4344719242235442 0.11744597987407701 -0.156042993492008
0.5073524495664401 0.2059291324109438 -0.07248593437421391
0.4792555890607275 0.21221631445074252 -0.05595350682801836
0.5241278115531145 0.1951470037476497 -0.08686716983260112
0.4790753628594189 0.20040137302322591 -0.05705513814170615
0.4888883552252139 0.19444087079327232 -0.06127045557099109
0.5157581903168307 0.1705803458968802 -0.05764504761020817
0.49057897620653534 0.15595452595198367 -0.0832267626914387
0.3949161825821079 0.16371761126231377 -0.004312361264709352
0.4937870596511118 0.1366753243155756 -0.05586734089141032
0.5463391687284798 0.25087023872706027 0.015250676191655543
0.4891663186883193 0.2262135532249374 -0.013752273227510159
0.46111380440339644 0.17390994123036307 -0.07373931383952481
0.49401730766129504 0.16241456732515758 -0.12356344465709412
0.4476826744278526 0.16391453183987892 -0.04736050903355249
0.5832136310002056 0.25705688844132624 -0.03848583619361534
0.4278972829029897 0.2580771556272765 0.04828102610193241
0.4736424444303964 0.2161238621048085 -0.009077469696748608
0.5274361054417795 0.23589252620067214 0.0064081283299515235
0.6117600759906168 0.26540827779942333 -0.031182489434314675
0.53401782109961 0.1143544055268535 -0.04828627586987011
0.429091500594069 0.1570413117874807 -0.05228270442954397
0.5296797056132903 0.17805257495915328 -0.09562916525908349
0.4750048186604374 0.2247606828757398 -0.0289138099397519
0.514706744192722 0.19817855887518476 -0.037052419949390014
0.5826328736893629 0.2373832600362391 -0.08083931162933311
0.5850857042748885 0.2585192661311737 -0.05179938600763023
0.49371697772460266 0.1851515693055319 -0.041526630860104774
0.5951649749256092 0.16477652142711463 -0.08983193466811201
0.46557740350280596 0.22737387320839275 -0.09822303966882373
0.46888432929975465 0.23788977286545787 -0.06857551051106725
0.5666414049790092 0.23546594337656757 -0.03225693730857415
0.4899589068533885 0.16754469032878205 -0.06805317266690736
0.4717587238760075 0.14381790005604955 -0.09486979098458903
0.6947551930021518 0.3598735157065249 -0.07373482485853344
0.45631057742966163 0.17556257191915847 -0.0312229111106177
0.5532780092955818 0.207307279358389 0.01634222751778225
0.4472284605886614 0.14178253802128893 -0.08386544448964628
0.510548523817647 0.281179106196646 0.030319660792500258
0.5050627245011015 0.19842611282714984 -0.024970521714493543
0.486736892125748 0.19850624829916796 -0.039704442245309224
0.4823240423552875 0.13467686935148038 -0.15650990076120763
0.5098512358037226 0.21273914318153686 0.040752913462455354
0.5377051958622019 0.0936470073095137 -0.1234896501409537
0.45849500338104576 0.21889727257524783 0.0308655359364991
0.4843005315133837 0.17174263897264552 -0.05073273706223347
0.5304655930653723 0.20449211495810005 -0.15271999361644362
0.5131585874331677 0.2615021775371531 -0.05057333134200803
0.5196798643638942 0.16514101842605555 -0.12774072548950244
0.49954049719326576 0.22193897778574012 -0.03026048263440373
0.17312696234796476 0.589322402093444 -0.09728862865770793
0.3905395785284327 0.26366190843405946 -0.04197004071059496
0.5213068385177166 0.212115631102904 -0.038330696922884044
0.4783650074015213 0.18435744789755404 -0.056371433537549365
0.43768908168550524 0.17611865291299011 -0.02088738112070132
0.47861951169824124 0.1284977935946472 -0.12023995588424441
0.506031769048974 0.23072460446368837 -0.04940663407940349
0.5102156937607276 0.20421387752435294 -0.06651892828084272
0.5132585278718409 0.212501304897188 -0.039099688766356167
0.5213511329371556 0.20766651267902603 -0.09465940939280415
0.4810351239332533 0.17475042259842155 -0.0642234859857922
0.4376670651618042 0.17827589131022137 -0.03143698188704036
0.4297663210457472 0.16776441285131227 -0.07730032316993629
0.48979669201136744 0.19020377202082273 -0.06551773036690633
0.6145184659525285 0.27829589940810706 -0.03472519225550741
0.42114740633300585 0.16104355572215923 -0.07596749263545632
0.49811894037449633 0.1471779550536496 -0.09443566991569696
0.49928681027711264 0.1988800620175084 -0.05889563721986235
0.4703701112662486 0.22664020569867205 0.09824777642621996
0.617830392014497 0.2333856874925999 0.017071506958615146
0.48998469509933784 0.21474542861690793 -0.003472438096935093
0.566814435378177 0.09939411503280837 -0.12351294889747066
0.47906143158760983 0.2122971100750135 -0.07807945168501362
0.46338834331243106 0.17032588961838258 -0.1036688126281291
0.5270905148428824 0.24499348411724498 -0.03263955690403009
0.477809583581859 0.16630237659097702 -0.04728205571682054
0.5309344593059961 0.1721557085081713 0.0027519577608927648
0.5002831126676881 0.2300075392490868 -0.008720890762361933
0.438355272861628 0.1647771389150705 -0.057787875727697724
0.5149520808285502 0.19364137249672808 -0.07242042011557714
0.5121239535710345 0.1703101014632864 -0.025215286398079684
0.5000628308372939 0.1705751764085619 -0.05640279120275693
0.5349637140848813 0.27951357842368907 -0.06103564575110454
0.4468802811079513 0.18823833364558595 -0.0443932590622893
0.46748265665365807 0.1924034785008928 -0.03843094022300875
0.466539379248303 0.1815373586167368 -0.04445229922424687
0.5199520715607377 0.19774847991064348 -0.05259465265262975
0.5002486778906814 0.18133870467821112 -0.08318031987394647
0.43645807239488477 0.19507116489563714 -0.03578572080800768
0.4636557462830524 0.23504341809852747 0.025345222383748478
0.5196474310034489 0.12248125980030977 -0.12394680128187474
0.5577705457045568 0.22939055040188805 -0.04573872699876347
0.4860451052533392 -0.3952574098620403 -0.22992840699025408
0.5421972234090333 0.22610316634583683 -0.02145977329678317
0.4113380083906577 0.1869197201327779 -0.013885168814837812
0.4884375907567744 0.2008408956943981 -0.02730311147971065
0.4705112707980561 0.19888006996248464 -0.05618904744869724
0.4188820090490424 0.2143437786680238 -0.056574111569005936
0.5486941982963742 0.1985223476983009 -0.06805386948198588
0.5188766148689012 0.14169911454646922 -0.10070976890310135
0.4518498668843449 0.11984627820100968 0.0047878465355637445
0.5084435335922137 0.23095615680932724 -0.015397383560923572
0.6060323643517904 0.17517355348712726 -0.05100969805042155
0.5090864184882378 0.191078435669624 -0.07163068766789138
0.6161994700510434 0.33697786320269074 -0.13741453630963463
0.4972312184607972 0.20425782205737164 -0.06274265837147652
0.47350990830832984 0.1932338230664925 -0.056692701805303614
0.571060133212427 0.09732375402656146 -0.17166123384510001
0.4339971792248889 0.20495997387379816 0.02340908274437936
0.5130712608077204 0.18051964154383882 -0.05518343825120553
0.4729215977602621 0.1938938106989383 -0.011947618627516476
0.41838077682163544 0.18387625723086387 -0.07040206395700466
0.46385714722143234 0.16362343219162767 -0.06419992593008317
0.47043998099493933 0.19467600812831165 -0.06708270415288098
0.5054030031498655 0.15972292108315855 -0.08751782135888675
0.4824227053995287 0.16230240695574594 -0.038978379683868525
0.5208084627928997 0.2269072564175474 -0.050909682997343
0.47826992421755676 0.21560979403875535 -0.025901464863977708
0.5680427719216254 0.21584004307604232 0.0001481621373784492
0.5256732994591573 0.18141842192582658 0.012823097621421198
0.5333600360249307 0.21118307940405145 -0.11033232222592915
0.5154960045962866 0.184949060624092 -0.03918809088911246
0.4336310470175704 0.14453823219201922 -0.07198530165624106
0.5064828464075504 0.1987571860438777 -0.06347867356768688
0.4990427165753317 0.16433422340836046 -0.08439029180746616
0.5496282189357942 0.22981020094238147 -0.04069633994522803
0.48071939020047694 0.2420858637857748 -0.004696649151441079
0.9020807763179164 0.6130375779704025 -0.14673632553015636
0.45363980431667983 0.17401712670974234 -0.026543703278591124
0.5513246042434332 0.22036306930823457 -0.05075373968935537
0.5151098005878794 0.2513647062500013 -0.036073608227667364
0.47530252601353595 0.18876683774229264 -0.010383288395402701
0.517665925296086 0.16173914934248046 -0.12367775628564459
0.4668554575714836 0.24386437847788045 0.054295573118992024
0.3518699242074206 0.20567280741290972 0.03653876791887001
0.48394241381623715 0.2413033328829215 0.010216778298001827
0.6186284639384212 0.25116982917822384 -0.06515891852501454
0.47035608802846696 0.15485443970531776 -0.055191330833935126
0.5920080443713971 0.24720820080520411 -0.08410558773599064
0.48517385004188895 0.1805976476741904 -0.0874864034140046
0.45387248474321495 0.14984256090764347 -0.03642380165871373
0.55761894488694 0.19456459238209334 -0.03483364723831528
0.4821592166223354 0.1632558254847538 -0.06131379470274112
0.5639836431376182 0.23961569001255612 -0.03661869376239224
0.524566141491249 0.17691475636584642 -0.049580416192782195
0.5020082521156439 0.2847560252326389 -0.010009759679434183
0.5270329237583553 0.22680871680185533 -0.021252543655251088
0.4516992243482889 0.0566901804961617 -0.20106493934852665
1.0365262873978622 0.36855058074459635 0.16183259391686988
0.536014132135108 0.22480966476763342 -0.04061036630943704
0.46551967510123404 0.17247277068935318 -0.005195159729851184
0.4919219425880499 0.1960072411999505 -0.044485902537104494
0.5716146099931052 0.20069224825650167 -0.06660673734630507
0.48743836611367897 0.19327379466221828 -0.08490094932963643
0.46259946768097393 0.21230035899520772 -0.033859218281122594
0.3445328807763701 0.35319490331568204 0.3141592775662332
0.43000098006706367 0.28022582891998127 0.012917863303414379
0.5303506285052038 0.22127559759172755 -0.08325435382906221
0.48458262084901094 0.16828313448672816 -0.05097945334300391
0.42452823505738024 0.2206709836023606 0.05153485445316619
0.5207318270272197 0.14838637627173057 -0.11840774979563662
0.45310689486984757 0.23025792626114594 -0.06036036579226334
0.4752261314293946 0.21055216470166727 -0.019115045905138572
0.4790683971413614 0.18524482829101885 -0.020647658661033574
0.5209966959220367 0.19776358507260738 -0.07810872592172302
0.3360563498164879 0.2409634067409172 -0.046475729245202047
0.5316024348942676 0.1964612102589598 -0.04312283957168006
0.5093151800654709 0.1870082485643536 -0.05208446239822706
0.44712736029083544 0.1770543386192287 -0.03321468687406082
0.5280972537676973 0.1746724829991706 0.04271042778995593
0.5560430762315889 0.24052220491722665 -0.08441203412598952
0.49262127009015444 0.2236452472381245 -0.011272274802124116
0.5187017965628229 0.2231926377823612 -0.025677442502029635
0.5124521947242329 0.19732654542792716 -0.05327740524269586
0.4425122171003295 0.1103179718358831 -0.08488509154622648
0.40478149536153296 0.3254722287165066 0.010371400768349304
0.5986522507462269 0.3108439521621875 0.02786687994543513
0.49217694799170886 0.221265364140649 0.017727886740672716
0.8009332214539313 0.7071373421263729 0.02217948764018729
0.494200380878425 0.19639123376578027 -0.0648440157470418
0.4370514541615478 0.17438376724248883 -0.030774623778683008
0.5888839391226384 0.28483017385269704 0.11373852100773263
0.44471054102589846 0.17688064203082376 -0.061161329723660174
0.6661513337601832 0.30670643366838135 0.03170622316952176
0.44687754372773725 0.17800537834132513 0.06353267523522277
0.3938480312779973 0.1387316703543604 -0.055851140747378736
0.49103124941311194 0.18162294579384763 -0.09928175917048065
0.37595590566752435 0.17234621957194918 -0.07450079617026972
0.5008797977480697 0.23923585931140678 0.05030293925895535
0.42890773301957097 0.1531392617854408 -0.041663893807992736
0.4403361512921151 0.30276628961908614 -0.11869427426982782
0.4082263940679809 0.12431118773724847 -0.14935968397880117
0.5099821900374764 0.16397385742021697 -0.03734679423388343
0.5414016498469891 0.22790972737973902 -0.07176640510357402
0.42700264231029905 0.20582773266285415 0.04746027974255185
0.4582986656494654 0.04690181528656012 -0.37031041609452586
0.5077969299630354 0.2298158602040985 -0.07499671553779308
0.5396114207085532 0.24599081620243624 -0.04312210619217183
0.5095375344470483 0.19805674231932358 -0.05015048120910137
0.4788606071812751 0.19612115736761382 -0.038480945870787764
0.42070672302071443 0.13091090487786516 -0.06043193978071315
0.5422628725218601 0.20792752138061132 -0.05747428101693686
0.4778619861625657 0.2597810383014689 -0.023850672468782363
0.49830115896764937 0.1831133109346581 -0.07349608454526901
0.44436564724759364 0.2192477077021806 0.03148439287264182
0.5130065135318205 0.17111542277287128 -0.09829889971720718
0.5052593116751041 0.23837884819494093 -0.030160836078437114
0.5445310819273175 0.16688994683734393 -0.09598971100450626
0.4811201821813995 0.19275577643986708 -0.00047655365568743946
0.5647556641737879 0.2091382890218938 -0.07508652788507675
0.5145279598057755 0.20690785746569418 -0.016739421055376624
0.4504130370034716 0.1088388977088357 -0.054246988536206686
0.5016351369121708 0.239624193564552 0.005349286091970384
0.2548977888510251 0.10681017412298388 -0.0718223322972733
0.4974104558660315 0.1884594591758173 -0.05379701677655646
0.3971750237251399 0.19125618859330018 -0.0620122489861501
0.5030973719525491 0.19762694593612196 -0.060121418238253455
0.4939567104451612 0.15717585009400636 -0.09524024131665954
0.379812520285185 0.13615446830489475 -0.024559450777729808
0.49817690977687334 0.2605278577642878 -0.051656689677287204
0.515809295718185 0.23072286529833264 -0.055687947738064736
0.5373888267918687 0.20107457597111988 -0.10314851754456811
0.4701357659114933 0.16111437194716416 -0.1232252011461128
0.5811155970623645 0.2257795537247489 -0.07627693038278949
0.5084968272986714 0.13225455718423973 -0.12084047939715958
0.4844140540405988 0.20868611714487884 -0.02850399990047947
0.4897267536595109 0.15887090633430034 -0.03437041960192744
0.5500747898753389 0.20138772880841316 -0.050470393585669626
0.5105413760767306 0.2417686946099309 -0.01431508231021894
0.516327268152196 0.22138509810216078 -0.10992787120531489
0.49804031913524227 0.18729101784816748 -0.051253161630867794
0.48612859407549536 0.13857709463501067 -0.05004157348534477
0.49609359639561035 0.16916702387976557 -0.07673492229710632
0.4408256228111611 0.14584478719436333 0.01022455386326726
0.3906338524732291 0.16871413441239724 -0.04693657700033782
0.4915775867442562 0.21746840369431197 -0.037086674387808216
0.47135500970648536 0.2008580685650685 -0.08315154589882923
0.5184616554862203 0.3715316486928373 0.044259161694412796
0.5188742274033586 0.25539318068402395 -0.003763545022778203
0.5785405586082106 0.132858328026785 -0.16270325727764146
0.8856292453276353 0.4166247673378791 0.10432099943048456
0.49086900136768463 0.16560904988085667 -0.06457706426692766
0.502114101242995 0.21868705984803682 0.006121683032290548
0.4578709510167016 0.2174924098174955 -0.043852108853542404
0.40111795337642775 0.20394116080674962 -0.07509372084935251
0.5132777015611794 0.2042911073185394 -0.035231794321276766
0.46656460678886447 0.14880320017579152 -0.06809064135100584
0.5358141989134992 0.19478350113105591 -0.09687161538369082
0.5327275788287409 0.2071066277049738 -0.07011534350286297
0.5319186277036749 0.18505701059339685 -0.13184698349539303
0.37278221914419873 0.1385068244921115 0.026491420055634762
0.4531469546635378 0.15473271647270792 -0.027472992195853863
0.49352090580848085 0.14587185646925604 -0.13930367589289006
0.5006379280371789 0.20263216077339052 -0.07580272315036041
0.6313226068494373 0.24013307096541325 0.03557488028593525
0.43832709753866084 0.10488751748323466 -0.05461924669080531
0.511911267855794 0.22045041672535604 -0.020320573951664755
0.48384611748107886 0.18986517721819496 -0.052210072403681806
0.5177813067313082 0.15693580590235 -0.08453068585478718
0.46378380297358035 0.34409428161089295 0.023426688404327933
0.5019553523940203 0.2094338188831273 -0.043957423135225326
0.4792431316333534 0.2542566943249085 -0.021355805250692583
0.5654926866575636 0.1973706880110626 -0.0957268701549765
0.53745076240304 0.19660253822914342 -0.07887389519339649
0.49397957230098655 0.19247701537346984 -0.06081275153189836
0.46765729595475136 0.4223541045707577 -0.09771628683546396
0.5096945568821525 0.18631530556572784 -0.05577155215866014
0.47821285768148414 0.13592407894022074 -0.07469504945267147
0.5405775660838685 0.24513994248007975 -0.047491315680559865
0.46236784239604845 0.22389629047950166 -0.04989764724345491
0.47922124892951956 0.12932267894478855 -0.09596854150858292
0.5675488346002169 0.19726417321780332 -0.06759893559342345
0.4425711835893935 0.19008618067806538 -0.07968371877069558
0.4353526434815933 0.17574006941613618 0.0034254421182993156
0.5074260560301411 0.2255712526999929 -0.015121036316827485
0.4395710036522189 0.20320948709763798 -0.06311233808484928
0.49476890214953073 0.18515940928790542 -0.10130720870787968
0.457920394332092 0.18818152713282643 -0.06717874735167584
0.3603814406790491 0.17651817046080964 -0.0342180344028975
0.6080674780496054 0.2341259863508185 -0.051412000393568746
0.5141529106148539 0.18513861933014653 -0.07896537028884154
0.4727031222207927 0.19136019561844364 -0.033612366695251694
0.555106793948454 0.19241244605342445 -0.041026096987863525
0.49119145684630894 0.17998033703204896 -0.11721754768245773
0.48950394186138624 0.19374128579937633 -0.05869735877493554
0.49740161439490294 0.20632509427449008 -0.018461455037765973
0.47397868122183695 0.19237517640110013 -0.05345467705981832
0.4860016075272995 0.18843476329750786 -0.057662310813384465
0.3859194448035055 0.12275489585161381 -0.10062838984183031
0.36414526695381255 0.8784294945962188 -0.11591541015178564
0.5612631272121291 0.17380848406867244 -0.09362924129152361
0.4610123280581888 0.14251070611838657 -0.10009728961556164
0.5078523067108449 0.16985606468377057 -0.08261841520126723
0.6323617651695486 0.2635095929386182 -0.04211628626978836
0.398554359216007 0.15876186825178706 -0.03474383855511576
-1.131882882726103 -0.5149485999384353 -0.3112299615723657
0.383860696355697 0.10611805213908099 -0.09088406570396046
0.5053544340098028 0.21101592075628162 -0.03119335533233425
0.5061100847668456 0.204354676587144 -0.06739442227919312
0.4951121085754835 0.1834089846093292 -0.07179703613078914
0.5520266803561356 0.24952483442054074 -0.057799346542424246
0.5237166016441392 0.2868273762329778 -0.10382265824077308
0.48998445868173235 0.18433921702347789 -0.05374558271412866
0.5306420752661438 0.29146779995215866 -0.1179712954638319
0.49058413719953364 0.18970103304789632 -0.05177094938277094
0.4670751458849338 0.1486990822478873 -0.15453758158042774
0.47332518782448574 0.22973445374339008 -0.024843427261558304
0.45893359755669394 0.208850363788315 0.006901255224363467
0.5300964812746258 0.2156941910282626 -0.051177662212694486
0.41652304643460525 0.08764928702146335 -0.09709636079301731
0.45671199978991694 0.21184403007792696 -0.1299695401141321
0.5950115363223745 0.29398140588219235 0.11521077250583289
0.5136587585223822 0.22221744718852676 -0.02005910704420444
0.4759716236065117 0.14092254620824463 -0.11445148360280655
0.5061458805339498 0.1797636468364061 -0.09744979117056118
0.4579803973506955 0.2095812155109087 -0.0007513056245898042
0.46794846246496036 0.19173323612392323 -0.08134395691025986
0.602788175782706 0.22874800542655294 -0.10034295704245721
0.4783058154007733 0.17914433214696146 -0.06194309397973541
0.5051394584644981 0.17766168192233067 -0.12986055272384078
0.5509135882590783 0.16395937288827156 -0.11969062718216605
0.4956359800537484 0.2159140973255944 -0.0066998291292748036
0.44994572620390727 0.17871470112015686 -0.0980498403703507
0.4580835727190333 0.1457960727690022 -0.04852075487357865
0.4845897942494446 0.16730666692561158 -0.09847883187238438
0.4789018164512413 0.24150753076551723 -0.1576951182947539
0.5426828439293274 0.21237436882960026 -0.0993973836289257
0.9689745668093224 -1.1753057208400435 -1.1352362096362754
0.43610172421449533 0.1885416363128769 -0.09014777663509221
0.44153411242010066 0.20052434944547315 -0.03255039231815715
0.4520164995344942 0.1822927540485182 -0.037761246087654854
0.5982165059452598 0.27967685642748563 -0.011927038489886854
0.4969285615487138 0.19768333241367486 -0.059396941691716165
0.5313112701674356 0.16662860027724946 -0.10491563928781034
0.505249643955267 0.23409872232114992 0.02084286662852719
0.4997145177379423 0.21575898458542042 0.007403498068100589
0.49084536790957145 0.1516365028028872 -0.08032411132937511
0.5619202531474059 0.23258867482348933 -0.09531046805503252
0.45860487710902476 0.1824036723293574 -0.11560167400676846
0.4928275466945138 0.07800415508098979 -0.07291161613522945
0.4633517170619541 0.17040673409235296 -0.0679151958808859
0.5167777724226994 0.2605230071467872 0.011147854097316667
0.4679630597628943 0.17859544095279034 -0.05133055802818376
0.4815266492819603 0.20020893691128094 -0.0027810087622128776
0.4780270358064911 0.17268429146623987 -0.05676451323574838
0.43292130655146366 -0.03198531855186104 -0.05530415220242446
0.49364694157299027 0.1871191279083888 -0.04359844009766789
0.541966086776057 0.2074517074992741 -0.05880650509180896
0.5133265254212347 0.20848518279048278 0.017984526138064894
0.5149865415455679 0.2443954768433514 -0.07438521150680799
0.4472725183870523 0.17029009723698607 -0.049665696906004086
0.4702926501992124 0.15975880243286156 -0.05780453267965413
0.4623134442422838 0.1639724250682093 -0.06957282894782679
0.5438911190778981 0.20952560569450895 -0.09043199949610425
0.5005614935949154 0.2255490005430829 -0.021512814328957575
0.49772482126817863 0.2346028145820469 -0.0908156090778931
0.47272941169617866 0.19223992848232285 -0.062079475612023316
0.49634484780358434 0.16713827475180665 -0.09483457021795516
0.449525656798329 0.1869071939960918 -0.08892639859281815
0.3992621618082808 0.16731230258108098 0.008223030522529484
0.4421906341354429 0.21594252746025688 -0.023134436521957014
0.458674554780913 0.23501422589387744 -0.023683240584716714
0.49301783957648126 0.20974261867647215 -0.029273864371589298
0.584134508642336 0.24092669413983003 -0.028732623209791086
0.43744082293503084 0.19066020581821874 -0.011850600374003761
0.5739277626195474 0.18637952500776578 -0.12408081500782941
0.44775719254428736 0.14428730138777723 -0.06442331529868284
0.47582002600992723 0.18365145431162944 -0.1747585420820883
-0.4238951788922236 -0.33412765303840786 -0.3197696934442149
0.5052632034414444 0.22811894097782215 0.040097225916824186
0.4837834697227663 0.1705674359464524 -0.05362016581490536
0.4486897915982695 0.23877346806646926 -0.01719314819084161
0.5036240334809463 0.21083600475255082 -0.03167602430841043
0.4467901570919821 0.17927716780130254 0.03618593950665172
0.38363629080978967 0.16678691804094115 0.02916433710254296
0.4620957178025833 0.1884526956414163 -0.04718049122665491
0.557832484211275 0.19778539308165932 -0.1049704200776631
0.4362524875240865 0.23660651603711358 0.030398143158819835
0.5000970051539753 0.18511607133793007 -0.07064605543993707
0.5088612058427202 0.17790575206095127 -0.08794510503561526
0.4911106395364584 0.25896569638287303 0.019318135576710915
-0.11979870429399853 0.14203852057204358 -0.5945323125828281
0.40694807931799915 0.15727981449882122 -0.11970257281467411
0.4523514897740881 0.25093565153363784 -0.13378395280703614
0.5261361155611155 0.5447112207303917 0.014993502982378004
0.44223299238862523 0.18248713748303658 -0.038303104469747495
0.3627678832363017 0.05972228170887206 -0.038362295909053046
0.44366596333529174 0.1480734235452985 -0.21528232564706684
0.4505394509874918 0.15271188116133771 -0.11527777651505744
0.5284291808035562 0.18652510347986606 -0.038309296567717865
0.4173080692547728 0.13522464379718713 -0.09419573012849014
0.5171578263471872 0.19810499909860368 -0.1036002693336684
0.4745871812721134 0.1938618659925453 -0.04264479912009733
0.5024455432402704 0.21540962969363875 -0.007255915884513797
0.400794859123323 0.03903437245492114 -0.16172249280435835
0.574691204168289 0.1826522505099888 -0.1382458090348564
0.49311651587603933 0.2434706590701694 -0.0010742866852808675
0.4650390974695995 0.1957235532579773 -0.04263195862247926
0.4322806385462741 0.17794360837453382 -0.052560849281206856
0.5191986910685671 0.20713809007922634 -0.04630613212586354
0.4915905290405931 0.12967277085024875 -0.17545312744485386
0.43111162429221395 0.16170305133375962 -0.08415505996620709
0.4943845618293494 0.20310273173684834 -0.016776320693026037
0.5945414581327952 0.26099532779110746 0.009035686140592247
0.4366596190020289 0.1052431516662864 -0.1128133682736916
0.49253665084106046 0.20167449134457627 -0.0606582303425256
0.4420809629783946 0.1927835392588122 -0.059860365279575944
0.47478877283745646 0.12156992426693591 0.038191785585425464
0.4859789271474426 0.17261686096885853 -0.07254417630085186
0.4091402047657766 0.19308408030207147 -0.009031175542858705
0.4836428610470307 0.14599737199674223 -0.060627547419898065
0.5373460230402145 0.2086222279437493 -0.04357491032826033
0.5004538252012196 0.18528323874463126 -0.06476960279758259
0.502410483478485 0.16603605466045224 -0.1038058476680419
0.4766130525582071 0.18469000164397187 -0.0552193911504304
0.5873864293992881 0.22977548897367228 -0.05276532519582133
0.5247342056576656 0.16429601992172138 -0.07491114297005197
0.4822435374468341 0.17391630126209634 -0.09561052072305642
0.630950253140611 0.283646115368299 0.04562251335099177
0.5580092886412444 0.19838566300688854 -0.030472912139828168
0.42811516134082694 0.17435235652207837 -0.05865444245860374
0.4410358913292498 0.16219651065594576 -0.018146006436481343
0.4840975936361076 0.1576811776086373 -0.11514058095573887
0.34111124576614316 0.19590669035861197 0.034980680156351696
0.5969618781246879 0.2387468056516866 -0.01572236836543084
0.48775168882664843 0.1877640390898847 -0.04629343626369575
0.5723449393406952 0.2342247644149893 -0.06486584141507024
0.4462010772026872 0.24930879720380972 0.04555962305165906
0.46558544922231704 0.15187235983943026 -0.13128899732976151
0.48846290741448684 0.2220440010782454 -0.06094329545847188
0.4675279076637935 0.1898427416540045 -0.036512077927682185
0.5157733572591781 0.23159850693959072 -0.043072592736891124
0.4562403650864155 0.21693803510291332 -0.0038620573515402157
0.5888896705413345 0.2081880617845968 -0.04549741546357211
0.5421536026224771 0.22370090892320604 -0.02921265423874786
0.6100142519488259 0.2319237754639829 -0.06672466061095861
0.3598173681905621 0.12331312752414192 -0.13363438218178203
0.369832082182171 -0.11057788103362043 -0.4273052999278235
0.4658433914962927 0.2097232990661979 -0.0014085262784249153
0.41333327313267887 0.1614223240719923 -0.08281230531305539
0.5103959311600477 0.20073994846472942 -0.18891899554648717
0.5009137060394551 0.18033182892276045 -0.056503867716543255
0.5899926583433057 0.22319066049071523 -0.08101268545556195
0.47886902484739835 0.17974159075544094 -0.07103630140477435
0.5464357305655767 0.16169715356414827 -0.18644135868751732
0.4726770596382437 0.18826897874976112 -0.06484612628642594
0.4850651069930336 0.1794641873670173 -0.02051112689871104
0.5383560140795396 0.17448506371971462 -0.09740158070597715
0.4509282066179594 0.1784459661021316 -0.09501568636271429
0.5313348091297883 0.2820575275441968 -0.08031006786094963
0.5488291074685776 0.19800389573259736 -0.0829053145906471
0.4792703938172167 0.17555360839557466 -0.098581196365501
0.46616269665841514 0.15919034638471885 -0.07168972376098282
0.5452434435470934 0.2349330060736179 0.05015271368898766
0.4548437035467998 0.2679982243104462 0.01623513435774271
0.24021447023196174 0.2257852273465346 0.1455601323712301
0.5270322038670372 0.1783304197214477 -0.08871756065776992
0.5690606555461386 0.20598135579341204 -0.06070363700087
0.49883494943429696 0.21580830706949428 -0.05906549362694591
0.48605227957608577 0.19205133027006127 -0.05274102480748866
0.48913297688505963 0.17537435052575745 -0.04370297035211479
0.5194813335668016 0.1663654149348872 0.0027885942446346235
0.5457033552537496 0.21704921284968748 -0.08675912584251932
0.5192746493015363 0.20445599442786033 -0.05475386654433123
0.47953481803023124 0.26917986478136413 -0.008073480069654693
0.49911610829883557 0.174420008230058 -0.13212919275623847
0.5350594045226842 0.1892743605556575 -0.05925916797329478
0.4759488239091638 0.1714462429872583 -0.05306573541432158
0.5494425872102795 0.0851663924900663 -0.16330469174624795
0.4943375645945025 0.20409940236712032 -0.034091796283689746
0.4859349633354668 0.19759859339644947 -0.022722872140434447
0.4745119283103918 0.1770564008143367 -0.0072153458059744935
0.4513737892478389 0.134235020072623 -0.0486362090414616
0.505249254708076 0.2152740367604622 -0.01698464444739045
0.48501340649531244 0.17163900855086922 -0.0070927396246105445
-0.1735248427416991 0.06448894471417077 -0.9626576028404088
0.5344640898628938 0.18969736429485806 -0.09075182087372013
0.49172338729073317 0.17918601535713208 -0.07961769486922776
0.4812751654187082 0.17031002123397343 -0.022160075209939123
0.40452344063211854 0.20352321738494084 -0.07947731900794963
0.48568268956603333 0.20445356428646733 -0.022223776350813296
0.4582831208600169 0.19128087053758236 -0.015458810555955438
0.4805207635175748 0.13656318544913404 -0.13611082264478114
0.41748298194173117 0.15945569771025703 -0.02849048662055509
0.5287133606369423 0.2088737178817297 -0.026891508569747202
0.5353132483441527 0.23401934957138337 -0.02243370461414429
0.4574513935134803 0.15302855109128188 -0.05376059002242073
0.51280337335902 0.20994049720762575 -0.04306946618407892
0.4568130567836306 0.19273845790161204 -0.041284244923744495
0.5103995399356336 0.24886652206819804 0.18042747484413724
0.5116120910390975 0.20970393420148525 -0.03286125165287501
0.5084584136476735 0.1321835400732425 -0.09840439887224761
0.5690494684200189 0.23598181802955764 0.023890521158136835
0.570451612782108 0.2032315817953929 -0.038478331156767354
0.5532451383745354 0.22386703865184643 -0.036602760806601964
0.44265098735013453 0.1639512010551556 -0.0628293418797341
0.5157379978724919 0.19936856681268011 -0.03444082124558179
0.556255600899334 0.13397200372514817 -0.08882614044273396
0.4258201406691171 0.18628702572374323 -0.04697984338980632
0.3470307734526443 0.7257709597090951 -0.19605004002735882
0.5046278145715064 0.21634575241682796 -0.017370954376588088
0.5255390396182236 0.20724092347714418 -0.045954362478653366
0.871142993678319 -0.07120251045870418 -0.18090642321536166
0.08946946014739865 0.4422788681407326 -0.09766840241576347
0.4761660399070138 0.1826109587457836 -0.05368216561357997
0.4453547505981419 0.15843356642375284 0.04498432434579058
0.4837250186427866 0.17207597400904717 -0.07827498564347479
0.4994796552687717 0.20501207703075863 -0.027777786547247274
0.5711536017024059 0.2284537873086947 -0.08968873921861586
0.4860734553208488 0.23601281871164304 -0.006696920042287502
0.54360222467281 0.222820890090361 0.01217218840940859
0.5683214000633825 0.2693750646915589 -0.02589688197267037
0.38058223103070077 0.04569903829008126 -0.04356571484771621
0.5110775627104545 0.15764881693448274 -0.09287666431194452
0.41096467682473303 0.13774517954347232 -0.06899372116143354
0.42431009227445315 0.1058361260222398 -0.03477342969446795
1.4542798773562424 0.7819792715502558 0.3813596531329324
0.46317288033782233 0.13792781676758636 -0.09288447475887551
0.4827981694910761 0.19867659691973927 -0.04596144678865244
0.5163947017020689 0.2805348246784831 -0.13029674125333202
0.4829762346107316 0.1969937873108023 -0.056618642372825434
0.49578738904770603 0.1655650906542121 -0.0742881042443031
0.5323581194883502 0.17762398592189754 -0.09918452310014914
0.5853091572454332 0.2763888506241159 -0.01834162321776489
0.5809107145825294 0.30234097795030834 0.03437349293830039
0.47861874047777064 0.1552875340868951 -0.10546403352506672
0.5321374613495777 0.1642705748978699 -0.07382140573733409
0.522908542837115 0.1873803707515691 -0.0347815509354632
0.5296963448590759 0.2242694971029664 -0.04477179573186163
0.6004955538660681 -0.6879220226177551 0.03219960328192428
0.5101607228796183 0.06047814040927335 -0.262207607987051
0.4778566699147291 0.26634078605040656 0.07323626882337919
0.47971504058492087 0.21327258178881436 -0.02026787639837835
0.4920145261662867 0.15300055322245498 -0.11823012983941794
0.5539137823716942 0.21822196846562747 -0.03612755704443771
0.5212766696733411 0.24689499375236323 -0.03839989476524863
0.5285744388246485 0.21422256608028079 -0.0128356704353223
0.507167173826673 0.19971873976568588 -0.005398253253360963
0.48202741530499793 0.259207012084147 -0.07136468517003891
0.49007811381110855 0.17852286816551555 -0.08125963031974948
0.5229963312969801 0.21955553494518654 -0.036514712335701915
0.5081258931661807 0.18270060733674143 -0.06569945975626013
0.505531372234401 0.16931937274287634 -0.07080338132504949
0.4625869463476704 0.1784170157734195 -0.0373766367393813
0.4817918911892889 0.03796998612656921 -0.11399479699852577
0.5795014231111111 0.16244520996684741 -0.10009526006371061
0.48589772514347374 0.1960587481792686 -0.044755287484633755
0.6007503592753665 0.11677973070945313 -0.10169861433088556
0.5251690483257221 0.1685183298797739 -0.08547240717081195
0.5191045516364454 0.192540746511753 -0.08976832542157354
0.48807066345040084 0.1844717112483778 -0.06942171771891026
0.38087592623486444 0.1052118004464262 -0.1609584582542709
0.4751350212806358 0.20539065170659399 0.02257888960551213
0.41631970335473056 0.15339225753680807 -0.16311290002943224
0.48462526466863665 0.19743484452895643 -0.04264272147315751
0.43030953288931073 0.21918484376496394 0.006335937402994318
0.5132233645324504 0.19401823188397316 -0.040348806500034584
0.552321448542358 0.14485188712154695 -0.05823610643173538
0.5471299234464198 0.23873615096007939 0.02084264833757743
0.5364717432210853 0.20378351560721342 -0.04681996718971959
0.43529273786464273 0.18538312810464674 -0.029550699430842542
0.5045399754551454 0.12360104138181782 -0.14833211637339616
0.48448241004243187 0.18841595761344365 -0.03909955069177329
0.5640993880185476 0.18603465821352927 -0.061506198611027685
0.47738955563013974 0.21556185890246127 -0.016042134621045534
0.49679713462217023 0.26414268116448625 0.08669953770767336
0.3670274952946784 0.12263508263235678 -0.05133484320117532
0.5171759235747686 0.2216270708196788 0.003330495106069975
0.4678247380918208 0.21448290777001944 -0.014097872258389543
0.4122121450634211 0.1863348923057515 -0.00915343444876271
0.3852756890716478 0.13446804210582286 -0.10754186911982799
0.5478178274650531 0.15919179927010418 -0.04488735647640851
0.44569263715439433 0.19357615505182935 -0.08341527399764459
0.4907908148292961 0.1771060255346555 -0.003802420679107854
0.4724660005312842 0.15131055054057185 -0.06373168536286755
0.46646806718274547 0.16408310466570697 -0.05431259700222313
0.4741973065722789 0.36934154178311474 0.027658017669807577
0.566021037903397 0.267880303167118 -0.013769770339806087
0.5549527979621018 0.2278809852730319 -0.04924869079795258
0.471100894783234 0.1801915887280643 -0.10548424952301616
0.5117152197447012 0.1543610269396538 -0.09688776124873755
0.49624626654991744 0.17202748781016908 -0.07621791179408888
0.5125398903179814 0.21551105198001608 -0.04198282256786001
0.38135228804154053 0.16360531085975083 -0.11176911807703505
0.4347389761278748 0.1924348240249003 -0.02665919054038568
0.448286392110532 0.34553097114616094 0.0074660460882682855
0.5676217128249732 0.2119560922750452 -0.058794910689215385
0.5620770885944069 0.23448661523417513 -0.042246799050417394
0.516370449997936 0.23132956792034065 -0.021228506452615648
0.5369796062801413 0.2114311653274541 -0.04609633337426544
0.5228369080282391 0.20496919655816725 -0.031115637490799486
0.45844902444906666 0.17865163314446875 -0.03736140796598875
0.5130149147240388 0.1864302616253184 -0.01735327066114678
0.49422376031881754 0.20713146946091854 -0.05396489212529332
0.4902060893329008 0.19481218570743408 -0.014290139631498278
0.4818228526536643 0.20255314713466532 -0.05119672322683755
0.43298651178551495 0.2672394876093591 0.03372020495359607
0.4087902692059231 0.13521433677851746 -0.10136005520618596
0.44586420781948277 0.1253935678367668 -0.09836196073155179
0.4950249057264102 0.13255714483327097 -0.12520211018576788
0.42915756399625593 0.184889347709003 -0.04500201261282655
0.45254302554690184 0.2352529607718168 0.001560165124061541
0.5354839339556747 0.22696284022998725 -0.007061266574339697
0.6812865934957415 0.39395672777590107 -0.15923139845236278
0.4757331602791339 0.19885164475164174 -0.06471874679981227
0.41941156464042706 0.2513878186225469 0.3183862666751338
0.4892712602924121 0.22189238072797934 -0.0183785670796226
0.46561249621498746 -0.0479307672155187 -0.1943192988401563
0.5278929191866553 0.21284248645655168 -0.05459138835634292
0.5821225984877572 0.2076420698703032 -0.09534656637370631
0.41524040504248205 0.18041303589237145 -0.050589905350165054
0.5110887260225923 0.13544625956345158 -0.1063491827168832
0.2974058310364285 0.09999404918090704 -0.14437587898211746
0.4563178022062857 0.15765878982227832 -0.0706339996961276
0.5085076601923788 0.179600053530109 -0.06810326194622007
0.4788045132485763 0.24547693772808543 -0.03973916830440771
0.49088519134366493 0.08221827585717278 -0.1692329874694849
0.5539513024183975 0.21643188896642584 -0.038067423340748974
0.45136259495151876 0.17435898495514834 -0.04991859071813565
0.4229093144319336 0.16903530190052152 -0.045155458446373586
0.5393599812643686 0.1468362885101726 -0.10792424709278237
0.4893194150654949 0.20726313132803398 -0.03009420741787494
0.4393867868201369 0.15641474479073736 -0.195944439626345
0.4713069543965389 0.2057196906591514 -0.009328996154280844
0.31389646499152946 0.36300407634448106 -0.05899375475181046
0.5655462973440422 0.2061489156877343 -0.04794579732867987
0.4511349136398337 0.1891736148785128 -0.02581688122396031
0.5484814790861492 0.09831129767482594 -0.10775491189966147
0.5332817597711141 0.2258069860538967 -0.05421068622612779
0.4928170745154148 0.15962299680148817 -0.003911046377737648
0.45187860001320246 0.15573074607004855 -0.06757526919346901
0.4879482829445294 0.20845646561234332 -0.039329369350184606
0.4438516118698317 0.13646166752697297 -0.036155131911769445
0.564738070859164 0.23635104089638048 0.015673994501966604
1.4646067109573266 -0.8618097568855916 -0.1046323175704913
0.4248207277084646 0.20496338928580826 -0.0005529315199623852
0.550576572391634 0.18050072577861442 -0.06572059428805233
0.48134250729239625 0.2090446605870966 -0.010653248064713239
0.4138541501617681 0.11121318778862133 -0.06754965542251057
0.44656010442469096 0.11032609925103998 -0.057015909414758426
0.4600897557126302 0.14291806494797754 -0.0723270489407355
0.44426411789538633 0.1754722250453966 -0.06744391052244225
0.34951170182580427 -0.6063231588928488 -0.24459817719397847
0.44159942722896517 0.1542847607743738 -0.1190420955693412
0.5748448010172353 0.2687344432344503 -0.050818111129075305
0.470083111541868 0.1367801786619509 -0.09368775530494133
0.518008992261116 0.1999560194227854 -0.12331303413645855
0.4874045682072392 0.20052880086328173 -0.05274413605826567
0.65880806355554 0.2998885685018138 -0.1408875542571053
0.5442883142049766 0.20017655477545304 -0.050844480347350895
0.4986185526966267 0.18488990436406993 -0.11301908165080476
0.4973311924396455 0.1913132313122219 -0.06357445923438831
0.5321413088365432 0.2174780576963542 -0.06001670180020824
0.5720971388371652 0.19984936567483658 -0.05846237118385034
0.5439793796038828 0.24486612305190647 -0.007641392736545072
0.45315791847048104 0.024863539843124727 -0.20818183807116952
0.47320689673577476 0.17626805739261897 -0.1792647313796465
0.42424099768973633 0.15883155000585703 -0.06876265126631154
0.47214260463306346 0.16170822273340946 -0.11156793171099366
0.5078301547773663 0.22786622007862434 -0.0490380626520448
0.4980767018039671 0.18114777190550058 -0.0628178785644451
0.48997783599023137 0.2397751283467926 0.04054654998158469
-0.25728374966971046 -0.7420331786458405 -0.2404132399048251
0.49165243372820555 0.17942930869810425 -0.06553673683919214
0.512820376425708 0.19700638278702343 -0.061587231849102864
0.49874070109373747 0.1946512716763067 -0.043718568601562424
0.5210291326984304 0.28832358638200617 -0.04440170642941155
0.5265179248279424 0.1848803045462546 -0.11999408244315646
0.5219501263177335 0.284270059243255 -0.23467501325552576
0.4927708714226071 0.150308757130432 -0.12727215895461086
0.4371531810948568 0.07832495994992428 -0.23467590419896567
0.4775407719394593 0.2080531064548552 -0.050643795594183416
0.5057478646932623 0.17965418157602642 -0.09282958886232962
0.5133072556732827 0.2459711854779698 -0.0088211507598146
0.3826054447644083 0.19396615649944238 -0.050265079872445995
0.5250307965659147 0.16225195304571116 -0.09373058648755261
0.3725340616031474 0.18575702846797526 0.02876282474616687
0.7418341441053542 0.16160679049117732 0.06967843661702489
0.4756101410097813 0.18334161500357027 -0.06048533128475242
0.5957696811055939 0.26234493246909096 -0.0030552348447088207
0.430018936085105 0.13698247589161383 -0.08565802549964019
0.49318190361893244 0.1817634471356655 -0.07580245923040252
0.5170804104267575 0.23431916602689284 -0.03902310870589076
0.5167060318006804 0.22500461515618042 0.0026655260967345384
0.5639133698087448 0.21092974947157472 -0.06534078006686173
0.4984938946333557 0.2005602183495796 -0.027038024058725796
0.5182788815024821 0.23877362806223346 -0.021048366898043014
0.5175257307130039 0.1738041641844177 -0.18767314604869512
0.5185949690361156 0.15032295201443446 -0.1011256044210711
0.3730629125424514 0.20973280326792576 -0.12654696633602214
0.4193307482467503 0.17863715938125324 -0.01205461280571285
0.5248136283221356 0.17154797270364952 -0.10066596404358563
0.5788152192966436 0.14635343374345666 -0.1045998982092442
0.42595725076219537 -0.029255612135173692 -0.18285542284311873
0.4603942670327683 0.22083004955911179 -0.05506948305733772
0.49689390369141506 0.24615865131559644 -0.04140226668869218
0.4925029090272801 0.18361606978857026 -0.04926136377358148
0.5645513930078607 0.11372983320180197 -0.08390003481508757
0.5146534814707877 0.15059055888112027 -0.08386188609298983
0.5186049915886031 0.19969699569625732 -0.05171937841416252
0.5381979858024408 0.20014402786227947 -0.020370744380102224
0.554925019264374 0.20359404305060025 -0.05312500775583828
0.5536746629713036 0.21462054321040114 -0.04986284332221658
0.5878668221128294 0.2800048008177214 -0.05088996195227935
0.42522622481723715 0.23153106741948193 -0.05650421486686241
0.3455899456586451 0.07587919616058514 -0.059813142387667995
0.4683016224677772 0.18647731023676783 -0.04652251228839077
0.5306919501140044 0.17909662011940952 -0.06711999422594772
0.3592173202236211 0.11792057852277082 -0.06153767562967971
0.5538580964622781 0.24667643137156858 -0.019736276638468553
0.4989244796492187 0.22337200356915332 -0.029810871503187286
0.5406052553105383 0.2258250827296706 0.04012803411370669
0.4628287771664077 0.17182803621761877 -0.10075515626967047
0.48660584201692814 0.17819525425520055 -0.07940373425780933
0.5505778117444606 0.273345397833765 0.038143634452268316
0.3705107364013145 0.19491346555562927 0.007818006236632868
0.5422934845383907 0.2371433798827809 -0.009988564335756678
0.5327372986764942 0.22324787944455693 -0.13720495791521614
0.4743234596490993 0.17203951016932706 -0.08920955783563045
0.4912609893546289 0.18821482102546838 -0.07479763132046457
0.5506394978677633 0.21037913347403503 -0.08404519902853735
0.5119433856212936 0.21669913569624555 -0.0364994964891423
0.49047232755242476 0.1548653285296382 -0.1036676735241997
