# .PCD v0.7 - Point Cloud Data file format
VERSION .7
FIELDS x y z
SIZE 4 4 4 
TYPE F F F 
COUNT 1 1 1 
WIDTH 799
HEIGHT 1 
VIEWPOINT 0 0 0 1 0 0 0 
POINTS 799
DATA ascii 
0.46435007710026355 0.19340490524645304 -0.005730743707829333
0.5547721418213882 0.1582186466717701 -0.11107168097944964
0.5252774689055997 0.16433495934796838 -0.0664173027870163
0.48439238151097186 0.157688129265523 -0.08677635239726555
0.4285245023664146 0.23083762937645247 0.03838367646653751
0.5408249507843266 0.2311942516692227 -0.04619723340917403
0.5359834113816788 0.16112695422245338 -0.1589754296369108
0.45756806463452904 0.16105751081315134 -0.07195106236835613
0.4352875493517985 0.19608729600170705 -0.025481508594225488
0.5577206028129353 0.2909440116753217 -0.012513788842596796
0.3610895293433174 0.17594649944297203 0.014672448592079945
0.5627753446642174 0.20929759897522615 -0.05907901770923729
0.5791071679726656 0.12706558660119072 -0.1123205669577203
0.5987860878489499 0.2146262272465549 -0.09777002407258806
0.5545343700333376 0.20837445765371854 -0.07996185537420786
0.5389192142763335 0.27009384619400123 0.05503846863672379
0.5574858277292805 0.2203813343358405 0.010589211322013625
0.4785973731703166 0.2262617754129792 -0.13219652634197132
0.5493061943926989 0.2060346623153464 -0.059859081412810156
0.5204390033069046 0.19352635246637817 -0.07635618447426396
0.5055457869230793 0.1953697987431724 -0.07254920143736854
0.504314327701934 0.2266549981162882 -0.03542978408312081
0.5021127936183376 0.19892571050016272 -0.06387555834972147
0.4977590789424795 0.20850059496913786 -0.04389494949715811
0.5015029264423845 0.2200750304817518 0.003203473196521145
0.45698702237059763 0.1380258762458766 -0.09724119651480123
0.548449906379247 0.24170454586659673 -0.003610869330486821
0.635554883419772 0.25102033540926527 -0.04197272312026712
0.4824217812124374 0.21483297800233458 -0.008011715385379148
0.36824945437078327 0.11609310748569612 -0.14710854049840805
0.4910469711126666 0.17802433694609476 -0.05940402973524783
0.49129253868190403 0.2229939470191198 -0.009538005757917745
0.49051173345138466 0.360110750945978 -0.07625596371912025
0.470232985160564 0.19342298889148424 -0.08756169789623414
0.41888486954927373 0.12393031187767178 -0.11461301087605591
0.5456973039951976 0.2038384155459596 -0.06243039427170061
0.5019159506415605 0.24589623241536174 0.0007359691574606586
0.49061020066658045 0.1709332200920528 0.031730744245095366
0.4882018415939626 0.18959420432844354 -0.041912668944206644
0.5650814038134939 0.21649719256012645 -0.07518327147354853
0.5174614831617959 0.1682746782647655 -0.07849472538859459
0.5188292649456798 0.19855684162439502 -0.07076498987485991
0.5400682190843611 0.21998069483620952 -0.051590208228446954
0.5760108425191106 0.18994452770974135 -0.0841520766509376
0.4450116733542018 0.5151094333046018 0.16072657188217931
0.576203575038619 0.30709439775179703 -0.00039311721707235847
0.47943131176302245 0.18778312408478826 -0.048134915544068235
0.5982179983384981 0.30998962687111487 -0.0830486291003183
0.45414214464615554 0.1820569522765254 -0.0452512910451901
0.515992629870297 0.18601755355547311 -0.0747536658827812
0.4787105814392021 0.20139592151535624 -0.13459998460997724
0.5358153098263756 0.16869334692705706 -0.10541553381024471
0.5196911617098294 0.19383085386957077 -0.07279900840701714
0.42211139023667954 0.17266531222713866 0.014654574642094076
0.4913069381895667 0.18464488433787096 -0.01246151565410969
0.5192235512345889 0.18725782840814986 -0.11521764139385482
0.4336978755269172 0.20627102436370137 0.03916228807349853
0.5359078125517982 0.2093371223553646 -0.020007047795900235
0.43137350173574873 0.12657354828297684 -0.11484378785706895
0.2565644831036451 0.6190835308088083 0.38187325742330813
0.4780501840371727 0.2584946328783815 0.0032264746008792144
0.5013426086039487 0.17363347965911657 -0.05489223548204336
0.35777888289780435 0.15421176153611782 0.008425991336650895
0.5982029693445128 0.2896604899849109 -0.11647500537119981
0.581727305184998 0.24793462282869427 -0.059408322596055996
0.3086504208230423 0.19968599863250347 -0.06150520848892427
0.495406310388006 0.1931588100848387 -0.04100627071903773
0.4749641810926022 0.20577361770428126 -0.06348662826312079
0.5025282278978835 0.19979716824606442 -0.05816363239236466
0.44819503449828346 0.1502554419655695 -0.07349324561090498
0.6957237626861428 0.340493030031638 0.02226947993158035
0.5476292394574074 0.227234102789879 -0.0413862975328243
0.45123497337823437 0.24568429736397945 -0.08612291124615012
0.5052274653623812 0.19861898356501229 -0.05160539409826015
0.4977666264007752 0.14801841262362814 -0.07269500245848803
0.3818302491598473 0.17348733680384498 -0.05018785579224527
0.31730237707405706 0.1714200690123846 -0.10639246583485829
0.49626543270873924 0.21123061195569903 -0.03583870272929346
0.47035468721580287 0.21442693328243934 -0.03877808745261291
0.6077691207147922 0.22559457263275817 -0.05635134311825141
0.5452648398272686 0.1438646471560645 0.03204434724906946
0.5031188865216194 0.19664176103609066 -0.03811124495919671
0.4303543859649892 0.19158068176838583 0.007199370037128006
0.4981641945527855 0.26744534269954556 -0.06651632521118245
0.5331739995067437 0.22920317856466 0.017368177687387742
0.43505817171455874 0.14669836260216584 -0.04308825185349008
0.4922860210967883 0.19848353698574783 -0.07183277474612737
0.518966996973532 0.19037192855699914 -0.08577093322020346
0.48663723662890845 0.20269298252694057 -0.007929463833647787
0.4974646683163826 0.19194360419882628 -0.05930311227533025
0.5101158234194543 0.21602039107300186 -0.045004778502885756
0.5970979760218142 0.22758620288821874 -0.09970329286193191
0.5182828134079074 0.18145457527873532 -0.05731431596524317
0.49913564300968005 0.17960523720194033 -0.0706816514431523
0.5185536743508976 0.19327477953655148 -0.06232568733963717
0.5787308436160146 0.29581586344477273 0.10047046407278515
0.5830170047446046 0.2251340137106297 -0.0710508943217576
0.5968631546088119 0.26345052070628583 -0.08486818385480888
0.4776770192844282 0.16838514094067136 -0.1089065466064767
0.5129402900207651 0.21101012173912181 -0.060504023778307214
0.5226147541547448 0.24055741197591374 -0.01329863001056708
0.5652419014414107 0.1340335226723255 -0.10533868238488253
0.44255209552979125 0.178720236085411 -0.061239670739226426
0.47757631958953084 0.19959675586216008 -0.0818087510863279
0.5077638982564423 0.20554346639983123 0.03417655492995664
0.6353690772607621 0.3080777478640613 -0.03741245296140505
0.4351765825616951 0.16159356514543788 -0.1704614975180334
0.5066558662354907 0.24021182727386758 0.013266082303516669
0.48824331858098446 0.16288463656968588 -0.12439509650236857
0.4323310567282874 0.14089757302927808 -0.10819710731878729
0.4807858188761145 0.1907294855909072 -0.07550332430477624
0.4879177961076948 0.15017906642238188 -0.05911241554028379
0.15971655756544578 0.12520858661417833 -0.24923429633227556
0.6312458596515427 0.2205417786686894 -0.04340835714457114
0.49945424560731055 0.12187637390367456 -0.15506286261432933
0.47832574992307286 0.20084199689765114 -0.020868830387868798
0.42991059236872786 0.15866023228326753 -0.02645609695932194
0.40863784307057927 0.19752121832468106 0.030225157161368088
0.5137295902753465 0.19501637054187881 -0.04706979535910705
0.4778658910950071 0.2240217559314317 0.0025932740610841165
0.44750236581019465 0.23206174785795497 -0.015911968194274095
0.4993264442924641 0.18563841605336506 -0.0792244618263993
0.41455978972510366 0.1894829700893439 -0.04604365442756375
0.4092760902827024 0.13199508564001405 -0.06917797989324015
0.4681689391590993 0.18557489454499887 -0.01676624226135459
0.5217664150814727 0.24659240669801363 0.007189929109031823
0.6690812047032182 0.19453070298645514 -0.06072985090690963
0.5446268226741608 0.23138970379508805 0.046198796745215986
0.44164105243064 0.31470948106961316 -0.22086453219327495
0.5015852292577705 0.12692178246099672 -0.12237902003951717
0.5159791046578022 0.19912447856779636 -0.030723363920600377
0.5706113966784443 0.18423777368171557 -0.08386391889830236
0.7130310980799521 0.2960868627286857 0.054272114608920674
0.5910611359138471 0.2056977788941765 -0.030171905390687925
0.4733406536283411 0.25012313614243453 -0.00995052505129479
0.40781348835255926 0.156735826358954 -0.104011425392315
0.501135189624236 0.19759869105470784 -0.04666801103137175
0.5365929766783637 0.2165344484219247 -0.02346336454752418
0.4014392227599757 0.14837120023031503 -0.09551751725230417
0.5206418157234509 0.22170662599930324 -0.04663864107001814
0.5143034741776944 0.1942452809570483 -0.07196467149086061
0.5100542041877247 0.1796541677778123 -0.07196516626969185
0.5198876530493521 0.1883706661032818 -0.024282500251814554
0.5299900862433589 0.23303926959813737 0.008180402196842351
0.4934780874084055 0.2017541625685766 -0.05952696897934118
0.5193110908930976 0.2391302002978648 -0.058183643861625
0.40606314386104714 0.17165599640412665 -0.07067348681985663
0.44196355806246856 0.24747291647574343 0.021611138097739513
0.4921882733276277 0.2321620561866382 -0.04413284873686507
0.49311685637248104 0.18122056500851613 -0.05974478809193329
0.5888175273849328 0.1671099876961364 -0.05435943700031487
0.3857045195312594 0.14787875753896174 -0.16061556932601206
0.41773065772105156 0.16985505596491635 0.0030436342382529347
0.5297965454748521 0.21871567380433987 -0.05786132839122615
0.5163421985314187 0.22132903790769376 0.11561027755203668
0.39877634492140146 0.1631907697016004 -0.06164950785358769
0.6457873039095574 0.4313217050232936 0.32361887708984227
0.4738869129874246 0.19306827666017057 -0.09916665879543984
0.44925340867625607 0.16897067713279057 -0.03474410317676302
0.5146625943785921 0.18848272498769347 -0.06363674032627387
0.43058227585740383 0.16544359862487568 0.004111376781878562
2.1480856793275507 0.9274083319968156 0.6120827203846773
0.534373071465609 0.06058195825427504 0.10700881343126412
0.5087845813692695 0.19469990477173837 -0.06005968280965135
0.4781300707094118 0.1965010587112772 0.02616296338752022
0.5953914694851932 0.22861811533849163 -0.07999859882673377
0.46648259873069264 0.2035573690700403 -0.03921928752856729
0.5579749080062868 0.26036803998235314 -0.07322789948551645
0.41003103749453373 0.19344857783775637 -0.031543664237574376
0.5166512148546332 0.22114892505115336 -0.032930968382316905
0.5315995165887557 0.2137219717262866 -0.05006461270616569
0.5041909654865577 0.27163089365953397 -0.0026168176255367825
0.42762765047109497 0.16148001388935995 -0.0654222261236157
0.5618693295055834 0.2562318338612499 0.046547247499788114
0.47379852142125856 0.19706615987054477 -0.03207229512601373
0.5932233752737801 0.2582867721688018 -0.03550567012185013
0.5586219800876648 0.19490875940084607 -0.10150737798156229
0.5261041260381631 0.22689808882125817 -0.030731476891020293
-0.10293214651062499 1.1668891396462584 0.6409558358616323
0.5170352265323856 0.24593355986479537 -0.0047750878338490566
0.5723800385645745 0.2617584279496157 -0.09744197546871192
0.526855422727337 0.21411150650415323 -0.07106422894503339
0.525153893150275 0.23580717799768536 -0.05451243151401286
0.3639949158122846 0.13710564813857218 -0.08522387558778632
0.46347530016879546 0.18934989158582027 -0.08605746407462789
0.537747666735072 0.2177931929949466 -0.03490372032061373
0.48741133632266553 0.17772540741182752 -0.07473556731355302
0.5403150230687004 0.19053218232954805 -0.04641247906378965
0.46195918364023214 0.1747409380654119 0.013846482808915539
0.5140918537214105 0.17112537536326045 -0.08705263537233066
0.49416981030053364 0.19641072465064724 -0.09686482195772328
0.4556597250676191 0.14270986821088627 -0.11095212857655667
0.10429220742841494 0.2188286327710074 0.017624642899477294
0.4854428087388811 0.19690677292473424 -0.061354533141255274
0.4611472951289812 0.11814264657648721 -0.1582925594387916
0.5429515685604684 0.1670233047756824 -0.09434174557324582
0.4883678653800132 0.14629286198976388 -0.09429495191382387
0.5016426225710973 0.19455365091150156 -0.10597164203988996
0.4778778559820438 0.21312189634411993 -0.05115475298239858
0.34281299275137656 0.12020920809857216 -0.053610346257727315
0.48113518591658533 0.2557178329502676 0.07117012167245207
0.626854582706514 0.18356495478514034 -0.048045427190331225
0.32652371851375506 0.1308679015806291 -0.17132348656393503
0.48338760358365107 0.19328008115024886 -0.06344315598762762
0.4306291568354794 0.457803445039616 -0.16693806641148967
0.49860815794095004 0.16591072691639397 -0.03424653068276484
0.5563829394842088 0.1993377125258462 -0.15291981573858493
0.4993071284360724 0.18330310930838323 -0.10494358837493678
0.4837486943352616 0.18382340004636433 -0.03216268045744641
0.5755572209455266 0.20905797350674504 -0.14153024277180748
0.6303296556510531 0.20372880397570725 -0.06969804016927128
0.38449431812586 0.04628308501374079 -0.06800963245721903
0.5590487722373609 0.2282780730372167 -0.07950221439381266
0.4423354356584497 0.15369216644060657 0.014335200612435983
0.4879862634292209 0.19280627981443388 -0.05911764087764482
0.5119281018289996 0.20215943303594486 -0.055091135333810826
0.47008131450228063 0.19481119459801732 -0.04508207083006255
0.5033645235745041 0.19300591735500916 -0.07581294860605681
0.44401246340149214 0.20122178928005496 -0.048568336552961
0.47638111282506657 0.17836955075962635 -0.05176264461675828
0.5708513422697763 0.23382837095635978 -0.10286123534810088
0.5281457716572078 0.18508907291732157 -0.09655031566239813
0.6458637512388208 0.20532029395070595 -0.12319078381551662
0.5754889135677956 0.22139824730368218 -0.04923556960849851
0.4746143683341728 0.16647824456580906 -0.09235902321471201
0.5402603578169192 0.2338596008164302 0.061438315245140984
0.5388099626115093 0.2533211231706076 -0.0037509860485158697
0.5259642847713906 0.20774217681677953 -0.09097657242688229
0.4520161877251496 0.1926889199546764 -0.009705892832982954
0.40455814837338266 0.15506810493118905 0.17463999739142366
0.4584778889809087 0.24076229635028312 0.0758773020396859
0.5499741377459202 0.1419951582122394 -0.14023850097478885
0.5569778206592844 0.17684286309741992 -0.1037379801003766
0.48298387106115115 0.17897007340488358 -0.09078980867496966
0.5241469577989761 0.21034180790482537 -0.028914829795155583
0.550283222391414 0.21184125276012367 -0.0413300263978158
0.554841010357805 0.21825602061269933 -0.06883706420461522
0.5029270716005954 0.18470145043912112 0.002158304443639736
0.5011618032932859 0.17850361722803143 -0.07052667815723623
0.49257097488488455 0.09021508380394039 -0.20395956080511723
0.45393366832398385 0.19384847370372427 -0.046445464515997514
0.4901841884549043 0.18744541313401442 -0.0834220322766015
0.5619252800435675 0.15447463566658826 -0.14401129460978268
0.5005252058975174 0.20061951400651878 -0.053358330965551204
1.120989357113757 0.37164735126071946 -0.06861350123926968
0.48991778047586365 0.19004357257387028 -0.0558826647632884
0.5051317373995374 0.21199096452858157 0.009561354993451232
0.48744312921138544 0.21156858338373752 0.028703042141728474
0.4782555612437136 0.2481759809447226 0.0039008066961656596
0.48637802628937266 0.17809795747589874 -0.12628761176179637
0.5270551862176802 0.26341106334319875 0.02007296571821371
0.5171442342886081 0.18915136615130734 -0.04901042909384046
0.4911099150590701 0.188540836329409 -0.10400888209068171
0.44941096193177543 0.1681658839978013 -0.03838077075408819
0.5461181821893604 0.24597238292220425 -0.016893536043198765
0.4945091003674804 0.1755429707848748 -0.09512565476606483
0.5788162638029064 0.24613748071095642 -0.09817940732095565
0.5015309379681412 0.17614290730560356 -0.07253812996560782
0.44698503459905226 0.17120271632035156 -0.05407408987241524
0.4795023992169405 0.14408877494666683 -0.13920999563309522
0.49495844592273386 0.20700767974479106 -0.052577682834083816
0.35168431390630417 0.16891010877650103 -0.03045118108386191
0.48264025561297785 0.18925012497302873 -0.04603309836623737
0.46850912207627005 0.1713015763750434 -0.10563407041682638
0.35427275880303455 0.012719946371120727 -0.12743909117408236
0.5532431354823046 0.18216879761413907 -0.09725361441851987
0.468049916518666 0.18600468866588926 -0.06718282656632368
0.3611111711426105 0.124598659917325 -0.11434784147527921
0.39341291868387884 0.19596099944344303 -0.3199736459143594
0.4767903827727906 0.1887159783836978 -0.05010479334599438
0.520919056964928 0.17571031341708476 -0.11451568530611667
0.5555713279020722 0.17213126344128682 -0.08200656468578416
0.47656522469601725 0.18301664955690455 -0.04009659445640068
0.490636487829633 0.1792555651869634 -0.020974104986535735
0.4909495216461863 0.10505869149517366 -0.08726715340557689
0.4925586393193413 0.18405041084847085 -0.06566603967610263
0.4982068936296713 0.21676270143760235 0.0008210777670853986
0.4944065786107785 0.2531907424588269 -0.06990450094306766
0.625310937963377 0.160285396786918 -0.08006274910604816
0.45277429310667117 0.17762477759035278 -0.0019235621205382358
0.5912459930473943 0.23795429098746013 -0.017591916950564723
0.49214328475132163 0.16687565503612234 -0.08277482998070695
0.47259034854323545 0.19677509497526557 -0.09685929638250457
0.4374525327469314 0.13237837849527523 -0.1230023823257369
0.5033274747125347 0.18815361138987896 -0.06191318551177005
0.5144564678171974 0.1727008326879087 -0.04504991988102347
0.5560921719171574 0.2202179454891251 -0.11648805037143006
-0.23119261621214093 0.1742683344431839 0.19338100065721164
0.49972265431108553 0.21390018599196026 -0.08627184989384773
0.5439879775221641 0.21057826385015233 -0.05176961653462797
0.4617462722991803 0.2075899719639409 -0.051914473596468724
0.49091957715998547 0.2087727057384683 -0.014782915448250833
0.5205811738671287 0.24148635142066155 -0.034152179129421256
0.5462360713110286 -0.07349749876577505 -0.22221640190895187
0.5707522202142172 0.12959848958340103 -0.12830708115171774
0.4846620647889637 0.126446693217531 -0.03993710842230769
0.5233871131529213 0.19952164670078787 -0.05567504213192365
0.4988103211930479 0.21492148199813244 -0.046246329626910665
0.5348877075415572 0.22789314554174211 -0.0030820096564809774
0.414502272478515 0.08362262680651611 -0.10723108292107497
0.4872272608265007 0.18811801833763298 -0.06351311064003085
0.5005056087982922 0.21433183819428336 -0.01771431976183635
0.4499828955972305 0.2253353916716776 -0.08992274056106453
0.4547642476059366 0.17024048825936688 -0.07081295190509707
0.505317549197116 0.1994724686547329 -0.051166385673724335
0.49106019433885706 0.10992832320840762 -0.08155636901823016
0.4851251041292386 0.1362762151903496 -0.11466734669525636
0.5224706112602604 0.17394594185728351 -0.09186364495573685
0.5408314468524651 0.21077912051404724 -0.07096075525697643
0.5875782126739466 0.195323342553678 -0.08903796849860157
0.571506544731406 0.2854764790913009 0.015871795554119217
0.4924522005070031 0.20354368560985847 -0.02259298610279359
0.46879834461103087 0.2833387328418979 -0.09112645972911082
0.4277380252041496 0.1890925490085067 -0.08889926139261206
0.5038511598936708 0.17200614394056402 -0.0958785617855824
0.4837084217314782 0.06656830724770657 -0.022860919268794078
0.4593608174154866 0.14153629338260032 -0.10812008876658297
0.5595593736871649 0.25288047493623367 -0.03684552676101305
0.5421570965937832 0.2721576202484215 0.0087257376069374
0.45616839855945557 0.1827054152705614 -0.08646572554846443
0.5975489531925433 0.18499357904970282 -0.05617626556188782
0.49901601733232326 0.0652800582244879 -0.15301670391818334
0.5520228674086667 0.23675075246859478 -0.06624215976060555
0.4228225478485399 0.21798134437040062 -0.0338251163483676
1.6713185947623685 0.1740262944622657 0.31024378210651093
0.6037191535527597 0.25386842007506516 -0.22619541017922984
0.5195797122940888 0.19322590585659327 -0.05493705087837952
0.44410876922188436 0.19931656721780655 -0.1906811042570098
0.39822662703896583 0.39650078873670225 0.05965465362157829
0.5076372513462104 0.21657961434628703 -0.018652809727370823
0.5210306117077437 0.25087937870704025 -0.032248652597871796
0.5319808711985843 0.23205037728612865 -0.017019452101095567
0.3605371889856457 0.18722680356719934 -0.09557251584168114
0.6480361936631454 0.30471873524949444 -0.09536492939830055
0.5219162183498867 0.16612979120226612 -0.013955377887668874
0.5809372649347893 0.24403133308807412 -0.042667535198930295
0.4924331192449358 0.24866226502443567 0.021988371242912308
0.54151093652969 0.2334604623847838 -0.053853828579235596
0.4502303062855333 0.21210439723276409 -0.0020873963687364494
0.5159411834465004 0.23269650357877936 0.0024318147112438737
0.4779425453351962 0.17006978136751627 -0.09353574124972397
0.49742816690022096 0.25481641947548894 0.000706115100712168
0.47896500170661227 0.269336467509504 -0.027460056178853165
0.6515408397761178 0.13688139307740244 -0.1195249376296772
0.497107472412452 0.2199637499529672 0.009386698997701615
0.5046226038744948 0.21728336825128736 -0.04486421426886977
0.5007227942193282 0.19372030553580544 -0.06604846512151141
0.5579737509697367 0.2432786832533793 -0.05595828832947802
0.46446982371566037 0.16308366508462768 -0.030386627512967834
0.5160777293111778 0.19759177468266387 -0.03679794406127712
0.7030777942796078 -0.12276529459678898 -0.6627136877269919
0.5102407384261909 0.18512165194937324 -0.055396741809360606
0.5117798247107146 0.17371608917929393 -0.09369305154196184
0.5144508172608795 0.14167727054076806 -0.07669553170279642
0.5188693757324359 0.1834803769414748 -0.06832531368222305
0.4588416299154261 0.22685482255602096 -0.012085073760843557
0.5316583201447571 0.21053298564305578 -0.06398022969523254
0.5618850113568925 0.18280023735778173 -0.08666635000166423
0.5046718672036548 0.2481043233417779 -0.0007786717719682201
0.517141517487488 0.16154926624560062 -0.12281928660036101
0.5537624026001566 0.22810041814651072 -0.030015838411671325
0.34354450327218444 0.027299350658836374 -0.23832694437419377
0.44110149554383327 0.2100213546288927 -0.0156546005889453
0.4927981482961883 0.2627288279319373 0.0024673295254018512
0.43083472331285577 0.18372438463168805 -0.06306480325201846
0.49402928226621157 0.1915768323096927 -0.05982054679788007
0.5184765211831461 0.22602267621164174 -0.0032221863205847967
0.4937317812187274 0.18960837781951057 -0.07707560153673398
0.48570194077778694 0.18998067954130704 -0.07385137947780152
0.4913429847549935 0.2010705157353243 -0.06464233098310501
0.5092085666887698 0.15733490807699013 -0.0845940112194512
0.5276314624707794 0.20155423639401704 -0.046075070830738696
0.6051856551322174 0.21523523452843563 -0.050870106235578305
0.536934604731286 0.23889947181197613 -0.04273163787738099
0.43468180137969625 0.14002573672728147 -0.08265070573148137
0.49101166854099176 0.15972040372436425 0.03139044886451359
0.501275692571383 0.16901928213087558 -0.07931613711652119
0.46304098453117604 0.18641149218058217 -0.056402766490847966
0.48734163360400373 0.18057525246763362 -0.055964112962470836
0.4534360540835962 0.18348257909988774 -0.036809786491659224
0.4850971509712565 0.19430818905232172 -0.0466087536540698
0.5061965078661643 0.32607957133734544 0.10995754537289315
0.5019600198157406 0.18264887510024153 -0.09138367742072262
0.5025568477140183 0.2505485624440382 0.022788913006365874
0.5466908232859282 0.24507286379038362 -0.03722055349615516
0.4724533243468443 0.18536873919968855 -0.06702617976897329
0.488992470838312 0.1800248927124244 -0.06303457224740328
0.47767107149221033 0.1951523811529512 -0.0543708654006565
0.5132086747289861 0.1669927627806942 -0.09241382489767602
0.2938703488740799 0.20556059759101686 -0.10440995625657479
0.5442733546091176 0.22019199034640735 -0.059804278457392
0.5059531343153196 0.19501273012789966 -0.10015402596570766
0.567625906516696 0.1848783796211535 -0.07713269507630116
0.5232318971699073 0.19874064702865724 -0.0773530571466523
0.5080375424117847 0.22055408758163253 -0.015479429411485057
0.47852966528796514 0.2162955594460243 -0.033791973023141963
0.4103653293872327 0.12288917790056075 -0.08865673688917752
0.54827077633405 0.1946366042202783 -0.08255746500492478
0.48277958995196 0.19281924438229225 -0.0389864395547761
0.48883267151094856 0.1806337203502011 -0.027757117229185724
0.5198086401316715 0.143132163786845 -0.153316388670504
0.4047874271556111 0.14289586695696244 0.31964449794287475
0.47780234489806617 0.1791453985571536 -0.020201215653116833
0.5630759560940533 0.21432982447237237 -0.21061865291302695
0.4733819154176615 0.1453583897875319 -0.14899863938518365
0.48197762791802745 0.18002670765747553 -0.07653856174519547
0.45818067376684724 0.18870241735464788 0.01195565837332424
0.6109792221321015 0.2570867819479048 0.01838819943401404
0.3944974691715828 0.21274920554857601 -0.0684905449193991
0.5159577257927168 0.20260284892205505 -0.06703858565245469
0.5304085460018371 0.15448541653148595 -0.06838847150510219
0.5214355822884897 0.13918032209906528 -0.11556349726529902
0.5698622943921947 0.26617137987446426 -0.03253323088296156
0.4864820351028385 0.19650430767170235 0.0011929358242781518
0.48134551414739235 0.16473715611246575 -0.044634350687530855
0.4940167816690746 0.20627454308505833 -0.04727603989971385
0.45841096454698516 0.23068992512901332 0.029647818309300078
0.4969472281200069 0.17776198189545767 -0.10422302659715399
0.5036544742327465 0.20577296963656977 -0.03222470464126559
0.4608240149953531 0.133434782254227 -0.09323362866959428
0.31111571791824133 0.20076218972049276 -0.11473250518201894
0.4983938330176869 0.19113002799765866 -0.05816983676123755
0.4958555613338973 0.19921356379063582 -0.04527389001950155
0.5245446556177598 0.21670945164923694 -0.03697039898425203
0.5237729568672762 0.2229168000750974 -0.016713888110018615
0.46593713505053813 0.18859364517805943 -0.08069910937663849
0.4874913662075073 0.18174659385547898 -0.05346614942598649
0.5775531750894203 0.25739906073104635 -0.05919637172047487
0.5013897002928047 0.16939435027424565 -0.08516168914282218
0.5319169772280787 0.209089073937605 -0.049073116936085626
0.21137842314443844 0.09217615053810846 -0.4403458949855974
0.48072421798808307 0.16043434902020692 -0.0842399567585943
0.5076499221947586 0.2141282101212596 -0.04452270031384842
0.4546189317359506 0.11959585676588347 -0.1203863096308595
0.5269064825782266 0.14037977443604177 -0.12609869131972573
0.45135863376501106 0.16640451418399493 -0.055217097941323345
0.48138671251300025 0.17642926995313246 -0.054176501170672964
0.503008211048737 0.24777348101298458 -0.005378865930936172
0.07677192297184376 0.9228878610755658 0.6397875551223393
0.503318229186192 0.2042752454847232 -0.028054013339840367
0.5106091186655703 0.21839946104384467 -0.12634864072973073
0.5220366410518693 0.20255736767437327 -0.05483828469576224
0.461203178417648 0.19217346757952214 -0.04139429590505017
1.052696413609013 0.11267301631129101 -0.36770722684227053
0.5227775693491736 0.34804387980990725 0.2341279354916992
0.4643491433917859 0.16735166762435938 -0.10566148329790792
-0.1670703009187946 0.6434861946106594 -0.7907713561371565
0.49207315579337774 0.18502898884409547 -0.07904527939827233
0.4865010378819221 0.1824951709376137 -0.0577917572682054
0.5588921823618449 0.17847348007353503 -0.12042519332035795
0.47568710292881633 0.1344747313320056 -0.053144058828365814
0.4613938359272822 0.1895027249011747 -0.0755110520060498
0.5839708447426801 0.25114359670470776 -0.04430648563617012
0.5742222165811626 0.21566771401535334 -0.029589406306115507
0.4806313300660321 0.1724408948963969 -0.10054723467575855
0.5490322205400275 0.2531929535204398 -0.0018176076493574556
0.5141950116916405 0.18220680300004233 -0.06720201334488252
0.538419710161179 0.12485389060705643 -0.009874656749275346
0.44676206383111605 0.16376671922773767 -0.08254903924049017
0.49790925765411487 0.20896494174857594 -0.09474950895399559
0.5164712391868704 0.19540617848599595 -0.10355604507596183
0.5378325130305512 0.2166120875517379 -0.05901799064855595
0.5074908030359779 0.20274966150435603 -0.06778584446604441
0.5493595503125448 0.22657090067335162 0.03284497602797387
0.5097457477267113 0.20640824574579142 -0.09383025602107864
0.5120163356413627 0.19236436375676647 -0.08472667771822273
0.40576745503804545 0.19713538163762223 0.011666834610068122
0.5281623812572747 0.11534737963037855 -0.16519176024345938
0.4913463337318831 0.15923118337323672 -0.0692784466960461
0.5133364086994874 0.14469106311479152 -0.11492971041994338
0.5336774799578023 0.22908070963845262 -0.06223453530887468
0.4681345304456386 0.13385193968457543 -0.12137991126625991
0.5053833428990515 0.2162779038159215 -0.0317874078353384
0.555578255616993 0.25156057190389447 -0.018980482837861246
0.5205085068207751 0.19140011805538393 -0.034569961030058494
0.4024655990249215 0.17907424535880523 0.07914341934508684
0.6202744506786502 0.414914077315359 0.6658393783479113
0.6114604624477522 0.25574191035630633 -0.02354425412784167
0.5024121439848841 0.19323697938594364 -0.04473979633633007
0.5422522595616073 0.1818268742368474 -0.08922877193639067
0.47304534009514043 0.19522497428680197 -0.04907620176007299
0.4783730934861552 0.22490378002345324 -0.09903700078724853
0.5272951721604926 0.19027672887301605 -0.05757050075283132
0.5589808263030847 0.2517107918824877 -0.07397505044779962
0.5281880882431551 0.20407672971685997 -0.07611343300453655
0.42927729751048105 0.2173747029026174 0.023006061768924724
0.3340294451368351 0.22965880978620135 -0.3296997503296666
0.44345372172251984 0.05578666297989798 -0.08889435727550676
0.43565860311728954 0.1754061999089771 -0.03989896770458756
0.512984036230236 0.20562841255068065 -0.10756708792632708
0.4402743459840224 0.2672343132555568 -0.008691989844322734
0.5154186449800164 0.22510334514322494 -0.0019576351475905085
0.596176723933425 0.2776464080731955 -0.04747747887105902
0.370413581015967 0.11076794723929595 -0.025764759030323603
0.5283949428279868 0.21013398209773015 -0.06681152608268803
0.5140434602092228 0.18676324630121144 -0.07159100416131992
0.5045917382498288 0.22527549677948855 -0.013168752588143207
0.47887311825371626 0.1701700272842004 -0.09004866185406968
0.4768548583535477 0.14367108843882193 -0.1584200547098078
0.5167935448127423 0.2079611877870775 -0.06087287651749307
0.4954094668338911 0.14798349885688822 -0.07709386224181003
0.5068160263127197 0.1484480127800225 -0.15858350630477958
0.5498042850822031 0.2688270299406099 -0.12260567798902855
0.44481357011373746 0.13512593193900102 -0.1246698994275306
0.5393455945460772 0.19983635858409343 -0.05805722183235673
0.48508869390354903 0.21096638603890483 -0.02770728246380827
0.5527487328591718 0.20366652598821133 -0.07212125976107586
0.46254439399803005 0.22627343801309507 -0.02069544329179962
0.5701455786278871 0.26682739073243056 -0.05636038972338042
0.5484411979094261 0.19599398136534774 -0.08002287318166168
0.5016915266326691 0.13833236072412092 -0.09168495399215715
0.5960765696792834 0.1765874431048644 -0.014800890960088964
0.5430795762025582 0.2074170595113003 -0.12500989380201588
0.41410197398175796 0.14759202612981426 -0.07349153058675029
0.3610944456873284 0.1560825612021972 0.048210571318605844
0.5538671258428707 0.07786132239036192 -0.16691052646265803
0.3702626398290363 0.2420696287292401 0.018261957099497295
0.4691146792969221 0.1780643725203106 -0.10193050821538918
0.509663111620128 0.20016414452921083 -0.0559500120840255
0.6121563077748959 0.20112178092342958 -0.13453181014827464
0.5451881406500121 0.21254780894841474 -0.06098142785455707
0.4368385901423437 0.19021721319626295 -0.034841167888643554
0.4980208220160307 0.2234259490736008 0.03530532758824734
0.5072994454297941 0.17532605675810942 -0.1133751375679708
0.5033164742049081 0.19140674934985213 -0.07065206226070586
0.546369490924306 0.2790431857421254 0.03433576901133506
0.5198785626469231 0.22964044268474026 -0.0278296676988532
0.5112683731387193 0.18604864862123804 -0.1914867530506683
0.5096770207678532 0.22070942747657796 -0.00871796918559653
0.4682657484863313 0.18633518903527602 -0.015975567105243726
0.47835986456999535 0.20972658403712785 -0.03128898490166421
0.5018065921217669 0.12689957120194606 -0.10501525047202165
0.4686736616565099 0.18017342265147818 -0.04295470478319885
0.5711138955754222 0.33305339349803376 0.01879459409832407
0.46982796122247805 0.17937298679802893 -0.06075715094998202
0.5815145762324221 0.2331486759234167 -0.04304464014740006
0.5310227393948139 0.16629424055034292 -0.052718478615048525
0.5121555927689343 0.18313290673830807 -0.05566000660518
0.4849995660140536 0.16405210787347357 -0.10260892590838466
0.5294821760374191 0.2932716163520581 0.028883014057697665
0.5060892754580095 0.1818829753643456 -0.07620162124160856
0.5438745135698326 0.23261159513027962 -0.04886390715989819
0.4668352992426321 0.1683380623425137 -0.07383387848537382
0.33659454968660896 0.1963202198483316 -0.22706424666726832
0.4498791917447278 0.19095642504214538 -0.05646137477580737
0.4532989752547252 0.17795251982994387 -0.047619006739523684
0.4917117861636626 0.16868084642663916 -0.08638678001511835
0.5469592850707841 0.21624420819891554 -0.03058156630767428
0.4611713894605174 0.20577385074034282 -0.058752940209870985
0.48894284079709394 0.22412474392942272 0.01255873867238222
0.5920562019291822 0.20207176733967458 -0.10288515878045246
0.3513299769538776 0.1708266218713419 -0.0347482219289077
0.5208880406082272 0.1829808292542623 -0.0867599854955472
0.47942681466962256 0.22810296064798763 -0.06079324724733226
0.46083840789759734 0.08637668171698465 -0.046406864351681065
0.6096611643561687 0.24828686281703938 -0.09914278740507143
0.5304819054260008 0.17802218521686086 -0.11772076035427403
0.5642508456458728 0.22361476024997273 -0.07172233142316031
0.5045450936922578 0.17707016097008932 -0.11391578136336022
0.6647980423383046 0.18065003533126855 0.1468501164946474
0.5526335266092417 0.22417247716478528 -0.07989984133828898
0.5121934948161311 0.2093448742593722 -0.016339090198215445
0.4581714742300136 0.20213073783533275 0.027373694859477382
0.49825997333985583 0.17836271740767984 0.008198734916902595
0.4746043619938689 0.22137089016868572 -0.053829663738042655
0.5545592309258041 0.25414027017143326 0.05580184552647438
0.5677594944914688 0.24952525800129877 -0.026742159442250113
0.6131946819183298 0.2618832218852276 -0.011464471083087346
0.5441003831811742 0.20837474611548146 -0.08362642871051662
0.4538215153168039 0.14548001494395635 -0.11004408235797314
0.5148603647988637 0.23744483188116305 -0.05524643584570299
0.48506542042281353 0.1963677879464285 -0.05519377203353315
0.41446184279868703 0.1475286856987168 -0.025454049470496898
0.48808533821848243 0.2044762357304819 -0.04241157321828837
0.5356669177573679 0.2653725913918379 0.09068496335559928
0.5558776475676694 0.17045000313461856 0.20168257475563678
0.4960696746977362 0.17865812414331117 -0.060917740659888864
0.4085101883850655 0.19343628286185321 0.003094836354250674
0.4661476834932614 0.20358652490679674 -0.031521982099150136
0.46253219072161755 0.1783479979195306 -0.028338208271378562
0.4953273031832879 0.2515100268215775 0.03661398369450808
0.46151119531947415 0.13764536016489615 -0.1299260931558308
0.5686251984575676 0.21355558901416316 -0.09721848533266098
0.44452974289986 0.17339176129598854 -0.04593733103419595
0.48974540580334747 0.25212741936566374 -0.055985959099743354
0.5557098855580307 0.20508711884326658 -0.07657994362378417
0.5138909429732195 0.19593511299251531 -0.05382612815753873
0.5105713946371253 0.1727227826560096 -0.12568867682236373
0.5503342516409617 0.2254077172017901 -0.042887430181508535
0.5643132534078461 0.2313769750846575 -0.025696701805330235
0.4709724644792601 0.2212238780355591 -0.03827126820158355
0.5551214882412552 0.30999917593928217 -0.013550560329278483
0.538118487194069 0.19155146677945822 -0.11989837750269317
0.5340005677163759 0.1986668667106244 -0.06112494462485074
0.4035642355950415 0.16924629282529224 -0.06046049028446987
0.4407163682608797 0.15436207961398907 -0.1463252074131418
0.5757921700066362 0.21869526713899745 -0.07629463876082809
0.5093171514152175 0.19506306914580307 -0.046522700884111146
0.5130886677796695 0.1963763304987367 -0.04156390534778609
0.4207988072130462 0.14419572018354643 0.20209169986640063
0.571741067684826 0.2663790174894842 0.0013353509552587184
0.47727426230933645 0.1293333956601117 -0.13128472966265292
0.3698335792605576 0.09076106867395595 -0.11851079703563983
0.44376409404999606 0.16310691661112742 -0.09452252332128808
0.48925882849759716 0.24240882351145387 -0.04779714937970425
0.5055687555913124 0.17295527986379966 -0.07962285950324599
0.4988153098749706 0.2005812860328433 -0.05557761215561641
0.4435551334343728 0.16270299025489976 -0.159094376937162
0.550808464397889 0.26910207264279506 -0.03474822088338669
0.49387850704901837 0.17936658431339936 -0.08810182291375668
0.2879644713463563 0.5289014259778781 -0.13062013954545648
0.4689841533714514 0.1526100615264454 -0.05050177160212854
0.6012757777493789 0.17927108002822933 -0.11791450100812995
0.564812557149537 0.23380082064142016 -0.09840838846986344
0.5204495614287339 0.225129811385969 -0.057985245599695645
0.5257329728287488 0.20646202786102208 -0.07852383355293568
0.4910804767712307 0.19430917747968124 -0.05746666855414162
0.6531593554308444 0.22305387529846143 -0.05041554757073641
0.6234763546052164 0.23775096503925397 -0.09372674438058937
0.5134702509050584 0.24097253369794203 -0.07550406043273483
0.504370223707113 0.19733261385006529 -0.05853783054354267
0.35902916172683774 0.03610271532811282 0.08188319619563345
0.49572957186562405 0.17893681757772129 -0.051167932106295666
0.4877984390472676 0.19351862887990023 -0.05738896662978732
0.390704944295166 0.1658257303166124 0.032450060427919425
0.4244984214222143 0.17463649272119142 -0.07576529247445762
0.4675161774280383 0.15861981390852975 -0.13135293947050286
0.3930851392235155 0.12474611864004714 -0.1633664433042128
0.4928169334705501 0.17448899192601175 -0.05966635238580409
0.4910743618411715 0.15552644853597997 -0.043323369094338204
0.44996102470135213 0.20382114577128618 -0.05414973468147366
0.41607915356651404 0.1697416353630672 -0.06319529300589011
0.5077575201139126 0.21986974517363933 0.025328788670663016
0.6955116009035436 0.3201426651817627 0.42720552549312174
0.56899587689459 0.2479356408417317 -0.03884726571008912
0.5789260284013267 0.21162800631634582 -0.08874491242282545
0.4650579838313007 0.1764153805498836 -0.0573605886458779
0.48133667007276415 0.16686559373600574 -0.08581126465983857
0.31088392428739553 0.3594678945677572 0.2565482557764227
0.5129037229208393 0.190965127831916 -0.056628972270729605
0.45541741052589657 0.21170329659136655 -0.0027666626625517665
0.5264288874776781 0.23502179633840115 -0.03884833329041726
0.4495724955311715 0.1984660912501539 0.03122215707693954
0.518138129802935 0.42892445233539434 -0.08937365300208455
0.6037947233183019 0.33019579363219975 -0.11392201783041855
0.41991761282996265 0.156438234431846 -0.05273314173491883
0.5348733028409498 0.2122854313209075 -0.057769040730505594
0.47460337696001886 0.14347050796780536 -0.0766015673305418
0.4822456206539414 0.20146157241248375 -0.07153938708114538
0.571919000359955 0.21049042419409147 -0.08054045562400347
0.5435970247745701 0.18346930579866694 -0.11137083897051525
0.5180759432041668 0.22258646522234926 -0.03633504351086003
0.5632783896584215 0.24456969506145754 -0.002335794936300317
0.49088219000419997 0.1580838215252527 -0.12232767587795479
0.5077834044134164 0.1870507718129062 -0.08884816001486229
0.4943348844032158 0.17732331313088423 -0.06647546154971451
0.4902564831646572 0.11542296106192396 0.044335446660142
0.5541123465595774 0.2098389157698648 -0.03246102807480611
0.4991206896954168 0.24878463168545295 0.02929369096288781
0.5026494249797366 0.1793941117712592 -0.08317660345859679
0.5459314763047161 0.191192644128094 -0.07180900695212244
0.43160105047046216 0.18426474072147414 -0.04861292142878426
0.5317058157263972 0.17184057196510594 -0.09765998919296237
0.35667677546125276 0.19177759572863806 -0.0746888780515178
0.5289855183282555 0.21151568492953743 -0.01628716066788627
0.5128577718778473 0.1637266056448965 -0.1165452818264896
0.5258815804574084 0.1945214965627713 -0.08090219566872747
0.47160763057523525 0.17844288382580942 -0.00018669975362684
1.0199653936965518 0.02662920691342663 -0.07573436828867841
0.4964066171226875 0.20380567232007252 -0.16375612469258272
0.4658224667111739 0.23315786623619772 0.03982940832179338
0.4667738112793103 0.17799252608546112 -0.13565708585603886
0.45787953450823693 0.19581303901406955 -0.05184810625934233
0.5151592185675185 0.3024391914407545 -0.02463918257829789
0.5222884623947692 0.20113010577765067 -0.06783994415955874
0.42220224388563565 0.17151948779621762 -0.008130043068661053
0.5307217172407803 0.21126970089329689 -0.03498548951714042
0.48590596440361367 0.1966585416253679 -0.06885810996465125
0.4593651771994729 0.14785721463465507 -0.04653163935316229
0.4954176045052634 0.1869740174892911 -0.08653671044201872
0.5875449216275257 0.2212276633326411 -0.06569679229862402
0.44720447036452526 0.17316380131995857 -0.04007287607035437
0.5007345269585386 0.22990980262835592 -0.033390628985969784
0.49747604067293594 0.2402623821162706 0.03702294147595353
0.5136274051864405 0.19181078028930187 -0.07513597891815493
0.5007495849030335 0.08751164427295066 -0.17018128476107108
0.5503827684914171 0.21229546051992543 -0.1964269463682342
0.39770842835199005 0.24806943702645867 -0.04815694392513592
0.4815738750445888 0.16316651459214881 -0.08920997414929843
0.5069065583321617 0.19316349897493978 -0.043324427348096606
0.487837513316137 0.20623291696770707 -0.07331639906445275
0.5327028976259243 0.1419067633710256 -0.17534638477940234
0.4974097234266708 0.18236558193216013 -0.047643563236164255
0.4703804970522327 0.12868161440823656 -0.0950346959274384
0.502145711841095 0.17357033826888824 -0.08806052530087527
0.5196538872749272 0.1722568372001092 -0.170828768387139
0.5410248445121226 0.1956868821867488 -0.07321552158816758
0.48458707198994944 0.20005564439229317 -0.048261018760243246
0.4264448096701585 0.18536536724572272 -0.05908480946789041
0.5403550240501858 0.23663806322862513 -0.04599817867315892
0.5328354392816976 0.20961365782034136 -0.035115458890956575
0.48690248821075954 0.2377287870626219 -0.04618760145019962
0.4780856300443048 0.17514565616372124 0.017642176036105184
0.4833872328337634 0.16485968787682737 -0.1106848477514859
0.5138500830460657 0.2192482911076752 -0.003825063522953087
0.4526795363125018 0.2058449932879114 -0.015634373829868764
0.3873927512548079 0.17499014474041985 0.017014971605661344
0.7470951352122626 -0.2654569096436319 -0.27956078790722927
0.4987093672349374 0.2571771592880907 0.023629616895036065
0.48856055544362675 0.21977674455638407 0.0017679368140335328
0.42709550015642606 0.1597906774111948 -0.08263034004971814
0.5265392337457513 0.2059981855099977 -0.03147559355737428
0.5237512210868829 0.23802713300537448 -0.044794618738293934
0.42325555215685995 0.11508574438681762 0.018182790351374933
0.39654221370626885 0.21076245030792506 0.21556349079160952
0.4196682823493205 0.16294377321571574 -0.05202649828942185
0.5028383750024688 0.22978956541712137 -0.03126896610552876
0.47077418729489295 0.2360340588055294 0.046214794702507334
0.4709289829741721 0.2135710175355996 -0.05437006645807685
0.5013513231669435 0.1894259881107132 -0.05558790239419409
0.21703152764544598 -0.13451188990340768 0.24145083665325728
0.49054989879185484 0.21507383118051848 -0.047108728764754915
0.5088782471815705 0.21849862387513497 -0.053395646331367175
0.49812970772899234 0.3211767234576257 0.0774841752316604
0.47601600154514756 0.18769227482594886 -0.0964312075245175
0.5454824019857227 0.24047910082131807 -0.0785199359035289
0.4995662521594255 0.22543799015076615 -0.02477610642745276
0.5202886075563811 0.21605443174209427 -0.02540164796974409
0.5009687372389067 0.24948826356032328 -0.023675185474502314
0.508547167073047 0.2034793151512133 -0.04134256611727949
0.5173473635765617 0.24952790253362878 -0.0019469186961202922
0.5787906919952235 0.23336712244476132 -0.052867227191256916
0.4477120426054455 0.1485994999674034 -0.05291993816798879
0.517860040071227 0.1846288401730618 -0.08115041873629991
0.4854265730802041 0.21823893853834875 0.01263372211906244
0.4189610304381688 0.20515379957365099 -0.023615912610765122
0.4827206637649226 0.1811627981263655 -0.07685579848237012
0.5895185153848814 0.23013172050239916 -0.09379309700126726
0.5024997625835539 0.17723990489399455 -0.0798191919519411
0.48213810409701807 0.16206412635320078 -0.10570693160170208
0.512956082366884 0.22086574243877521 -0.023670611031832323
0.5079932613317197 0.27453745021563236 -0.056408061152779965
0.5179208819615155 0.20625470934993473 -0.06042401682231002
0.4670840767494582 0.17338376898737806 -0.019026895705806623
0.4233602470812059 0.18305455802359916 0.008974777461872918
0.5170447946026542 0.15927518923264472 -0.09878673061439258
0.5098212010019125 0.20651617722924698 -0.053533042273471665
0.3977572967613554 0.18211359128392246 -0.03677247333361322
0.49888856843074336 0.1914797002675357 -0.06263589963475624
0.46111320232469666 0.13659491423103987 -0.08929919393651176
0.45954108522862214 0.1828226277914098 -0.04926441869936582
0.4208231491349892 0.16788166511851443 -0.022923053500889523
0.5087904902034808 0.2039042883455977 -0.050875305422991346
0.7861483797822046 0.19540093888900856 0.4788259516328992
0.5551844351909523 0.12917996685565925 -0.051143613464233795
0.44192239595176375 0.15674842595888094 -0.10728220486430473
0.4913613562908523 0.24397067105010706 0.017015927325616076
0.5164888615281313 0.15988262435963918 -0.15758539441938524
0.4292297239079659 0.17564879082745222 -0.040116303531874564
0.5273416258691839 0.18929576943062898 -0.06779834164332499
0.4984498797008996 0.13485016707939224 -0.07170019316768617
0.41987949657792 0.1966338928430531 0.025163284322644586
0.840435283217559 0.09415449736030723 -0.15259267778229457
0.48113397759438215 0.20778140412218704 -0.020897774331430696
0.45672434915906024 0.14910869442132935 -0.047230515963406106
0.6100316750391954 0.2917786239324016 0.11724858908569047
0.4724251637310317 0.1870018526880841 -0.07501507819947051
0.466329175036023 0.1744400382368383 -0.048681675314384165
0.7635171497233131 0.5009179800021144 -0.0725360552233667
0.5246718186317025 0.2649875872315306 0.006482377884367452
0.5978820238747744 0.21357758496662882 0.046863975237357636
0.579300838417538 0.1976908345868793 -0.031491025463111555
0.523819046769674 0.23049520841345839 0.01338522813233567
0.43076689592528794 0.1779128265767156 0.021795492744573153
0.5013371232119965 0.19042324141619815 -0.07318190827638205
0.5158413850833199 0.18752247003865818 -0.09911703186729426
0.5613363660201429 0.15631246487758688 -0.14218468327874234
0.5273021663044091 0.19339999224308713 -0.017780270304882606
0.4792961135440237 0.23063969002316753 -0.06716542136692283
0.5079592843791971 0.056086872960833034 -0.09176531774821228
0.45037062953585405 0.20212135328235092 0.03693473313866491
0.5047394258519233 0.1506139238065316 -0.11411941983215002
0.5440076600814336 0.237411179933531 0.026600418910305734
0.47927882539491407 0.20596285362353228 -0.06567298086353901
0.522030515960779 0.1750650598325194 -0.07074681707644004
0.43390802756475466 0.1871904121482828 -0.04534805700431832
0.38448512232805854 0.20111079981670343 -0.07432314719018507
0.53393022649459 0.24737790589944098 -0.02704181734279132
0.47337833907150184 0.13444413825206425 -0.11205469253627598
0.48504214693645054 0.16487077023944607 -0.07158533128935574
0.5682220854370996 0.2221418081838351 -0.00474313850313024
0.5650515046814064 0.10838031282072791 -0.15160012098033349
0.577196614366926 0.20180720871816504 -0.017562340188447934
0.49674807352381833 0.17757161337753757 -0.13790350867290613
0.5140372033570912 0.1726168363482259 -0.09315630042772227
0.5332454955077282 0.22669761021658985 -0.0209994807256777
0.5237882433667664 0.14869699929532487 -0.1276094891151729
0.53122320172983 0.13337682357978053 -0.04028912132601192
0.4917634636657908 0.1790613036560842 -0.06989268829170214
