# .PCD v0.7 - Point Cloud Data file format
VERSION .7
FIELDS x y z
SIZE 4 4 4 
TYPE F F F 
COUNT 1 1 1 
WIDTH 799
HEIGHT 1 
VIEWPOINT 0 0 0 1 0 0 0 
POINTS 799
DATA ascii 
0.4658802262645736 0.20445375343985006 -0.09405724717638009
0.44800322829374295 0.10724101290298904 -0.09057193870323488
1.2001597045288577 0.22428556559927415 -0.2458724765945135
0.5883510079832774 0.2066995969722143 -0.005444363721352374
0.45106460272521076 0.29586297356493674 -0.23554838700361813
0.5146004463728673 0.17778456521196517 -0.05966794688131927
0.5621274958814695 0.2542821498022221 0.00019162633617497704
0.3606033787879994 0.14445937729098546 -0.09098602651991428
0.48488392551794846 0.2024851953374167 -0.14056111986795372
0.4933657109498881 0.1795075007616731 -0.06571323698881315
0.5037469118638 0.17811398229319764 -0.10356470523294092
0.6322570048695013 0.2753304752291683 -0.12160875665821891
0.497795113101148 0.21606885387313923 -0.029991215016636374
0.5431817075354957 0.27650153197542693 0.05930953995559207
0.5098515534929504 0.19575172941644325 -0.05763579930200535
0.5501297250397386 0.15073854125719777 -0.08291899930171098
0.5103162620191029 0.20562214549323699 -0.059954178352583654
0.5170302820124277 0.17231482994385772 -0.11252511038962609
0.5470426972594851 0.23974681440932955 -0.08653843189979682
0.5954816014228754 0.20336678392791896 -0.08008290015671093
0.5013518230332465 0.17841644018908198 -0.08791482642024562
0.5148353093084097 0.1864285117854081 -0.06158238862965959
0.5098881882364026 0.22429580414262773 -0.042071326666459186
0.332743412968199 0.3938729038422082 -0.11978447712223783
0.43357604937139627 0.17574353530406484 -0.07702235783973777
0.573881712605953 0.2694108010301761 0.02902444127417425
0.5194320235175951 0.19977664610235024 -0.20863924844742598
0.5166820484003836 0.18454645227225797 -0.07837549624414919
0.5339089847693401 0.24528175223161952 -0.006592920526557577
0.4294778779056685 0.10938990504587309 -0.08025125968197244
0.5180796521796367 0.21047121311076467 -0.05509819193579801
0.5033326711775601 0.21446315217505685 -0.038354877846984436
0.6134690754609551 0.19266130493286937 -0.16862297757064937
0.5288280737304092 0.17131485469232643 -0.1218046785940885
0.5060498075314399 0.1859301387421226 -0.0666660124528562
0.3755213498319847 0.23715770663145008 -0.006363653888243448
0.49465485314115654 0.15638257160591706 -0.0848996342108137
0.5811621945095453 0.22040821194826776 -0.06965736064933026
0.5379199284567733 0.25231554386400035 -0.04197300222099898
0.6151180050243568 0.2451861631587633 -0.06755501065563863
0.5096943426463838 0.16794427990416239 -0.09720281672397846
0.4898113859418345 0.22300181209210734 0.010916758397755189
0.6060727157638723 0.2151130340316172 -0.08395104256779007
0.5142850979256934 0.23522721582523332 -0.07544773514084113
0.4270614741647307 0.16930110440941348 -0.07542203426825722
0.45567637716700915 0.17965664316557195 -0.0794255914486115
0.5284951971423482 0.1774348727581554 -0.1550968809805795
0.48952537266617924 0.19447325086767364 -0.058535681518719684
0.5643745682671977 0.2788353628177447 0.004761837078007147
0.5201184739234463 0.20599968130299828 -0.046035223933728275
0.5907581788083291 0.19200365072802583 0.0368462522721984
0.5903209547749952 0.22549777979128294 -0.12529801827722054
0.5481141558391585 0.22079901694681325 -0.05176979058214215
0.5734150429724423 0.21251561236408634 -0.11953169602465152
0.5460919571564489 0.23610051067157656 -0.0336073608007581
0.5098036268844339 0.18413207566058531 -0.08742625844553231
0.4256223036773008 0.1781431541389651 0.010126404818606716
0.48020661701613676 0.17837566338404542 -0.06235318516303323
0.3833275896428745 0.15038597472451443 -0.052918752708450256
0.5180286218983952 0.19345281261587388 -0.04689439792971939
0.4726264018869415 0.17068568122667216 -0.044261299082336336
0.49673038997846675 0.18943715029404018 -0.06628946309228922
0.5296842344271795 0.1881596627039528 -0.10214955022124173
0.4968477797993103 0.17407598132430735 -0.08135179149994087
0.48588026068432555 0.18084256032943813 -0.09290742738741642
0.5503698669905646 0.19993272580109078 -0.1028235369815036
0.5032656522829484 0.24532922996358764 -0.012597078670950168
0.5017106452281439 0.21100163629112956 -0.08777665097352383
0.4738460210284643 0.1923123130417963 -0.04484525605803924
-0.29388521258738365 -2.227022458781164 0.9106870709917558
0.4584213609576011 0.151876746689112 -0.0767294158405889
0.5896682038884364 0.24384836502798635 -0.0026735342320876043
0.418705934361725 0.20217387011352628 -0.00018266605229655397
0.5807067834976465 0.2742036062988973 -0.06585712540766053
0.5083317740980249 0.2181706449521954 -0.035369905557416814
0.5632082667546285 0.19632609915710475 -0.0845714217681035
0.5242813176272421 0.16461588825890772 -0.15666497695156067
0.5211495474408707 0.25674637093652564 0.06229597467080339
0.5218695340476813 0.19952455373740463 -0.06393237405922036
0.42712045209859184 0.19791532398475908 -0.15119857826650218
0.513371915558281 0.20895238321193688 -0.05631381925867629
0.4775737772142463 0.17445220451965326 -0.1289688489621028
0.49243105992587743 0.2421822937008784 0.006636421840113371
0.4596398010063467 0.13653406944187907 -0.06264944181921805
-0.06492332598335793 0.025765560582811986 0.20507687135182096
0.49252984224202123 0.20626289473673864 -0.08666870338262811
0.42505508359414534 0.2210861496830887 -0.1548109213228912
0.48530777383953705 0.17700800464487543 -0.08702910824312937
0.5816051542177547 0.14507403455262136 -0.08952826502559219
0.5332639085203823 0.20254963323898778 -0.0753590859647062
0.5913878557987857 0.3543523946916025 0.16404511501198726
0.5083449765205899 0.21076152430434547 -0.07804012381885173
0.6131927766283525 0.25280403244084937 -0.012978187678811537
0.45282442656721855 0.18397403079755748 -0.05164648149751372
0.45291559793537317 0.18427433029904705 -0.059171269537628746
0.5191385795283168 0.15891644079155753 -0.04884502380025424
0.5135917235646161 0.1824921590625479 -0.07208486751474652
0.6561440461655366 0.27669335536202766 0.04498560702079146
0.5854419042613586 0.19191686504530026 -0.0482135351955435
0.5206710502605176 0.2154044575763976 -0.045196582622082815
0.5067352439434103 0.19912795179170928 -0.0002909512306388251
0.5953120005500807 0.29933321115180433 0.010130231784287957
0.4968261495722288 0.25449014780392076 -0.024756397014641607
0.5495618515579395 0.23432819255185677 -0.013958967614868811
0.7915050467685489 0.17265478157955272 -0.03526261558523913
0.537408510049886 0.1619245889218348 -0.17096895837556758
0.5182879467697887 0.20090832163634786 -0.07510575286357835
0.7014451774926158 0.2612335017067693 -0.11299912530328982
0.48687338732000285 0.22657367234970138 -0.00913300278560314
0.46418927471702887 0.16810574888168617 -0.026877440092022198
0.5099955751512653 0.19875838350287722 -0.07189337543036345
0.462788991088928 0.17602214868874455 -0.017473938499676933
0.56250028851656 0.2142641314365079 -0.056543930724458846
0.4745543666579408 0.12817535819903014 -0.109091315287003
0.568918789479568 0.22785539853575187 -0.07293382125406822
0.5065458804677405 0.19211462693192516 -0.05592412193357177
0.5541276318643895 0.20092256093747096 -0.09799085085742831
0.5304102149805203 0.21693616438457752 -0.007726094449523657
0.5189531095448672 0.24015628439394732 0.04754125337348114
0.49970050396336774 0.18874338038941119 -0.07708449196400124
0.43561470692861803 0.13789579193851864 -0.04352592538000977
0.4175918590224228 0.22794074888895466 -0.023066576569306108
0.4013505829366011 0.1242128369300417 -0.041723739123682435
0.5053554215199654 0.21530914992665373 -0.0669781075970235
0.5248865156118541 0.1951087411437129 -0.08351113630762086
0.53570163691262 0.23623616040268303 0.023251065581135322
0.4833657626164154 0.19405370222287388 -0.058379535788361636
0.5458752390673283 0.21754626582325898 -0.06340804420034374
0.5561546953984191 0.19356949590886074 -0.08165462140198088
0.5311576737187238 0.21828296808374148 -0.04121008031282258
0.48560245155161397 0.23721996060947959 -0.014387793970612961
0.5029323941200232 0.195871251621611 -0.0644360009206224
0.5089361027822292 0.19468564803989352 -0.07114748005027138
0.5551977546209628 0.20065567522246397 -0.03134948558552253
0.5296051881724964 0.2201308309623471 -0.045847024200412534
0.5400093276950315 0.24308670484141714 -0.08511059412452937
0.5075616639042551 0.19175154912500147 -0.08821331416780254
0.19523871213959865 0.24189540055030534 -0.1039294702026865
0.5323934825663059 0.19732290162671973 -0.07690251108282098
0.4644581217489474 0.2127896612128808 -0.006966462997937128
0.39351566607746236 0.04018445121442937 -0.1450597362288022
0.18975158369491396 0.30687212508074424 -0.016223337214029243
0.1479580000714975 0.4204976486852843 -0.6090524090389238
0.4379130813189249 0.1838863849619088 -0.08358498678794035
0.4658116310095579 0.1808701114412372 -0.07966675966235925
0.44888928505383774 0.18929392312679738 -0.08919229230626513
0.49099992185878705 0.20237437941290182 -0.03972034669057223
0.5966675265538584 0.12038663343207645 -0.12427626220375032
0.5208539120064586 0.18445428545373943 -0.06973157591428958
0.5417640288278278 0.21230167669585853 -0.06873118987520854
0.44667229575293277 0.18530390355040538 -0.05822724837469195
0.48597628513496716 0.1799174824034253 -0.13908285447416802
0.4802311275314537 0.17549656515232925 -0.052699916783794265
0.4804648376019429 0.15419036418066412 -0.08801936345655292
0.5747702589996493 0.21754420065309432 -0.11771401895349243
0.5342375228337346 0.26368953311579446 0.00793699459580921
0.5317976798115467 0.26149636479270555 0.00720142743807628
0.5103187058301728 0.1356503576596424 -0.07726836731384878
0.5976329245149259 0.1696758885351528 -0.05500039820503844
0.5163196767556144 0.19946314899661388 -0.06674597554234651
0.56056260494816 0.2584836018597798 0.017514368385860735
0.5151655192654232 0.21507641870087468 0.023970715776215457
0.5364732000300876 0.17805718697510997 -0.027496947887499346
0.5567500144836117 0.20090710542046963 -0.06630290792512028
0.480015782608632 0.19069581005004466 -0.04885242656533251
0.4721057374332531 0.16086296659868538 -0.10565757415061228
0.4581516715434759 0.15235838887025466 -0.08921997842223561
0.5591614316856521 0.23056283180940795 -0.05287233918508605
0.4385892324663416 0.21527163969116714 -0.04228731832165522
0.5293170226047721 0.1962631780440489 -0.06474283037736939
0.5422703927033865 0.11904114796664089 -0.046960936364399686
0.5416385965220343 0.3066714142534295 0.011829438801214565
0.5374362537208697 0.18754625291424531 -0.09491138946775379
0.5272805665559019 0.20268028539848615 -0.12307337601140489
0.5698096672346651 0.15154887440880316 -0.05292576820855288
0.48020655590130445 0.1997156353460241 -0.05943081098610037
0.5123884670333325 0.18570919764903238 -0.069951072145642
0.42838931421493953 0.16727942098816584 -0.06709026195713363
0.5087936469986118 0.19066433968393426 -0.11627800615336525
0.488615025123579 0.18429069110027285 -0.08317334489800032
0.5584316715513182 0.1942054439727201 -0.1141680296237837
0.5275306499044063 0.18130443877032576 -0.04926969142299242
0.5167090452311811 0.2270637275734373 -0.047315392825169056
0.443735078656772 0.11774825041555914 -0.12853182489132564
0.3265359494727136 0.05518816991363451 -0.0551407195616207
0.48325869220857953 0.19151850129694026 -0.06655674001132184
0.5310278691166275 0.24872356913371618 0.054230494466708024
0.4420943854604502 0.174326394123824 -0.02969960327065735
0.43115126415878535 0.22540749326620357 -0.06600641192713397
0.5075654774733493 0.17626309841361376 -0.13281044242729934
0.49366192305456025 0.254123811175333 0.008121849744853193
0.565292795011004 0.21606060716051445 -0.0799144571942918
0.5077522594335164 0.20439606982314729 -0.04677626324082951
0.4999801283354657 0.1867406162673575 -0.06888358041734932
0.5487657364523386 0.23126400239156908 -0.0550102578358036
0.38464103166549535 0.15086488922638353 -0.060265832384658324
0.5414939809345753 0.16766578389557196 -0.12191497991949518
0.48720621767409966 0.2271634291571445 -0.03293237575134356
0.4893442585126593 0.18150693799637452 -0.06592331565263976
0.4409874250729331 0.22005510771828085 -0.0643323384591099
0.4739985152650661 0.17665228986845705 -0.13296589251024216
0.5143815807802525 0.24229390819365904 -0.05210696391043257
0.48097066360608665 0.1980624448321322 0.031065936813433837
0.45689124882807164 0.17583856129104447 -0.1610944280598261
0.49567733124357005 0.23085795646647966 -0.01463306351212168
0.2491023279519311 0.3922733842104975 -0.40301472585318265
0.5017863175578157 0.2515479965546348 0.023186869338985616
0.43710365511296345 0.2052810334354831 -0.03841158555232482
0.554406219608893 0.20657061410420852 -0.10782715025007406
0.45022889840174685 0.1879931432586659 -0.07474488906936472
0.5025994601564037 0.19975097378002715 -0.062233257996922475
0.45027857371158575 0.17316988136566636 -0.0867882924393939
0.4101280334570845 0.18713018648395519 0.007835513187814058
0.49051662489793557 0.17826341067399198 -0.07990016835617553
0.4931234880068587 0.18041663687783682 -0.08016447145951133
0.520781389406153 0.17916807765031706 -0.07268279645430198
0.5286960357729811 0.15631752040945912 -0.1645083732362309
0.47137571321925975 0.18015690771866844 -0.05145620874017709
0.5004195517626044 0.17890288297253676 -0.059602461003720464
0.539060425758521 0.2320131506360923 -0.08804089585375152
0.5135934485805365 0.16072818680578393 -0.05048403664534362
0.5319964729885669 0.1973899494899456 -0.053373759561594625
0.5002147095853786 0.25717721604431176 -0.020557625416472547
0.5383917724055891 0.19935462889186795 -0.08589032937683783
0.5013170912199598 0.19711315051736733 -0.05681508164985871
0.4548220170664763 0.1615603466064215 -0.13611197131635322
0.497255200826487 0.21075091046681393 -0.06180922132074329
0.521363898940109 0.22344847511530475 -0.03470740367566805
0.4705838431450218 0.1608907249213587 -0.15322392384848627
0.5565306288479519 0.24029920989787001 -0.037105251277239404
0.46352470384991307 0.16322234058692686 -0.12101047388611619
0.5655063418181498 0.2410009717186341 -0.06997870168601139
0.48554801046421403 0.1816352996701056 -0.0436361012619102
0.5062613452002438 0.17217989977658021 -0.07979936988030545
0.5045507440779033 0.21451495680963717 -0.07369949265589071
0.4593375150226109 0.2394081155725729 -0.02314547391038957
0.555030104867086 0.14313173161761483 -0.07429641445314417
0.5126268420523274 0.2049084040908724 -0.006407945416015082
0.47304366946355003 0.1836920312396444 -0.05394395718974465
0.5592526599688767 0.1903662429206321 0.08771111201103565
0.25503819892884394 0.0023938034488537596 -0.8613149824519155
0.43774881501801133 0.16864514926689367 -0.08018030700058887
0.5466470674096797 0.1978849726163645 -0.030814768503702794
0.4717506278914527 0.22665350577258891 -0.07812843607200648
0.49395056483092503 0.1928678636733423 -0.040569760726825166
0.4766877870516453 0.15852917397904775 -0.11009827291215402
0.5339813723590794 0.2262344381557284 -0.04393117296481819
0.41884948300457836 0.22690049705155957 -0.014860872500292999
0.5319169340976657 0.2160287470113076 -0.08470936996586431
0.48907111649441504 0.09923548509888747 -0.1870915451896451
0.4903225184196742 0.17778760330699583 -0.06325345539399052
0.610443159844408 0.23972057462884777 -0.008536743375017863
0.5381606805181036 0.20018859695915125 -0.0994137130828392
0.5236122841666031 0.2123572181211557 0.05536407348972716
0.515085424006628 0.20514720832754563 -0.08276557141775243
0.499274395586383 0.17654509137911134 -0.08138894723612111
0.4368907494901748 0.18132815899977572 -0.056866869686956534
0.5437014563275966 0.2525526418481263 -0.09392414482832123
0.4641009720604359 0.225401404124824 -0.07547944731257417
0.5266631621893225 0.22271258829883323 0.004479474204629241
0.47530213670705734 0.1673277296941933 -0.05991321180303544
0.5178519697300032 0.29512508877195387 -0.03851739229941131
0.4447702012260777 0.16151607446224148 -0.02683567876874804
0.4431533509494727 0.1726236121915008 -0.10119643926610422
0.5048732780005878 0.23943404166222138 -0.0015561888845496696
0.4819245412830071 0.20370198205797863 -0.03868862436007703
0.5405724872678093 0.21917030166164864 -0.114639072738413
0.46426766901069527 0.18336013782619887 -0.005461593028570633
0.49789392725119797 0.19790425500251274 -0.11657870788809532
0.6327856572487462 0.16203560501594438 -0.12427502655076239
0.45216272799038393 0.1853502589317202 -0.05039917634164226
0.5191611789133219 0.21309215908132728 -0.03877501029538166
0.5071446122387044 0.18627447600843539 -0.11087460843317842
0.49160577426499685 0.18887206665635858 -0.0461627747161657
0.5968582926756483 0.21954988017955657 -0.07195578697337623
0.5406542447963147 0.16690686064619342 -0.16628467786890155
0.5166255491010929 0.18505241577332754 -0.07661454096917453
0.5094540869706066 0.20531154867479984 -0.06513405045136267
0.43103879715252447 0.1867204371931166 -0.050431402606136544
0.5168372084710029 0.17330338027811365 -0.051772987084646616
0.3052787285472789 0.043495597429028976 -0.22914808886648075
0.5308423379364342 0.21508685802139382 -0.07435782484992615
0.45013814732450896 0.20050936674408604 -0.00897143882154694
0.49807418957107075 0.20082623893935647 -0.09296262935026789
0.41975283832363175 0.22459630928004515 -0.05025076999172029
0.5268832193478374 0.20700289956579354 -0.08066953835867707
0.5622269421096746 0.19282803427412887 0.0721100236607981
0.4603860265042954 0.15738800304494305 -0.09150030063707959
0.49523390827056346 0.20920431517137672 -0.056800549667542555
0.4416177554896308 0.203248126761423 -0.019793359398889265
0.5780383721394173 0.2225873057546437 -0.07084130544259892
0.4916742391725961 0.19456493241584383 -0.07305000159722397
0.5065251946548415 0.176589755796698 -0.08358900354822651
0.5108377238332196 0.224635360322182 -0.05839293871792961
0.5177871707435031 0.30745973532815185 0.038166446946206634
0.4397331142814096 0.18798876785336915 -0.00987701206958036
0.5050799611799732 0.26346080818423445 -0.018982486896987893
0.5365194852506079 0.15728250080444184 -0.05632928947633786
0.46889177211681954 0.25838232675309314 -0.031125569813497123
0.45250403621156465 0.17199655269423886 -0.10693410694855743
0.36740924891324767 0.16168759083882378 -0.05425710033254916
0.4628859952244966 0.23884608772985416 0.019935218486040185
0.5228793268140066 0.22445089044524025 -0.03247375298104771
0.5083000830077822 0.18882212973613832 -0.06366047418529774
0.5822431053780974 0.1858522458276184 -0.11182535616156031
0.4872547361168813 0.24248210271349535 -0.04886967019001531
0.4824912805502777 0.16552377364700988 -0.10805298397733054
0.5101657206522816 0.1596827163433545 -0.05774678080453555
0.44514023676046577 0.14999542208494177 -0.1104642185601108
0.48964721575592307 0.21114855009074063 -0.09489938621192096
0.4200831574900121 0.20610331688568806 -0.12829302048737645
0.5111977804382377 0.19112012930395395 -0.005748186735203831
0.48696403154164614 0.2505108802096885 -0.009318330422161125
0.5402283075663377 0.21375335634124326 -0.07741437155522135
0.5623881811338265 0.2206512486362442 -0.07440716047747742
0.3819247437315596 0.3291486987813812 -0.38158615335319723
0.4885725010751969 0.24976579314659375 -0.0051383009519554435
0.5374798799381608 0.3025290549930162 0.07872643703746007
0.44101158893502657 0.1940461963607163 -0.09401444902935907
0.3898900010984221 0.14024113529910665 -0.08660390427174036
0.46348353157216593 0.19346589473038023 -0.023297313386564156
0.563163968790235 0.2727609127403525 0.011632161367998606
0.6107063206135592 0.34129482284774326 -0.011680070348376148
0.5232529824981498 0.16753379990214512 -0.06784657672656635
0.5016516736735639 0.18120602269378594 -0.06643968540632272
0.5209429202844831 0.18892362318064215 -0.10985810510801741
0.477669341414952 0.16333650247756282 -0.0936978806915505
0.3246915399694501 -0.04905593164883726 0.053441261383198935
0.445784992148333 0.17848173334729722 -0.0326597321003419
0.5180766965133898 0.2227282735854743 -0.05518582886568879
0.534219658129615 0.20800882145364596 -0.07883190477366497
0.4965705174335824 0.18735740877039575 -0.05741087460820893
0.5029946523948183 0.20379168793094493 -0.050899435193201725
0.5136811006657922 0.18582924547445145 -0.10883470922360061
0.4906668186876857 0.22488854519531287 -0.05486807165273433
0.5139903814365994 0.2275736941524258 0.03912528618386091
0.5726045370442705 0.17482193249205125 -0.11527955984112737
0.5124393512619747 0.19594414672191363 -0.06822213073985495
0.4623533550365835 0.1325788449672558 -0.10443322925658549
0.35582960829253807 0.19374651877907922 -0.04152343406633463
0.5362919108040671 0.21122575576353597 -0.06804643863895876
0.48703295916638467 0.1539216084259749 -0.11609520324537925
0.5433564003741651 0.17553459252320636 -0.10747145181682072
0.5823739532080765 0.20759676737134214 -0.07147789950531092
0.47889004347197783 0.16993713419540768 -0.06659783106458406
0.5045917280134802 0.23316984551848918 -0.013170639381314686
0.5703226628665448 0.20078626688192003 -0.13213718013278708
0.5143391403148883 0.21630317788724085 -0.055358356972647016
0.41329500680944875 0.053020407192292396 0.053324724590140704
0.5045603363496411 0.23697369762646758 -0.024227522445585237
0.48807145319062784 0.17227250784489456 -0.09245686594428548
0.3117588645946796 0.22038789423845628 -0.14418800150659195
0.42845837055187985 0.12972278274176574 -0.07684818476877808
0.4364749770741412 0.1570118968495251 -0.07948343360126842
0.5247601950483158 0.2459707018991253 0.010158049655302648
0.5619552709009383 0.211104448518455 -0.051808328006245574
0.5250516043366815 0.19541341808331936 -0.043123316737904815
0.44405066911591007 0.15969035653108676 -0.11321765996105171
0.4556427306890498 0.13776437174979606 -0.12150035519456992
0.5097609591437617 0.16689191065472642 -0.07097133398059441
0.5049755709048043 0.18663312722975434 -0.07612771554849473
0.6119308652623943 0.228699423170184 -0.05840121308244761
0.5242216941785216 0.2865903920835251 0.00011047197932612107
0.5031345939001142 0.1753700030085099 -0.08801113077100808
0.5369704167511031 0.233914111614979 -0.09613950124226278
0.562651570634074 0.1885287359285286 -0.011529835415842626
0.4954075916936347 0.16737006072585814 -0.11116271004775058
0.6082225807965642 0.2376671610985568 -0.06100380164784269
0.5347229418397035 0.21376703034849243 -0.07886668718273881
0.5120404763149509 0.206473944401111 -0.05990854098237719
0.5271276603499757 0.16598210670204594 -0.0694015368884493
0.39611352733567173 0.1523293722740391 -0.010527841342423017
0.44389828382276164 0.1731211011073981 -0.0739733538830194
0.5507769583505819 0.2116285700279832 -0.07972836694767693
0.40778263195767295 0.15839521925315125 -0.07091240784899355
0.4737589604615948 0.18334354141128983 -0.06341450988247743
0.46468428707376574 0.17093513514420522 -0.09018850590703664
0.4385188051841169 0.16394602175222417 -0.014625965974587984
0.4522277310422851 0.2295583674907533 -0.02495775749270024
-0.14685296250277702 0.7897420349452773 0.23298369018792187
0.5142877434101081 0.2017270460438283 -0.06074751590776373
0.47713173603457903 0.16080283332435386 -0.09390028869347589
0.475910036375069 0.19367941817827727 -0.06935599916872093
0.4748123252396397 0.14991411519883968 -0.06250546133873058
0.3887661355597345 0.1707548836737658 0.011802152900799001
0.4597370812963675 0.20263572556540055 -0.024222588268202117
0.51193810482701 0.17701179141336354 -0.08505270136100762
0.4265232310482361 0.22312487096277778 -0.019980809169481972
0.5152740260361099 0.12420085890018129 -0.12630329191891576
0.4025018568310088 0.1404646023464835 -0.18496232075983698
0.5024895784772241 0.2035163087735441 -0.056991534779768926
0.5897054636079702 0.19375778216786443 -0.11129719850296738
0.49535007866802516 0.1514075625373863 0.027669868885965343
0.5801353281007664 0.12487728893994188 -0.1387155809955516
0.554610671887616 0.25032927111284664 0.02500937800911629
0.5944634951355567 0.09284636057685702 -0.08116555254044044
0.5246174438733533 0.20439095031812826 -0.06044891987764345
0.5325371073297731 0.24221493249189052 0.05374241442306982
0.4666525536924553 0.1483127755665521 -0.10777828384263444
0.575254095491232 0.10764041821690284 -0.30540210942817225
0.4742335441658554 0.21935858735236025 -0.03528360973352562
0.4729833035261777 0.16060130133038797 -0.0678855259336899
0.5442305505907825 0.23151231503820213 -0.0395462552027368
0.30815855397329983 0.13953317172490642 -0.039913497721755675
0.49397550998224915 0.22308329584291187 -0.030766675102839258
0.46830143809452807 0.14734809659947246 -0.1076438461547582
0.5052983964845055 0.1714049900864154 -0.07915423126956966
0.5463360422847643 0.18511435761719497 -0.06293265423856553
0.5922895074895393 0.25405760131698685 -0.03480857268587556
0.5224910807258425 0.20073083294400362 -0.04719287697682262
0.5251141486166944 0.20170844406482047 -0.03355294235582562
0.5498593633869859 0.20646431432680856 -0.07484896364307758
0.5343775703552183 0.05891617301826102 -0.07261091322240532
0.5134841429490109 0.2339070601537543 -0.09736582877964395
0.49715083952375494 0.1801104161282865 -0.10348858354544177
0.5792787439766585 0.23292562888701696 -0.06465698875503278
0.48017764764551885 0.18212210043705568 -0.04830295447924016
0.4970381435284992 0.20297977473136086 -0.06778534944415071
0.4851047172342362 0.1717870858184085 -0.0489621785865495
0.4390067492400931 0.15037044873491823 -0.06628368717261424
0.4530806459835617 0.16043096717189087 -0.09517010825112493
0.5374487390159288 0.20314232338870397 -0.10174287742879073
0.5278464551658146 0.2059005676484702 -0.06876567962912361
0.4748038180947276 0.173004624153009 -0.06590237488589423
0.515640797649894 0.17283001229321826 -0.11445650748123626
0.4512166858411035 0.15580668667749364 -0.08363207826252506
0.4297670594290821 0.15199952480864454 -0.06210372946308951
0.49894545618820985 0.19321065553990024 -0.037310587923798266
0.49592828511126186 0.18372027066550345 -0.09073081749420453
0.39977756900665895 0.2502901472090002 0.09810168838630773
0.4838566808093958 0.20517006093174928 -0.01836314737641942
0.4025793072954116 0.17410162900668524 -0.06062696278678459
0.5088028937497882 0.16525279872986687 -0.09775569858905442
0.5356604360067081 0.2013381134311487 -0.07324395486458002
0.45925607408977953 0.16970831370190353 0.004995930874088117
0.5137870756434779 0.22710204176519255 -0.0698997996027515
0.4437370968003336 0.018528093022865733 -0.04308133672415693
0.5451331414022604 0.17717797052355877 -0.027593418518989665
0.541548282297839 0.21607100014408331 -0.03309385276730836
0.4936370737092375 0.17242806938637045 -0.08937113376170203
0.48785734696585337 0.19775071633938524 -0.056600597495247484
0.4858539923402816 0.20976466771116975 -0.010990862299706805
0.5721441731351717 0.22103139922880644 -0.08220854780040554
0.5735771156094813 0.1393942657725944 -0.161427044193033
0.5424307436008462 0.1916022578863732 -0.06197674487009408
0.6671202231900963 0.24783655128990745 -0.10875432441855537
0.5060666019503799 0.20061467239011677 -0.06795856952803092
0.4576526561526464 0.170919249504891 -0.09772485646281837
0.5076262070142832 0.17038281388033738 -0.06019390119618606
0.5224390774277765 0.21539747695454992 -0.05721411697425083
0.6019399860041119 0.20401575603322897 -0.16749551865892442
0.5295240078092434 0.19003393216966913 -0.09460911873983946
0.49347268500426367 0.23459286508767718 -0.0736478217189358
0.45182566975333316 0.131095061991914 -0.11345983451327868
1.0510316018324204 -0.10240031296832797 0.18140186415948278
0.5313005246087812 0.25840032681202274 0.0744282833902048
0.6228089416236173 0.2278718341494539 -0.07844216971349738
0.47622680609487134 0.1645936852157206 -0.06448774893509324
0.7603162477767853 0.4052226535575443 -0.08151638722804933
0.4833552686201017 0.17593984893096604 -0.10601782190721565
0.5209245862880607 0.2197090734284899 -0.024206981239899505
0.4825214282982131 0.19894466122804033 -0.06971621186249877
0.6029205755028784 0.21496783193509827 -0.1478122459777751
0.5639948129408765 0.21788535088182925 -0.07452824838124172
0.5699881011119885 0.24424336641247635 -0.02623380332836689
0.7191430428796366 0.13231702634540454 -0.10355057851072047
0.502403945872004 0.21013548510504165 -0.044340285105363364
0.4979264758352713 0.1956744094665055 0.006791947289670475
0.523194502190421 0.17908554318985637 -0.09023344121203536
0.43576863180132364 0.20831238966798082 -0.019124856234526533
0.586346221266723 0.2861422677918455 -0.03735211662375093
0.454957227688368 0.13861626586556497 -0.12035907504989041
0.5215197728188912 0.20278903631988499 -0.07450361404852401
0.5090988156555056 0.2487354599759044 -0.07526071612468854
0.45167070227137174 0.2547647342249775 -0.02783055537665291
0.43049171201371905 0.23798687427493803 -0.004160291831809104
0.521243234026457 0.20854574847487584 -0.0964784959401328
0.516270638405274 0.22349358685539755 0.028102010158207236
0.48187727061713304 0.19145975872521603 -0.045320183224561106
0.47285730016943717 0.19698117950923688 -0.042095293583201965
0.5739353107135798 0.20491730234668637 -0.0919501404926848
0.46943651889912985 0.17940700619078598 -0.023585338743913553
0.5649825024745496 0.24363951884977553 -0.09243402502315234
0.5104112078691969 0.18306457005753884 -0.04194735252775672
0.5820045379744556 0.19455057187992963 -0.09069641780885718
0.475248383305825 0.2013937597801032 -0.06816511419773974
0.5479295139344913 0.2257855464060441 -0.08807084271333565
0.4874497631133181 0.1374654999481919 -0.09582346132039277
0.2601194323802929 2.2726316669226776 -0.6650409703481301
0.5667546448538303 0.2296567149193578 -0.01629278254965527
0.5095793825980479 0.2042086352210788 -0.06244961220369305
0.4684382778842462 0.2717994558713883 0.07181589737999161
0.5011536786686861 0.1914093965290249 -0.06359934387523936
0.4720761834783218 0.19047983342898078 -0.04719390092975573
0.5964961155787023 0.23682347729027242 -0.09420599490877635
0.496098448710967 0.19123574155774747 -0.07954674478510526
0.5347941738855297 0.21359329556628381 -0.025493030509181835
0.48776755670726857 0.13285419385937303 -0.07497212279645282
0.505237565537243 0.17260885318012242 -0.09248412862692135
0.5189012684430452 0.18289818072494768 -0.05814840145269784
0.35106528420470795 0.01372883421993265 -0.25028903356225385
0.5392711051343326 0.14196640821077722 -0.12175740880066144
0.9251372223244232 0.13596274119176144 -0.2973707960742473
0.5506456217564448 0.24780322851584913 -0.036259270597057025
0.43416994522982577 0.1979853160432299 0.0018325221979154094
0.5302890728362399 0.21295336510291918 -0.06047989241690743
0.5879400668929122 0.25312591352872005 -0.17798232202507336
0.47879991487926077 0.26640257987094174 -0.09201092113946174
0.5587684240775275 0.13828749744448032 -0.09874706236334418
0.5347837465180021 0.23270638921175646 -0.012136247689056745
0.47234690629764486 0.23459933354669715 0.0018669314588350971
0.5032845324716391 0.16704395811595418 -0.08939283124033182
0.48084694789477567 0.21392245054619252 -0.03286290564616934
0.4422604874327476 0.18625386085687978 -0.03867289097780713
0.5095169958336498 0.15656177505988467 -0.062301043492027475
0.5260468569318277 0.20444205848131958 -0.04636234809603934
0.46341606840709915 0.17984193454076092 0.00227909068658505
0.4879648286735403 0.20935845954741694 -0.026553485703161073
0.49067771922261727 0.19450728895756697 -0.07606329307262172
0.4715552245969832 0.2539488618883041 0.05939932007341042
0.5023383238199131 0.18436339381524647 -0.06300553145011634
0.5427547079439705 0.14666156941694908 -0.11361802967444135
0.5826277596811167 0.19576793117764169 -0.08028308303426002
0.51695917951821 0.1166447407163389 -0.07031161755274695
0.5145044617008523 0.1720168474573711 -0.0866711901400663
0.5058145275976642 0.18149188803673155 -0.08659373203781229
0.5017282320501408 0.20083591794497124 -0.07237670588939693
0.4771117284994659 0.17946444311601795 -0.055789143723899315
0.4264006839673016 0.1548737509883722 -0.06765689545440523
0.3841492037136618 0.34349492158040107 0.4964929649131875
0.49974141012245354 0.17960790717425823 -0.07592995731987173
0.510011732464335 0.20297924419861602 -0.09600751496469684
0.4826976960254683 0.16162784224823668 -0.11001256520566471
0.4945340159898137 0.16924740319831244 -0.13914157284554562
0.47341516091881886 0.28294919980896793 0.025980683229221313
0.5575285468006257 0.2018238118862712 -0.10722602782442436
0.5270116427971914 0.1419400814204721 -0.09111492150883294
0.6117873353129539 0.26540214496334613 -0.02282755244820578
0.5056919543049503 0.17852546832833127 -0.09180062871787698
0.6362512390190602 0.2304060007585349 0.15344552907504294
0.5128340538548741 0.1644810662163252 -0.1110056645520956
0.4123524638115441 0.17189403050355168 -0.0068339300346593745
0.4285001718460535 0.13851724340258897 -0.1207968249705118
0.5633104747927007 0.22849101624194645 -0.08345567041888557
0.4414335106455951 0.17989237604209052 -0.0350991463317456
0.5894984290426919 0.16978578936326016 -0.07984318221565445
0.5948225647233869 0.3631934122398093 -0.13611623594087519
0.5138040516137039 0.20359056947430076 0.011675960155372422
0.5037218055551591 0.20059780908616176 -0.02109051237205506
0.4767361314051186 0.17929798863482915 0.012504239760502855
0.5124489756638866 0.21193974612589273 -0.08115685293076069
0.4435939819942689 0.11091756027445854 -0.09018819107822651
0.517055215237832 0.1732104457926198 -0.09517942297114246
0.49313356613038195 0.1825264135512299 -0.05390348696820979
0.41300218572982317 0.13941476349785376 -0.09233649028709578
0.5302121668402151 0.20414254678699706 -0.0422275380551298
0.5124465702047019 0.22117908509014228 -0.014997017105599753
0.5658531707242105 0.1804130522118612 -0.10264145048152784
0.6265084059770061 0.2422239063965037 -0.07118505097744787
0.44974313969032664 0.16901251935965433 -0.04451868865645281
0.54267659517933 0.08631552667337417 -0.24819441763156647
0.491627340666696 0.18315387219911372 -0.06853317430137906
0.5363696817421442 0.222328919753636 -0.07077309058252013
0.608572824405428 0.3088319058282849 0.024350937864085154
0.5972598641369586 0.17100521764146492 0.0017113413389040488
0.5062888077522416 0.2251465067186018 -0.04324810731898765
0.5063996039504559 0.21814740362334817 -0.04350152692687459
0.5847834006131905 0.20526768084769742 -0.0842461936446739
0.4548951413507609 0.15953698047434273 -0.1415000069132617
-0.2181457637090034 0.2503853216934573 -0.16553732313991532
0.44110228275380337 0.23769781135708 -0.06819219164457024
0.42301205870359126 0.1726518310557026 -0.032013538449632506
0.5280855788545011 0.2040797968056438 -0.07900172875827138
0.5161877102592882 0.22172242862843916 -0.07399585378914253
0.48433762260034996 0.2633585232539417 0.09033531035873921
0.4593917990188743 0.18464426107509269 -0.01061499743433103
0.5146693073463098 0.16081831925846757 -0.060201702074039076
0.4528340928911234 0.214880798688597 0.014628304216813603
0.5147248249881216 0.21997109165755546 -0.007678947375524103
0.4910901291713401 0.1589386490578022 -0.11729191785124726
0.5300958141941976 0.17687333047371112 -0.066179531204412
0.533245586981792 0.22107036893567056 -0.07036194629745296
0.5180768933381898 0.19123552347952 -0.10268606171105432
0.4210264352166746 0.1461833613728345 -0.13132459661406415
0.48425458756346984 0.1694937255481932 -0.06625679848878008
0.550471932457981 0.18576739937968512 -0.05327862006801354
0.45657642387104147 0.16069647266624543 -0.08453125922568461
0.6237635709875917 0.2575979352636182 -0.06478201982127985
0.5083536411902969 0.18448731503690396 -0.05591913976435592
0.5994473106856617 0.33245536708523105 -0.05586904992065911
0.517203166829006 0.18569662443289303 -0.08463813540016929
0.4859695694499919 0.20237103432415893 -0.06912245919095028
0.5107421043266811 0.17891710558751583 -0.032336570342721416
0.4977625420178242 0.21530625872814824 -0.03195240057840465
0.43602863681164195 0.14091509032381566 -0.06551396353486894
0.5419345712383858 0.19785711889409185 -0.07080421278467952
0.6016654435367457 0.22061319591384176 -0.0515883575915268
0.4964990888818761 0.2002823001899685 -0.042275466682838214
0.5215126094685445 0.19793140678041254 -0.04812234354646705
0.5158233281043181 0.17600272040627374 -0.10136941580648795
0.47791238867375796 0.21284732301077725 -0.007238179048044913
0.49322001232192747 0.1758333137733814 -0.10431222895218184
0.5442963025726044 0.19572135923266387 -0.09394929733133495
0.08917242322442576 0.7571954041917905 -2.600637651664499
0.4447635735558606 0.15781901042458912 -0.03568130781323475
0.5250080620541553 0.19379341971566078 -0.050662937382895734
0.8188791397103046 -0.1302461056637867 -0.660807090643786
0.4747087014692397 0.19582165190340106 -0.049282161937526325
0.57997982957707 0.22731926541179348 -0.08917476313570205
0.534285494482873 0.25255003813278165 0.04577660365200131
0.4547962896172919 0.15416965440724084 -0.06300662213587316
0.4416307968621709 0.12413615515657739 -0.0005442868337297568
0.5263944605647737 0.24126475086444543 -0.023121864773571588
0.5273780382811992 0.20446275876615516 -0.06677872179332667
0.6481740274936953 0.19010822314007214 0.06453348747311338
0.4745058593523197 0.19289157500475085 -0.06833110605461457
0.42908549731615153 0.19122958441653282 -0.08218905838818102
0.3676109039577966 0.24783842294087322 -0.0270360297312493
0.5322616781554359 0.2089913193458699 -0.0009935198123116606
0.4918981862720955 0.14469941875117343 -0.11391595989570646
0.46878226950101975 0.12291213489919528 -0.09256193018990189
0.49783494196731226 0.21195632683838994 -0.05274969309697042
0.5111489992748943 0.18648456683307302 -0.05750863290234065
0.52402137736604 0.19600236710624586 -0.06032541981431905
0.4834158052543387 0.22385478346667753 -0.04211789154459211
0.43417157719937904 0.19064871910616432 -0.04253170360671277
0.5374494381141517 0.19257055714007265 -0.09026561107215514
0.5107187236000357 0.2034389267463581 -0.04250540810966186
0.4575751832140611 0.2188025761488177 -0.028871088223738184
0.5249215961846119 0.193876839928123 -0.04271474132860931
0.4353252312897382 0.08889461005873045 -0.07367993392034577
0.5296361894906738 0.15979867779559243 -0.08444456877029438
0.38079021405073377 0.18585282506002443 -0.012720113291194934
0.4762726238825792 0.15877908906466587 -0.10119145431139032
0.5663740131911368 0.2511316685126701 -0.028675614750000022
0.45495918451777584 0.16929995238450601 -0.030659966924389437
0.5884157861101471 0.19728863913260852 -0.0951975164131511
0.5016646425912086 0.21323410553230815 -0.05673799797025936
0.5138627021509592 0.1958336733090249 -0.06395711487866151
0.48403964220554485 0.1917763007660369 -0.05089115723932025
0.5434908738336617 0.26231402237515056 -0.04334797135541635
0.5304360526831147 0.18690322045816288 -0.11080701513631652
0.6109751405055022 0.19289404385254727 -0.09485827874156882
0.5075774998842917 0.2293974792577842 -0.06356660344405896
0.49698316581756785 0.20517247655809 -0.059219176722280054
0.5380177790245568 0.15247589188990673 -0.14608493022385005
0.6345998626828475 0.2445116419017097 -0.05171801386836705
0.5173557059864606 0.16866124848871777 -0.15023970592397973
0.5730861636559155 0.20263033595718127 -0.10318320823958516
0.5007522915046536 0.23620602677475233 0.04615651467787529
0.5202042179845989 0.2095836469269301 -0.053035554191609435
0.4921718168884581 0.17405751472421116 -0.13883418524055458
0.5135601365184925 0.1774992706622811 -0.10433562201689028
0.4812099115480635 0.19834435997952937 -0.10027276790184203
0.49741237741102395 0.19568317053158069 -0.08093111815759357
0.35272016650964133 0.09768385176289485 -0.2426702672210297
0.5124544999758882 0.18625458174926735 -0.0939194003016155
0.5055471859223246 0.20028449023314465 -0.04532308169314092
0.5165958113777549 0.1894714306786085 -0.22816026232153774
0.5431465168241516 0.24142949248350476 0.026660927883597196
0.5752279892183481 0.19744250404143315 -0.1542961669196643
0.4459920452109998 0.16990505818283452 -0.01934465482608516
0.559241099538923 0.2730447429727718 -0.007271299777883655
0.34557296794253034 0.15760988456838732 -0.061548562308217925
0.5141982788463224 0.19659964188153367 -0.06205884527868477
0.5083820707178859 0.19649574776778422 -0.04974119729975257
0.5363860872430735 0.22660389659726832 -0.08489012393584972
0.5357349387944623 0.220515950519669 -0.1059158599103398
0.5120950618322695 0.20620127727701743 -0.08038261006443292
0.40716830520509006 0.15804952610520218 -0.1258375610271969
0.47073769097579543 0.20433258423042844 -0.03903408591429525
0.5279576444268343 0.22951821290132557 -0.021805135659377584
0.7695692014044084 0.4568609992011545 0.45005476057669114
0.4334772468398569 0.18089238313470446 0.04666819622916307
0.5456757391312976 0.3299239978868229 0.022646136236872394
0.5153149014502674 0.17177923964484876 -0.08009149043272146
0.4437488424569551 0.16241173753492433 -0.02183956774904061
0.517533409840695 0.19085417033610952 -0.06403891537854633
0.48560832776641405 0.227237214195668 -0.04260084335339798
0.5374011593714272 0.24049121252868133 -0.007981991112274045
0.5716745516218111 0.2060364396997585 -0.147021635272921
0.5168716279280261 0.19665097018796018 -0.07047127504361583
0.41479432097773383 0.2711737322339616 0.030518734564509487
0.36219676433918835 0.13998319862696462 -0.06376755537469592
0.4833566487681651 0.18601736490944631 -0.06234067797258547
0.4808475313448639 0.18085776030272882 -0.08826484280186264
0.5198868694033649 0.16739130537246183 -0.164144934126341
0.5501044905824983 0.1990580413576879 0.0562139939027162
0.39486712129746593 0.13737573294542926 -0.04102580308315851
0.48910464949105403 0.22346599032351833 -0.027675130897677036
0.5030391536357968 0.2213037783413654 -0.03559343090161349
0.45591496243827123 0.15177520371074138 -0.03362082740588335
0.5953794331340703 0.2707222923552308 -0.057110330501672024
0.4648966490365467 0.17007381589738202 -0.07077480832839456
0.44706542891464096 0.12142119673873708 -0.12231082334285759
0.5722599834824678 0.15567282987544218 -0.14175267817233816
0.42877326359507606 0.230911474949977 -0.04337098630136893
0.433213778393025 0.18047381433245846 -0.058489090904657814
0.28717727386475644 0.2097078314432963 -0.04255865707574458
0.4260079937440082 0.13382138479204286 0.0004220075676499846
0.4872456934983518 0.24070929185860734 -0.010980742397663334
0.39343706742008067 -0.0879590099105485 -0.08704647620226069
0.5077210506287031 0.15708793906244978 -0.06753953961985815
0.45556967618583144 0.17703260123070663 -0.09452058053932433
0.4268408014580416 0.20466157631904025 0.05943107974135842
0.4969113194344743 0.2045964971737675 -0.01809476099694507
0.602710582184443 0.21766794434823566 -0.008576360699066754
0.5387702744638148 0.16352076844867725 -0.1309552413991213
0.4599253667151686 0.2853532844570452 0.058521405074500876
1.5107822448411525 0.5374080787618993 -2.5467916572293916
0.5969769155103677 0.21439560796562773 -0.08014832692180107
0.5111721766613755 0.16906050223533953 -0.1037233238538704
0.4887232273980544 0.21140379235403373 -0.04518026087478688
0.42367471595434836 0.16923237888799747 -0.07363047007558521
0.506634214088109 0.19693996664798874 -0.06641580128975022
0.557721506585267 0.26939885140004094 0.024456567513752248
0.5117339272698018 0.18814924244766473 -0.07840158733266378
0.38813853526943376 0.1233914254580668 -0.1445075195081813
0.6087095877772128 0.227735649864087 -0.07728195571434071
0.5966991950262468 0.24516008473084128 -0.019532966890025705
0.48606872683771485 0.1850562985269164 -0.06116208663047473
0.4324938070598421 0.1721057686452525 -0.05828149881972422
0.49436736862895714 0.21820646419723744 -0.01998143959912113
0.5187566111929129 0.12178385237739064 -0.07331776972222315
0.48704307244852885 0.19426562808317271 -0.034027015303365715
0.5944013235155126 0.13997197445287668 0.022204879236653596
0.5138342577612889 0.19544767007744213 -0.08363082446828685
0.48291093533691765 0.17312236829529581 -0.08797734606554286
0.42782965939986184 0.18477125970511565 -0.041079581922602415
0.5093429204976871 0.27694684770568756 0.002114826501212974
0.40884580200236087 0.12865993593860026 -0.11188800992638903
0.49927825458635766 0.191794506687188 -0.08261447117769194
0.532090379369663 0.13810250735485852 -0.1614239698855755
0.50208890292771 0.1901527736896469 -0.0580264094887184
0.6760388507763366 0.25960984154926336 0.28833337808734427
0.5483092042447595 0.2509360081508021 0.049584473465444034
0.5502928825844151 0.22313053273317962 -0.10207567511636739
0.5759108014163132 0.15781574206258142 -0.08518861921200482
0.2617937110866535 0.110297078633252 0.14089582550991508
0.5013949886929652 0.2207155961225311 -0.08025312894176295
0.46699725910715983 0.14543217141832088 -0.09263428791209094
0.5431861752258271 0.1488209117754593 -0.1766802258406983
0.4695568879050427 0.16208630230025278 -0.06918412018998765
0.48411376554508934 0.13937560190413478 -0.09821943766371533
0.5032384193692394 0.21274161088336996 -0.02260635943565603
0.44274154468905635 0.17637176401387933 -0.05077763459296136
0.520184981331056 0.15761486575507888 -0.12993400440777236
0.3713129431136508 0.09402539499795637 0.12587569155905953
0.5572699763514777 0.12431981299380368 -0.03353528039869502
0.5143530414455313 0.2279044981040812 -0.06913920926150752
0.4529639785413053 0.24940065289857216 0.08936649349691095
0.5081729806560702 0.2045418191307249 -0.061317783146790816
0.6448518487899833 0.23039883525331106 -0.06584585005032295
0.5153247995277752 0.21014794950832538 -0.0013240038650650376
0.5035478307893015 0.14078795513802334 -0.1306503579474736
0.4544241647095646 0.1854726484341569 -0.04906860735815144
0.4398127702513648 0.1082557115073115 -0.0888898261790132
0.4861381239576019 0.20940880046561006 -0.0779776337553102
0.4094599835572126 0.12120637885746532 -0.04499608611553185
0.5561365458079592 0.24841744906548513 -0.048027727605443715
0.4770855007458863 0.18459068810426515 -0.0686256019182565
0.4793152429477914 0.16663239994474566 -0.08082922747901478
0.4859754933139584 0.1818104193233978 -0.08501093518079017
0.5271393385170313 0.17826743128901512 -0.07884440463828923
0.4778845155215663 0.1729520089285046 -0.11409798005244909
0.5035985767363229 0.2146516980330091 -0.04432413567776905
0.4342584883191023 0.13084854839971172 -0.07238242611887813
0.5709673187863302 0.20582462441757343 -0.05408490942602384
0.5632499135895728 0.21439766460636633 -0.1035162236333349
0.4883827596241588 0.2210383963357856 -0.047460047569686026
0.46068849696237635 0.13035477153880493 -0.13237441445579634
0.518567458666439 0.2450372709704851 -0.030185811271394414
0.4379274455602342 0.13441478150751607 -0.024103456242329457
0.49055712490911674 0.15380566622269498 -0.06127872470709406
0.4732960017041421 0.1674310112779267 -0.06913033206421915
0.49396044279038165 0.16874889375384328 -0.0616726376219674
0.44248427985476724 0.15447514046388733 -0.12857538147747505
0.5652411698319781 0.2723828289266663 0.018912592565371256
0.5103027933189708 0.2134860929147635 -0.01142423207014076
0.46160122787316027 0.11439073765941998 -0.10099301253524118
0.5713738983402266 0.1080170785158856 0.012830693416560734
0.5176226291461603 0.21440264506989593 -0.046383177526436725
0.46265921379043107 0.19269850940358424 -0.0785595225054152
0.49694026447966166 0.1835305218475014 -0.09460836667507522
0.5749462343317759 0.18228892255523022 -0.10634663804731304
0.496219311268959 0.14897351362722588 -0.13567054088954933
0.5902382764544996 0.168549455253185 -0.16378163549089209
0.5512688928232308 0.23266532269612128 -0.09856106448833657
0.5058030494550962 0.18862517542952162 -0.07316755022452526
0.522985736912716 0.21718818323051892 -0.08063941261694652
0.49064548745923275 0.20065151275920812 -0.043859151859990675
0.5580758626833529 0.20850792493452275 0.013283566802684277
0.5128632902189452 0.20482356283744707 -0.0839432906632851
0.6357979533798073 0.22121713438295387 -0.09965015718555037
0.6454650831720699 0.18045786061266256 -0.024735605413667372
0.5225015313149299 0.1893872233710283 -0.04664504415310944
0.47196722179987205 0.17135682755518644 -0.09498208834190791
0.44543595593094665 0.26251724019053313 -0.036546182206052436
0.5081922202148803 0.152180400080141 -0.08321838088431832
