# .PCD v0.7 - Point Cloud Data file format
VERSION .7
FIELDS x y z
SIZE 4 4 4 
TYPE F F F 
COUNT 1 1 1 
WIDTH 800
HEIGHT 1 
VIEWPOINT 0 0 0 1 0 0 0 
POINTS 800
DATA ascii 
0.45174200462166425 0.17484190659297383 -0.1210174907113526
0.4745313660089323 0.17681573579466203 -0.06450454426617114
0.48917686672390914 0.26314995570858457 -0.08641396040590621
0.5006986543301792 0.1992365080214995 -0.09827963852541188
0.49496456468200734 0.15965311128937287 -0.18524029110389506
0.5470221504468924 0.22086656428371043 -0.08024878025511839
0.46847272194149525 0.17417656448134267 -0.1232197870085372
0.5322521067473645 0.1884007776216663 -0.02795689913308763
0.477926995107012 0.15058723196160884 -0.03440867322814256
0.46860430700219524 0.17987702047190623 -0.09828549513056828
0.4482256002069249 0.2520752215116602 -0.07321566445271799
0.5049100686705685 0.1330984307636811 -0.10075579131519419
0.5960636985952732 0.1722908847433473 -0.14217373907244735
0.9482539903631988 -0.02435197016976076 0.5673162598531292
0.46811054332006563 0.1625604496188089 -0.023320481180363117
0.4914044948611007 0.1915507794719815 -0.06546863266535752
0.5542025810492817 0.24297961158100634 -0.07777892538308606
0.6123178954028816 0.206084978461206 0.1324911492176284
0.5161931060451224 0.24334260132690133 -0.06546199339418024
0.4911933631895806 0.16280675283815071 -0.08962089715586785
0.46104637870264753 0.17585641004549757 -0.06683403044209513
0.598686930770242 0.2982681635017457 -0.13047411399551834
0.5927220921474969 0.2894223570383474 -0.04539128345614074
0.4300538054140901 0.17782957246444653 -0.015656430640405006
0.5116504063165621 0.17992025910692178 -0.0882681954163047
0.4682327442056362 0.14657002156826593 -0.12629870723669967
0.5598524220865073 0.17759226618024115 -0.11424937031711124
0.43202264862070194 0.18530208755629474 -0.036148809371383095
0.5861974988144851 0.20754044302444186 -0.06554814618655769
0.4699833904887498 0.15720070538267805 -0.07461564010216648
0.5165679363431792 0.2065999723029961 -0.01303856974064388
0.5337405686576915 0.1706727744929708 -0.04041876274470724
0.6189868873718041 0.22345571602190262 -0.0546032942864656
0.45290714414015554 0.24514119097852927 -0.16109882984325452
0.6512097187137442 0.39295994759581276 -0.17713931496922442
0.5421199969757424 0.20283112949556426 -0.03195684687506173
0.5161273986611974 0.17571684448955693 -0.05888348171569646
0.5288231779165073 0.20206605309348902 0.036830443262445556
0.4916281217965519 0.19921278244669338 -0.06919416891194885
0.43899500259951196 0.12040551112107778 -0.07149950115159243
0.5566553964171135 0.19320445644767403 -0.10519577314212825
0.45925606799777086 0.17000054580913115 -0.0996432452593865
0.6376748625133075 0.21451197617406592 -0.11037429238254504
0.49687345102658753 0.1737860581562387 -0.08143565895676375
0.5806736814768811 0.2071244127690477 -0.08951158885429322
0.53875521158119 0.24349065010892446 0.026936046840077665
0.45378135572373424 0.2290807032743487 -0.020077748945084295
0.5785448943143621 0.2413086354558942 0.014461510420716195
0.5095755891731812 0.19698271019180424 -0.05713958794498808
0.5160027863173724 0.1479396725975164 -0.10139512987814214
0.43888242812673184 0.1793044972497455 -0.05032128698067595
0.452303314040563 0.12713087591623662 -0.07204266219680733
0.49867391237360437 0.23556850347461022 -0.04031717238935073
0.5004423449830426 0.17637854160113875 -0.07144121116689917
0.427662151689745 0.164763590124835 -0.03095727058601483
0.4758854105947279 0.2133649339146615 -0.06966504725195932
0.5934297062733549 0.24917297343000655 -0.0913793237287166
0.49771956787279237 0.18217291449582262 -0.0683233951370994
0.5443896557913632 0.18477253124495974 -0.09502105739278477
0.4704690325759202 0.22779564966597832 -0.007918835374141509
0.4984779396264116 0.17849608804124273 -0.07647039452692184
0.6211137464215994 0.2610523298006626 -0.053605981731266183
0.5063852459221465 0.2352542669711113 0.011927316145772693
0.4875930598141025 0.14525858332766006 -0.08771670228298944
0.46086479462535124 0.1420849227247487 -0.09463356785646226
0.31244601609897416 0.02824484002076133 -0.12415403071275932
0.6159366843224063 0.30173051071116674 -0.1503369627401412
0.497313942744114 0.15585176873454998 -0.03867699420160875
0.49750997424580135 0.1851881030486595 -0.08001797479525408
0.45860976797075637 0.15162370126063252 -0.05913909590850608
0.5490643592000026 0.22281402773545267 -0.050916310990800184
0.49536312636563196 0.19800935343191384 -0.01847173085749887
0.44009574452991274 0.18200255291091594 -0.06825194764886078
0.44633777551958076 0.14214766717743998 -0.06757171853084287
0.5098302726442938 0.17693101470250383 -0.06875278273882657
0.49495431345944496 0.11954035123025619 -0.09313617348396974
0.48341266805265093 0.1923265774091334 -0.0696888758463956
0.5022687006205047 0.16374952343528548 -0.09395752395118961
0.41231287222652213 0.20243111211919995 -0.07391024370645027
0.5130048748098375 0.18578434882218176 -0.10576837372155978
0.4405966026006922 0.11319347816174741 -0.1321329638371509
0.5295240621278055 0.19090900429920055 -0.022534758873462124
0.42699644193561426 0.18921430575997533 -0.06931978491579116
0.4280481013994688 0.2944838314092948 0.03364512936431652
0.5188445174767367 0.17349679128133744 -0.09227866717579047
0.546415965637479 0.24104479335159112 -0.020762283816850413
0.4891452551020734 0.2275778962181505 -0.03414985838276152
0.4045679785948124 0.14569072193521038 -0.05611500023854887
0.5605748587647952 0.21491831118635218 -0.08284211564446764
0.5276679962799165 0.19932682793569256 -0.07169583900235921
0.510353533681311 0.20887753137552068 -0.05829154519275903
0.4527497500639157 0.1542242175190438 -0.10521911395252914
0.8909288023115352 0.455527324205363 -0.04065294165181399
0.515796533862968 0.19528135105319677 -0.06889014550964134
0.6090798780110731 0.219084178591757 -0.14921047366422613
0.4953056195415968 0.21536889808402293 -0.06495001592932681
0.5227686641227223 0.25123185882810617 -0.08973767265217703
0.4994130890600559 0.1637850221276551 0.09107221181989189
0.5036756435896166 0.18746194407317773 -0.08100461658409586
0.5845852971834091 0.25308688168564686 0.054138806718839305
0.5021301693608393 0.16186342428503053 -0.09950006835146041
0.5094709751039517 0.17337220885701754 -0.07608799423519486
0.6155163304565576 0.1597490780499129 0.020029669606230982
0.45457155928764337 0.16526548603710012 -0.06652423305489208
0.5113735865208042 0.23553268429850505 -0.02439165631969331
0.4173099951695036 0.15834989118636145 -0.07372126111170019
0.47818994753716026 0.1657848496970047 -0.06838787651579992
0.5151336940418076 0.2705451230982874 -0.0016719990205729118
0.5153091449541591 0.20851846908681182 -0.04832342175924964
0.4815821350883027 0.160988020902181 -0.1765349271924208
0.5442922213330519 0.2130230768870831 -0.07078189381050493
0.5370395783998418 0.22225156909435384 -0.03668902375525818
0.5028078848568924 0.15482573346389472 -0.11777719981211021
0.5237145955350684 0.192701927402112 -0.14726940591026505
0.46968209283238593 0.19634880828908763 -0.02093052344746127
0.4991880042683192 0.1745376099086684 0.09857962115565044
0.5055534465274434 0.2162092911894149 -0.07453209485132106
0.5285421183012886 0.19655133636561573 -0.052413140680982906
0.46958778809349155 0.31574574577908265 0.06385464859189938
0.4847344196915202 0.19612309075233725 -0.0548600662076808
0.4081419702535385 0.1565559614806773 -0.1111568022871694
0.43009869914560284 0.17337760260039659 -0.03446765268404306
0.5274088310924299 0.1994499112991548 -0.06861800901688753
0.5566398167487563 0.2654042399765615 -0.04246627752286258
0.5349904653713793 0.2121480587286726 -0.051407690938617634
0.5164566411424971 0.18206865984755893 -0.06587191114600444
0.5123484401245406 0.1924187668716968 -0.06996175192116993
0.586471003184144 0.3817133469154612 0.05071940938142916
0.5305867097875421 0.17006051805566358 -0.1412409426711747
0.501470364486579 0.15631281698067312 -0.06555439795145901
0.4858879762005728 0.21609083503543047 -0.05112259274353903
0.5167571871625967 0.2048239157464593 -0.06098573114839212
0.6009850782010062 0.21878131252753974 -0.11613433455495681
0.416798151324997 0.17863066387899096 -0.0394793925047594
0.5001164973836723 0.19089960415959695 -0.06398495851976804
0.5583135505763721 0.18755906980322834 -0.09937668718271198
0.4884009550030868 0.20679465881435988 -0.05575948993443092
0.5465044593346846 0.23493198573281404 0.04017711826000436
0.5469147890215567 0.19742981998733455 -0.04829258225126409
0.5663316524644557 0.24985362811710843 -0.04411029225056495
0.49334214919140607 0.1456420313875526 -0.1146271494520903
0.4515022134921196 0.29233768239714664 -0.05767640890897496
0.4146148512701586 0.19774088079066132 -0.06630816736188194
0.5117351838632942 0.20100024688196072 -0.012005969796518912
0.5875820459905583 0.2316425964636437 -0.037079777964876826
0.5508227243292652 0.16586684521840311 -0.05150534116258143
0.5130261463166903 0.1671121114432168 -0.11819713793826736
0.5243914986833573 0.2182080378927651 -0.06516553419419324
0.5093073716739269 0.1896391363763854 -0.021864677948144617
0.4132532370081776 0.1629646051590612 -0.10710503898842205
0.487949590521211 0.20175235537494984 -0.05988556789331767
0.4056863167149771 0.1332296640836006 -0.11730568917234052
0.5959541447266332 0.20592042123303145 -0.08898510162711659
0.5288683346013698 0.17562561088452355 -0.1182396977603446
0.5082315896742671 0.23628047958291631 -0.07173301489757478
0.47717466152006693 0.13975518868866743 -0.1561427079256532
0.5093642951337785 0.19606900822667228 -0.09360334422376582
0.6007245527957679 0.21753689508403795 -0.04472214529185692
0.4879830875335074 0.181805097187123 -0.0651812879505087
0.5283976320857704 0.2333347470741387 -0.06326615324259421
0.43903565739215367 0.18522260018110615 -0.06753411391994746
0.5308161102962146 0.18482740581426071 -0.08953799753999192
0.49028704143948687 0.17111017497886394 -0.0676976269813565
0.5166864473858652 0.1935649890365312 -0.03546017282249636
0.4801685749245337 0.18849283757333524 -0.044992818725091865
0.5915036684002075 0.24986980852744978 -0.04378949660187459
0.5023506632183228 0.1732589475561639 -0.23007341776042267
0.4839202842883026 0.21025431311137766 -0.05551785835298517
0.5984551219109164 0.3172760856038792 -0.07238602818777906
-0.05618270812249193 -0.9426680748312464 -0.1726645737289232
0.502734169173948 0.17266536034665592 -0.051858029499470604
0.525150667462043 0.1258389015837622 -0.14710831543195013
0.6053281319852459 0.14535755548928364 -0.020975404530034325
0.4043775909648275 0.14277221473882662 -0.06735807840374264
0.4674559778727314 0.14503666002900673 -0.016209526610566627
0.5232572107869657 0.22026018451683171 -0.08503624130165122
0.46703875655006755 0.13371846376563212 -0.103783964527139
0.5426992081572735 0.22617960555399463 -0.0601552266934533
0.5071241877589756 0.19783417019652916 -0.06483319375720953
0.48666165047944787 0.17575225292637242 -0.07855584879504818
0.48213127515337817 0.1990683835460061 -0.07332953189876434
0.5298003440397139 0.1946869157329445 -0.08803240153483216
0.5141257472561733 0.16847493320265983 -0.10071495062285862
0.4068023039000792 0.23040622057546045 0.10090675149081108
0.5249308325449675 0.18463048703756613 -0.07879188179512653
0.49201652172980914 0.18473411824341213 -0.07408959648682867
0.4443903019688804 0.18352752886178791 -0.013701481092979861
0.5275559554561369 0.1766005330134277 -0.08992474949289431
0.599223708880217 0.2592522042095027 -0.07283906617934122
0.5625931993857876 0.23705562231319277 -0.0882730662084441
0.5486024770287514 0.22734482006694634 0.06273781044428972
0.5620928403774741 0.22776915075530724 -0.0534656972874501
0.5112520821044626 0.15906002525602503 -0.13147898693256366
0.45966127075530494 0.2237408703555417 -0.013903853130784682
0.5156452093596329 0.26030667250371664 -0.05758705197709446
0.5448168660695671 0.25949907490503676 0.058720435951329364
0.4799191537782974 0.13342380690831135 -0.09851037615803193
0.5331274329644344 0.21139573028168002 -0.04119930058639909
0.5109222874172588 0.18743607480355706 -0.05317415629933464
0.5012959787041495 0.17780333850589614 -0.09830891490119598
0.6220844702937143 -0.232109761716913 -0.7980588207928179
0.5162328201384412 0.1897784471814532 -0.07831652562862246
0.5407085479518372 0.19019344035062602 0.012993808080125291
0.574203592302581 0.21148268777503176 -0.12575452256018593
0.48126340924450517 0.18450867390619408 -0.11518296435218645
0.45950147426904664 0.17995707655202864 -0.04083818883481172
0.4519673307997323 0.18109686096981648 -0.06167931282311656
0.5286597195285054 0.19017740097223168 -0.033161558000074365
0.5070278812206936 0.1838463154857095 -0.09050502500028301
0.4871849974979199 0.14959145287268427 -0.10105453991684499
0.48067229630612474 0.14065623544459527 -0.10805428448546195
0.4832792930771035 0.16472965255317717 -0.10798727669599373
0.49339124391869404 0.22752651380913846 -0.014174287143461584
0.4897965558595132 0.18149695901291807 -0.09361411377955164
0.4905534606017312 0.1762476549213403 -0.038121598927716605
0.5259446106956887 0.18924529089795783 -0.07792558826204754
0.5067462669081095 0.1621072712795808 -0.11834054639601277
0.49000228851396344 0.16587241773446237 -0.09311544615533762
0.4581682067897077 0.16877901405221962 -0.0593718105807568
0.560804128822852 0.16638732026500236 -0.06056477878041733
0.5721477411682088 0.18507823139560742 -0.07936086758982697
0.41725295888538483 0.16250385287615643 -0.022334748811005056
0.46546650374409637 0.29478699107889383 0.059428294358014
0.5352959197507943 0.3027459938555239 0.0202109856293049
0.4867353657651421 0.1475676165678408 -0.11593130099365112
0.42565568633808937 0.09328403525786655 -0.18205963559844918
0.5419546888965812 0.21808743012087461 -0.03814227652188151
0.5229235627224682 0.19315238767998721 -0.039321061291076376
0.4852915835641767 0.21041279426937365 0.04629232725076804
0.39090220486694705 0.12495677585994258 -0.10555116477529225
0.4402171605899099 0.19620885565461776 0.03619305346893498
0.5678347554542285 0.20760527237412418 -0.0993085074888711
0.5289898634478618 0.18887577390276533 -0.07717598100367695
0.5028978664167028 0.16617560016729271 -0.005959955066558109
0.5095978070066849 0.16481470070920068 -0.06255383413122217
0.4206443867324339 0.16012906799940652 -0.041011644603315744
0.5429444249097344 0.16555040773005203 -0.19272379958803754
0.31788781002391886 0.20183529743113127 -0.05896071786739299
0.44212743052750625 0.17761029382545246 -0.055568590600415746
0.5270267672251379 0.12580591641878414 -0.11563273580628675
0.01262403079444141 0.2227541590432196 -0.3679772111674424
0.48686125552414694 0.18895393783603254 -0.11395814042307961
0.5815271975382785 0.25173630941969805 -0.05244746597222161
0.4728199263392696 0.17590548819170237 -0.04320360627343689
0.4066040078429296 0.07371112031131588 -0.14168306662476482
0.5279917866981378 0.1812962132732423 -0.08270201810378808
0.5049470085224357 0.1783445390585996 -0.0646093701720929
0.48211062254854653 0.1667121317439353 -0.14938625838981068
0.5309627053328114 0.2014674843956925 -0.036264340599984735
0.49762525146608994 0.14410608101047728 -0.11073951357656142
0.46465959356264364 0.16193233901672954 -0.11654714446402181
0.46447553386907714 0.16812406740172037 -0.10257501092205246
0.4838115374973171 0.1718059944965944 -0.10610239616387673
0.4992254153085298 0.12717527516736027 -0.14923475588537372
0.32077566191178164 0.41513752793375147 -0.14857124600368365
0.4179016393195667 0.18072504900197828 -0.011761926317475968
0.4818053576397432 0.2888501770477774 0.05088337761262096
0.610634410675658 0.2016387340182746 -0.1354530003088712
0.5072896256403396 0.15817933022415787 -0.13414900262205265
0.47012165229293146 0.17096765435778138 -0.05920705251557479
0.6682161207882871 0.1282358878564196 -0.06989392468335609
0.5278933039820259 0.2180651048026192 -0.06855745193627172
0.5057989523278223 0.21401213429379595 -0.06705039852263894
0.5202985165655605 0.21145922688830865 -0.06218142461236198
0.4841185583007075 0.19926411810968148 -0.023196727605494516
0.46988749230128235 0.16992559263175622 -0.04865759896040345
0.5548837136356894 0.2432606652945708 0.026309117593541487
0.5067963346144211 0.15753533111067952 -0.08751084526443265
0.5484633209597689 0.22229763550973303 -0.08769513903570214
0.45561716883689485 -0.001697793924506641 -0.3338266768156899
0.4070793320782258 0.1627680051695961 -0.04860658722878952
0.4118066696812832 -0.05788763993187729 -0.24564301679465927
0.5275325429602731 0.2096924748364728 -0.07411190210569885
0.5081606229904736 0.16747534288927568 -0.09013871470990864
0.5086853316994819 0.19535724530206267 -0.04140513775125498
0.597057897634258 0.05354364619648777 -0.29098748227440296
0.47995394369580424 0.15862618287563635 -0.08012351883034796
0.5338885676829932 0.2617153395782168 0.01707575066708955
0.6707555155400797 0.24093231580940255 -0.03345865056334674
0.5326826355835976 0.1589462518393674 -0.09798414694188295
0.5515835033546921 0.22870725961256255 -0.08926566540716863
0.4417038127523796 0.20592380024071133 0.021295288741200125
0.41163382408733185 0.15737020277467195 -0.10553527891605086
0.5010138686570684 0.17410826285302505 -0.10760644802631703
0.551243763442713 0.25135356099292494 -0.01853149689378597
0.5455697926937404 0.21359347530479056 -0.07179408470088333
0.5816800112125406 0.2617211464185516 -0.07230376886218437
0.49291860459953796 0.1925550911812195 -0.05847498966805631
0.5142920900998149 0.22450390493560235 -0.054707283283221386
0.5719625348267243 0.18685834477547303 -0.07185932900176795
0.5780020380307462 0.1959289482850295 -0.04676942798590744
0.520377377916688 0.20437909249994846 -0.1335360568350552
0.5260295462693847 0.21009880119267166 -0.09720384095535906
0.5143748748685653 0.17535063793611982 -0.09631985847647684
0.6272335598099374 0.17834658386922797 -0.14450957708783108
0.5523384311808712 0.1924585532567562 -0.07031395455084066
0.48700560362578926 0.23827597902490538 -0.031958147086740496
0.540783491166863 0.15796178192162813 -0.13074781133326496
0.5081654155799242 0.24547798412190502 -0.010234171439293505
0.5372070865448251 0.20731733784813855 -0.06617647779756908
0.512759920404747 0.2587089910304883 -0.009862097676489157
0.4721406007044209 0.20457060451713005 -0.060173504409505085
0.4986482708351474 0.1803066838589018 -0.06993198787209565
0.4406112651997205 0.15766205950491496 -0.08772609334283743
0.5009059848436408 0.18330103940637343 -0.08676614495689705
0.5381238598885005 0.16532578657009367 -0.053394234044603195
0.42942230469948584 0.18723977372115996 0.0023445772811498955
0.47681722254495185 0.1954618663155543 -0.08478852081618982
0.4751882064560675 0.17169220235814464 -0.13317880198488297
0.4634392650663415 0.17609381232307442 -0.04296117203811889
0.48689782662127357 0.16420919153307523 -0.028476664398468188
0.5053844985286702 0.18579615607583833 -0.08223802218543597
0.48830926118749574 0.16349614109287813 -0.08390018548823264
0.5026422785583122 0.2035382475933858 -0.061763453113400146
0.5569220959032748 0.22346832698988806 -0.07265740760300332
0.5398476709645053 0.19153268900166154 -0.07580156526395854
0.5223021238520715 0.17389599570751102 -0.055945969973862475
0.571922599917869 0.17127118472993175 -0.10211330196571566
0.5353085104716797 0.1967581717807434 -0.06105695751639928
0.44822942791452647 0.14524794001397368 -0.09653816912089042
0.48203863163649885 0.21694889833693765 -0.015397876009018319
0.48909714831592055 0.17920819697553725 -0.07493563014614324
0.5636594535501445 0.2278107220678578 -0.05767176787318817
0.5390440056834223 0.25404632066241106 -0.07710317343665452
0.5187586507715736 0.22518813047025787 -0.06379897886183983
0.4480092925578134 0.18916547583702936 -0.04231736915292572
0.5575715652934861 0.19971985449288354 -0.05173271242750843
0.5666532978308396 0.2095222986983316 -0.15720361667507632
0.5893580275129864 0.2009562146109971 -0.09263870462761759
0.5153293825462981 0.18107271470663022 -0.07404446639742446
0.5700215764750851 0.20063868921857875 -0.08881380539152417
0.525555855113538 0.1809531969671383 -0.0873541792206538
0.5910433167126428 0.19473324744814136 -0.10788072427327222
0.4777201120626131 0.15507056518548268 -0.10864792512438726
0.3718692857496677 0.14675813534390159 -0.05376743260582373
0.47847831168346033 0.19919801751478872 -0.0842239187382745
0.5319702435165681 0.190329720592473 -0.1368763509441635
0.50753647059841 0.1814255756094667 -0.1192062012908508
0.4529849254476801 0.1607589079276721 -0.09773780895737616
0.4856452559253057 0.1780663688192874 -0.06119999532697307
0.5430507898949486 0.22525485203294693 -0.034931887847676535
0.5096955375089607 0.2085738927238765 -0.06161244098306895
0.5057753327170929 0.15797088087188627 -0.14551529798777096
0.5177679619557694 0.1862404302409857 -0.07007027287281176
0.488159506162404 0.15964140824888773 -0.08027045602071325
0.49902919215017505 0.17665238257228566 -0.06135368143260678
0.4848609555166945 0.181595258888251 -0.09485455276200128
0.5295302405993851 0.19086106279630144 -0.12144597731233375
0.4626348508317193 0.1863556485816389 -0.00578107230538194
0.5070176669720468 0.18882131000705726 0.024320064873649017
0.5597923032919283 0.19085481696374984 -0.16257592967787104
0.5043160390198125 0.20129424473098823 -0.05470240487741762
0.5239504348276967 0.20115714393584483 -0.09995632777467733
0.4542585059831197 0.2404668155841705 -0.022634196421080333
0.538349827464387 0.21863132138747687 -0.03805262515868435
0.6014112067128679 0.18320610198188092 -0.11525661531474896
0.5192503752717528 0.14490310641116366 -0.09357686766909978
0.5493777032349954 0.3367046391041413 -0.010736048526496234
0.49271499073978475 0.22311837376804533 -0.06552406739349692
0.44007015821740936 0.18077493689197865 -0.054814134976055584
0.4790360568857466 0.13181807519659117 -0.1946153204678751
0.48209662138167175 0.1812249897881486 -0.07522013258210336
0.5501061568153887 0.21265524139752756 -0.10521441423094302
0.65190133120349 0.2849416840040391 -0.15453074054767058
0.41212312021471575 0.08231704724468614 -0.08235834604431602
0.4414276947761522 0.15682140021706914 -0.07208993618162651
0.5087071529004277 0.1970753632369906 -0.04281265173938209
0.5495942382465415 0.2270661640714735 -0.04223102487105734
0.6462059821303683 0.32472204487302747 -0.11980377555860855
0.5261841223741612 0.21794281147239758 0.016285710449693624
0.5445345249275562 0.2697746832954522 -0.04842532366714636
0.5202937302175883 0.19586591485362703 -0.015641185228133736
0.6449555798489826 0.26113235686685243 -0.026049910770396423
0.5967096161651568 0.1579243628686413 -0.06878144394785579
0.49561875425854396 0.13871832278603335 0.046043484065677376
0.4806392306852416 0.18015697943803843 -0.04851771765839885
0.44095978435254324 0.2675917836501611 -1.0023442411129224
0.4679585765326095 0.21883277033354886 -0.07475723188983352
0.5313014083596386 0.20159826183871132 -0.08178130495919333
0.500399567407996 0.19058064058098978 -0.08409526551548652
0.5953298317190843 0.1642269572911914 -0.1598574990843531
0.526076771422197 0.15922174136917988 -0.08903648348035631
0.38178159480243323 0.15244839048529002 -0.08768261746573103
0.5568392506797295 0.20047070424286062 -0.07263276439904587
0.5715158258927886 0.19014454042482498 -0.11789390350885753
0.6317527787377202 0.3170418112058826 -0.19247513968022645
0.5034889918037635 0.1549549757203863 -0.17173081604499885
0.5968346109724649 0.23144791806114995 -0.08323011344340614
0.4521330893982025 0.32420444163199136 -0.08177356188654983
0.5188549744184314 0.16983035988468487 -0.09564595492278727
0.501497903091547 0.24973191706942544 0.004928044549046717
0.6602595836327936 0.14914053293793472 -0.09626573895153001
0.42725686350611625 0.19556082314169032 -0.04951726144912527
0.565935290594453 0.16948698547550123 -0.14770700781704704
0.48521207378938414 0.2308779818407345 -0.03150018607672678
0.5300871801058094 0.25750850528137903 -0.06078508735585331
0.5246614663344644 0.25062940495321584 0.03039326015297661
0.5033611712391348 0.1919081220025447 0.0030246620116543
0.4724045416704854 0.1818628625985781 -0.09051276986281209
0.4716768582719908 0.21530644889053008 0.024262881508917644
0.5000253812756483 0.10553037189839642 -0.13973552229634834
0.512309287972684 0.22749627081117296 -0.05127643896045697
0.45121664582491405 0.13288781920371662 -0.029461421394785248
0.5267196086159487 0.18029922993603975 -0.08921841853168644
0.5606096827810632 0.19056600932802326 -0.09622103290278972
0.4984207072041613 0.19744180721903604 -0.04128531914555822
0.4872817804426006 0.22848191242482585 -0.03235020120354193
0.487852518589321 0.21234152684161245 -0.09556617713326432
0.5341718576511596 0.1666606236897934 -0.031254622646883945
0.5639973396607587 0.2303218713005748 -0.09042036205508452
0.5152217576574145 0.1885540067497402 -0.08307633840956896
0.5657779067479254 0.18542902402694494 -0.08720719955498168
0.5156120501009553 0.1758953759010069 -0.09278299415147728
0.5588545994931451 0.20387848133711373 -0.10723984159486122
0.6138219021763547 0.23478643872780935 -0.040066099974268354
0.5613398541455297 0.19250067220437472 -0.08296677810709241
0.40917543841803194 0.21723596665222544 -0.08300591334915453
0.4824203971734846 0.1363634030529539 -0.1119068303925701
0.4078769907963533 0.20953231722094756 -0.01407646233963078
0.4980195544944621 0.2034856045880531 -0.05250717268532412
0.5666719635811148 0.1463047299307334 -0.11205892971946696
0.5244352513500417 0.1976575127828113 -0.058719156301208386
0.41654944515948955 0.16727132380603393 -0.06197905450827079
0.5079834468506306 0.2270001302027822 -0.02899457542763173
0.4524640999238301 0.2428008281382006 -0.005912301272829268
0.4477328386280277 0.2019878814322169 -0.03264966292424276
0.5749039967830356 0.19015366225121966 -0.047722985157165
0.5087871636991963 0.21223156226585616 -0.08988864208984637
0.4680302403684209 0.1755464462852956 -0.004229178704548531
0.6334990944055363 0.133437031352301 -0.06144686476631023
0.5275345882039346 0.2376693447116054 -0.0015614660383675982
0.42982958933292537 0.19305803487219464 -0.1336765772342119
0.5590485643594434 0.2212751103025994 -0.09010975468103766
0.15472343782415976 -0.13572381311860227 0.17828470271669516
0.44651747434379274 0.13791068931750772 -0.1393703602872165
0.4873391553486641 0.15496240476807088 -0.06536025060231054
0.5846903824219822 0.13661769041419802 -0.13897243905418577
0.49440455123840366 0.15000398080371724 -0.17087443906815736
0.30857732043942576 0.1975987271747499 -0.06844239928848594
0.5105566043387739 0.1948351800465673 -0.12652097320614075
0.40895241251156733 0.1628506006567676 -0.08542179312811982
0.5924129068262829 0.1886318209447495 -0.13048266608399217
0.4564583250580512 0.11671768138384664 -0.09416563469120831
0.4479889900740943 0.1838440352326529 -0.04827689038414462
0.5237037816929444 0.20391739487183713 -0.048589247170696126
0.545667979614251 0.20258094612424316 -0.07284872267970854
0.46972971988188306 0.11932489330541785 0.009594280840076408
0.524662048803151 0.17588097125073432 -0.1150997303147534
0.5429906505708004 0.19384193326621357 -0.1091790068743137
0.43548301627946273 0.2616552633074889 0.028359879643446106
0.4254110071947963 0.1326407772834557 -0.2169711235494418
0.504365848557967 0.21178797511879566 -0.0498665700038714
0.5931864588609272 0.2699345428259221 0.02691929112486946
0.49668394569366114 0.17048233009111868 -0.09891167809439594
0.5764109611869657 0.25559941799924957 0.0021800044166013777
0.6790856500364839 0.15574777375556437 -0.0614816137065759
0.4313237438564528 0.14992249371712774 -0.044570600063138954
0.48283092530905947 0.20042648112689676 -0.010101229646465981
0.43441794815512935 0.14481187636795312 -0.0798872828244157
0.4863754414786001 0.1708178090171515 -0.11505664329695264
0.45054566456497014 0.22573884469919392 -0.07442350345206705
0.48525866100510484 0.17922189459348203 -0.033016332783120106
0.5552662733026494 0.2891151319259109 -0.01560996023127359
0.4586800572945293 0.17251023505087915 -0.06864544582919052
0.5687985134436246 0.23318456625476358 -0.08613146587754272
0.50154631056364 0.2152985163583594 -0.07063719843000626
0.529015700753618 0.19865513520426248 -0.07031893905515574
0.4770882577879263 0.16072041143459614 -0.0994192035532393
0.5056985574990165 0.2197547389411625 -0.06353152377452886
0.5403731275104917 0.1828659503167387 -0.09465868991662774
0.48789645852333763 0.18378122513732364 -0.0501338248684533
0.5302953985205079 0.18896998397858056 -0.12710492209802737
0.5107211114647043 0.2380141006776455 -0.19118116330403723
0.510262944223868 0.177677158289697 -0.036860524362921865
0.463959666409437 0.18249492110444976 -0.07109277364139643
0.14503420576787107 -0.0034642395296913264 -0.06479759375594085
0.3967768266669225 0.1915709693125507 -0.10448019067676739
0.4711192136445703 0.056221381311473806 -0.16844190705504047
0.47539154859092037 0.19578970701515175 -0.020865360815292888
0.5082678797091944 0.21956488406220842 -0.056609535186765925
0.4291288704946936 0.35018773980247886 -0.19765307183602943
0.4469046225464126 0.1812202470545543 -0.07678706657689816
0.5338710341512893 0.18062437716650948 -0.1055739610921762
0.5341924372931715 0.2076357099062136 -0.08885883372785486
0.5391643679581648 0.2219978876183859 -0.07691273356195438
0.6059839097008393 0.2420701470644815 -0.08442841149177127
0.4015985468291632 0.09294752548633767 -0.11248732883636592
0.5210144329020494 0.2313634774358917 -0.00526086564104844
0.6244421402534641 0.23066684142101224 -0.05221084270401377
0.41901840311945193 0.17672577375432752 -0.011812340384608433
0.49691054921622424 0.1863009355964209 -0.06640564066807997
0.47357840922518335 0.26712733376672304 0.009612525920658754
0.5980936545161768 0.1869762882568864 -0.11224235814086114
0.5118638371050679 0.1716301664431512 -0.13938255760103857
0.5079149570501187 0.18073450144039782 -0.08914216516002682
0.49825181044441536 0.16135442856975146 -0.06650760842842374
0.5057352831952358 0.19755405942869686 -0.06210949107875763
0.5248704316890667 0.10520574293853713 -0.18487588283406353
0.6019976518956724 0.24613522540511212 -0.04037618816406052
0.4963700933151358 0.15282838747597793 -0.11440103627400333
0.520775156682447 0.16438886378003303 -0.08104736681342217
0.48389552039589034 0.18801990297261284 -0.06111390332463884
0.23885130992331938 0.10504215620684931 -0.03821029335666992
0.512919782756569 0.18566169611465 -0.06851685741877134
0.44028587095937155 0.21029081015639406 -0.06727985833632033
0.4859017159931085 0.18936476619114728 -0.0772255282802945
0.5886076408368268 0.2967428054124923 0.12536982479983294
0.523599314554545 0.18653709136619057 -0.05717753882498755
0.49859392023549276 0.16135504894748465 -0.06306629770369909
0.4828699162377603 0.1941499748116513 -0.003927176439987079
0.4469902757761872 0.1828012602596516 -0.04296997930239854
0.6618797076898773 0.2773875530172347 0.03819760811921924
0.45087925208373747 0.22119631169701393 -0.05517136166548653
0.527054975415183 0.18950100779564139 -0.10709297201989898
0.5765588823162915 0.1483354455848911 0.036501782285029094
0.48250117184072394 0.16650561168611944 -0.048117055897108685
0.410936869716096 0.20433195062855702 -0.07852916902319862
0.5657541675713844 0.22117238401409622 -0.03196061752743162
0.6095432341258373 0.15893391120201272 -0.1241430081671524
0.4962204734031417 0.1437340685765207 -0.1086156820902886
0.32210564319440493 0.017368581204507905 -0.20588402895155866
0.594306887582519 0.19529130853319998 -0.09578253993606722
0.5165043010124464 0.2045765429058406 -0.0049115973496896
0.5674217707413618 0.22386676620664048 -0.047162111700714604
0.5490342133743127 0.2254049659052697 -0.08527874008072445
0.6184376979217632 0.13122247158862876 -0.11613309069056754
0.4895125804651741 0.12334158552846475 -0.14386657833991023
0.5058234861479889 0.20874883762289187 -0.028466685439042294
0.4902994548037043 0.18845751818649603 -0.05121008660515258
0.5435241794131542 0.21686529010605682 -0.07076495605508626
0.49005980217872036 0.15105757913249818 -0.04433750408486503
0.4961218559740814 0.2795396089745026 0.040403516210616885
0.5079160889062564 0.22165504314368434 -0.04011340127649987
0.4900375030395594 0.13002749860785912 -0.1312009746496443
0.5237700182374709 0.2482504236756995 -0.1187063074553123
0.5399927076182109 0.16657653909922487 -0.05798807019988317
0.42551381686016043 0.1656566986326311 -0.047756394563293725
0.4340428917329291 0.20040140047728983 0.03882029375250795
0.6068274073737143 0.24230170806475826 -0.0835793942305969
0.5015237288418035 0.15429573333587143 -0.1366472108950063
0.5177738966345231 0.1745327222182027 -0.1164833688827116
0.5188467907352106 0.1960703236778869 -0.06960451960057412
0.583121961045947 0.25364604444853 -0.12984743468786064
0.4771108232324508 0.2039260532084768 -0.09573027387995126
0.4501555748194619 0.20240972367666643 -0.07888362537175908
0.49008650814954535 0.16928805889295973 -0.09565127544530583
0.5075692645129664 0.21607371901723127 -0.07552424519838041
0.5567315130343502 0.2067737197106112 -0.07669901181085947
0.6160313947956553 0.1618379311038325 -0.146877080569908
0.3420144313364091 0.2080774273919701 -0.004089446954978371
0.5504826875415603 0.15171274995938688 -0.10069718648927051
0.5162101212144989 0.16998135303248318 -0.10428646822397525
0.5886420568267141 0.2134300801867255 -0.03345899589029955
0.5370475891107986 0.09479247356580345 -0.19195859651156866
0.4962832593330546 0.18596539015518943 -0.07598956334929596
0.5054643444427 0.23123587078390528 -0.11308808779961055
0.438357651211291 0.2208983969680105 -0.05590451317182499
0.4925672553848841 0.17126331026042863 -0.09327008217715616
0.5043185600621882 0.16238997669762512 -0.09696882109986404
0.5577022266736407 0.18174649029782586 -0.08555383927712512
0.43944362279191296 0.15166188582510642 -0.06487153306001403
0.774706942334987 0.25297511419915963 -0.19732967279580294
0.5922405326526246 0.26911691994121156 0.049389640492705666
0.5040812720168475 0.20140140875768964 -0.0714200504481255
0.4531534641103576 0.13502381598165414 -0.15063382059044272
0.47327940369554256 0.13174660316741438 -0.11913611308807504
0.503975851331333 0.1845150893259131 -0.07931208915090338
0.4896052059079068 0.21189378437112794 -0.05287940956083048
0.5371565861837837 0.1318150927441195 -0.14739696708187466
0.5110467557516358 0.18641510702605046 -0.0857238490180805
0.5864197236255677 0.18431240392280301 -0.1441126958366965
0.46958127295718555 0.14035637592928651 -0.15505468932101962
0.5696930871795587 0.25524248333783817 0.046563268346602626
0.4657682406294157 0.22402153284733117 -0.006536151269529
0.5355125546577142 0.1990546618314113 -0.0790116067207407
0.49705064831618984 0.2235365795825146 -0.02466342634724583
0.5199225207481959 0.15437873753943165 0.00043028904735820106
0.3951724378623851 0.15095375833989522 -0.0192390294609055
0.5786629882499312 0.21371000138196905 -0.10939426935804875
0.42455414968779337 0.1389422967772589 -0.08914633947455286
0.5014475982612652 0.1512313920505619 -0.08947314972766662
0.4740184422237661 0.14982591433755488 -0.047896338510554415
0.4151560545852675 0.12875245060868679 -0.1832051007373252
0.590775415227327 0.19617326049235828 -0.09605647641060955
0.4538972085340731 0.18941326306898532 -0.07391631847468716
0.551809302574128 0.20253399527800298 -0.06267231621629321
0.41872210197479376 0.1885688394507099 -0.0904085509785233
0.7941042641271281 -2.1549809561907125 -2.0785426816451604
0.5934609593326883 0.24332828750476665 0.01300080198524256
0.41757008439670074 0.17218328857458687 -0.0905287194959783
0.5582983064157929 0.19115658650159162 -0.07129268056499427
0.4402294220997902 0.1838437664261363 -0.040714048178230655
0.5041559871268646 0.11223523263328161 -0.07524099575044829
0.4193953726355488 0.09899546786151348 -0.10277226105040427
0.5075532708922452 0.19450756457375462 -0.07474022225770227
0.46946875363576623 0.1894021870883762 -0.0932411455662816
0.5260024977697668 0.2286878063375326 -0.04574181306432479
0.5356388444940023 0.22948095741570285 -0.08209965794890195
0.5427641325431836 0.27535310974633376 0.07481541214704635
0.5107030456383086 0.1663232722273449 -0.04945872464905676
0.5231365020678993 0.2023474116683417 -0.056694376655059386
0.4458456320076749 0.15585451642633075 -0.09166085991233786
0.41686705670849733 0.2536785771104917 0.03426470578938279
0.4210046047385845 0.19691008318952186 -0.06929047603637173
0.4809482753694425 0.17176842286093574 -0.09706312088049174
0.5036500384376694 0.20964146585521348 -0.06226765311035365
0.4819194856243456 0.16685288542501553 -0.09815537787142148
0.5038649873237375 0.18821043614980226 -0.05469753461711946
0.5038734916295198 0.19459960071799287 -0.07118354530020099
0.46035923464233974 0.16737239907028822 -0.06546278911466175
0.5625800982680005 0.1063242108933764 -0.1369150630949889
0.6359499829716668 0.21945483201264437 -0.07741213468108299
0.44037209436451974 0.1458231110996735 -0.07220011029767193
0.6410895455737062 0.2772958515044195 0.04361437872532292
0.468368114677844 0.13003781643857337 -0.1690456361271231
0.5512941249275229 0.18679538961274034 -0.10847999615707238
0.5508564347162235 0.2272225840076061 -0.10691294416977826
0.49241713283085176 0.023381642702204886 -0.078342020389357
0.32551591401241353 0.1503425349275176 -0.09729176625458535
0.5366360467462954 0.2548792819815304 0.005573594725433395
0.509001667472873 0.14269600031789764 -0.11588216354653014
0.5271580116932313 0.18231034642921884 -0.09254117775500958
0.5203602010017221 0.20433251977195255 -0.07604641357019659
0.5069250977719264 0.2142290987157196 -0.06952548750051335
0.49584360998717614 0.18552145657440633 -0.07035706121226326
0.5423007596849061 0.1967817160988261 -0.08544984165797587
0.5133518393571848 0.20942736875119294 -0.06137866321967067
0.4734169288996526 0.15010303891040166 -0.12018530606944466
0.47962500029235855 0.21061642645184975 -0.0021698153956890565
0.4708107786737088 0.21068980607006438 -0.05942060874602362
0.4450698740776744 0.22676209311185858 -0.07643278490283478
0.4777833248017487 0.14758151510071116 -0.14653722264338853
0.4998575486349637 0.1420751507451996 -0.1433820038946152
0.4575123130191656 0.21018403040966405 -0.06854084278904793
0.507047288072215 0.2174634337395389 -0.021754272666171914
0.4296544371907771 0.11712253111055304 -0.1233558722887409
0.4876339903586313 0.1739858138530792 -0.007081851964301222
0.4849782448581976 0.16441957878598146 -0.05881831287972261
0.42548257617751517 0.19437640124721156 -0.06211123694292553
0.48460075933081725 0.16702174024203487 -0.14250326802441293
0.459482552652986 0.15020900848577412 -0.0409683386365316
0.48117044011102905 0.19676079599179275 -0.026258885325034953
0.49264757686283644 0.1118821409065589 0.05801666759870727
0.5002038759720904 0.18923580034092424 -0.054281076400783945
0.48138945386898513 0.20686909403463005 0.02693233539353912
0.5342313325358816 0.21045799447716718 -0.08094993841615405
0.43808502974344776 0.17290070751526798 -0.013471721919501078
0.5069264713058743 0.209199709976005 -0.13825190668882215
0.5017480173973894 0.20944862820901733 -0.05595597267101482
0.52706602497733 0.20622256746845835 -0.08034980662655755
0.44856047162220136 0.1957165330037185 -0.041926728564845916
0.6010109446614962 0.21395773887793723 -0.10062830120455146
0.4699463709177252 0.16762213640329549 -0.08424299399027291
0.4908836166153918 0.17745907720058085 -0.10041421023439057
0.42978224076642846 0.1671332597743742 -0.026858891909824933
0.5361774020465759 0.21190785597613626 -0.1008126137158456
0.4623193483438257 0.1445732075813737 -0.09994229947386657
0.516317252472902 0.14633723920685782 -0.1520637524129569
0.40394719493033904 0.14685802494418 -0.06881084885658595
0.5745209327087224 0.21445557690988437 -0.08869940405566012
0.4219226358592323 0.13350837769593227 -0.11910887189085884
0.5945725262134829 0.23369083502137755 -0.09939329006650155
0.47906822874392674 0.2001858097075626 -0.04083960051747226
0.491166567772126 0.22099863862408142 -0.020125891960972808
0.46136117113340447 0.15740530877144465 -0.07667318767614972
0.4018673880359671 0.44384641543905445 -0.041932354582201015
0.48878006275984376 0.20186514036248582 -0.03529919843361995
0.4732281681459227 0.144459536725833 -0.09452916864788108
0.4686820896978645 0.1968207482304507 -0.06304258445565836
0.5237427121649887 0.18535016740466403 -0.05892182703638582
0.7009845033034026 0.3784078588841169 -0.03603299944575156
0.45099494464481893 0.189482991088056 -0.024166240184740673
0.554259022201407 0.18147325502843614 -0.10400172838870958
0.478063590274985 0.1768198459668895 -0.05771875395124937
0.5110156399794903 0.1775728167957169 -0.056502816474505835
0.5030725871241088 0.19052618997662307 -0.0570482687045768
0.4569041686018096 0.1676709053550809 -0.059777253074841497
0.538940034322664 0.16855929340346165 -0.11079031186787347
0.5844686258080145 0.33680618657427885 -0.16175646304608904
0.47334369033288226 0.1592190061548422 -0.0934080827666719
0.545118311291759 0.21581964612624915 -0.09416828932396015
0.5349361696523118 0.20216225078777939 -0.06250591977332931
0.496354909913336 0.15354002952412316 -0.08437198577451
0.5317982328770796 0.17325674036058558 -0.07470126291265444
0.5417519554554815 0.25004022894680134 -0.08577994837577307
0.4988305532148729 0.19549676507024571 -0.11578582142269056
0.49276954400876605 0.1929586664235785 -0.07354523359583709
0.4519010157847845 0.16501079129753293 -0.04707315260617406
0.4956318015063914 0.3261948026945163 -0.011710292410214151
0.49033052762511886 0.20273915482675875 -0.07198803132448006
0.5125698146925117 0.18508127625635495 -0.06440519065637318
0.5512014371855543 0.19428870826129696 -0.1802350453657766
0.5304095972577727 0.24063414145783213 -0.06865007256088518
0.4486170434322645 0.1805998150063317 -0.08186198152679935
0.6035926281255684 0.1936113402935007 -0.08433872246726537
0.5064848098316048 0.2099622637363865 -0.07174942432604325
0.5387508384304169 0.18182126716844493 -0.08305424389311611
0.4302490081963981 0.14257223069229497 -0.07751384987416543
0.5699212930581297 0.21087080289989046 -0.06047481781750719
0.47842072855499396 0.15173889675011765 -0.1444856245902315
0.4606784655626228 0.16979616370865358 -0.010539009570464941
0.4806026417627294 0.1439910235190922 -0.04978988542595175
0.4698276114744573 0.20282079496597305 -0.1232620544029146
0.5691168442174614 0.22467708628805383 -0.08036515310431014
0.5031743273619327 0.1767792439668483 -0.07314714464186522
0.39256167298525213 0.24503453556539512 -0.22091824602242127
0.44473278868521504 0.16547304311129096 -0.07553793618484406
0.5361436778851214 0.1480920906665233 -0.1407288204738535
0.5031622275407415 0.22919736472590557 0.009162840136809791
0.5237555821246076 0.1582440877722604 -0.15936447687802513
0.487673662765971 0.1712613493313171 -0.08734296042369749
0.5062015160022781 0.216418619628314 -0.08836413740120008
0.5593539886845207 0.0972199039772903 -0.20613420200507448
0.6138974655316787 0.2751955983366088 -0.06024757234681033
0.4396747533458978 0.21074665703267215 0.04477122614545692
0.5081673377798097 0.18428715198564305 -0.08437167239932819
0.44107325237217765 0.15956103805430644 -0.16037805425503393
0.5570519616321974 0.1828622745190387 -0.08002124155289891
0.13505982165294483 0.329639752223045 -0.16249853548633553
0.5138056312169255 0.22226182737989575 -0.06053600850700036
0.37555333941040203 0.271985318558535 -0.053550265040030354
0.61796959573077 0.22837602740247576 -0.1007773110303134
0.4990998249970602 0.24846995962892038 -0.03349978540214238
0.4997773686161935 0.18538471065018314 -0.07361399627248488
0.5500862100144701 0.24362786917220092 -0.05371694991524123
0.33478193266655865 0.10393325582637658 -0.08607038915170051
0.34041412436101837 0.19889170988534488 -0.025971360304907876
0.44623022318805283 0.15827471474125332 -0.06217110852568908
0.44203367591873644 0.18815615257281593 -0.03416214477471158
0.46620607780066337 0.14705141987188597 -0.05609849627910535
0.4902565859666339 0.20771928365221015 -0.030088938745294058
0.4280061712831582 0.22456333226378433 -0.08185454700340244
0.5019944630032853 0.17522329493039024 -0.08428648758022916
0.4996063416178913 0.1940094693293304 -0.1465537553996512
0.49878560335832844 0.20157620514427776 -0.07618196126560406
0.5167270540000288 0.17600751208358645 -0.06546322861716192
0.5529340772523739 0.18395975165992695 -0.11506764314395923
0.5001699063080025 0.14749362770075436 -0.11142282525854341
0.5959890200976758 0.20500953773266417 -0.11419825056708532
0.469806710928097 0.06986495420723315 -0.12964460141978407
0.5229711364855802 0.20563293353259837 -0.048876566969624946
0.5981136214390546 0.19777490341076032 -0.03230772721320818
0.5083940624075609 0.19501324324525626 -0.06261135739018187
0.4784024479989313 0.17299254923693752 -0.043083116396431365
0.33115226993446356 0.2652278268447219 -0.1890647883363954
0.5020164868162027 0.18503342885027507 -0.07542919964346595
0.6960928811910492 0.06351731818192263 0.023292714623067923
0.46681061630742704 0.18676739744503834 -0.017098651616549887
0.5442613285853497 0.20041603543776887 -0.06160536029747732
0.4099047957385835 0.27282265019270824 -0.040067774702947645
0.5659684438076056 0.27729952877061237 -0.06697014182535099
0.5614517886381947 0.1719248758502374 -0.025601407594209036
0.4128487397827172 0.0802977830193754 -0.10666231362473866
0.4445429931935081 0.1630951852091016 -0.052624023286156785
0.43137709013241476 0.22832706907126976 -0.04045267808680819
0.47275550572759073 0.17283192150281934 -0.06380763177054405
0.5116040431154119 0.1620280459071637 -0.11671738368100648
0.5248175873939118 0.19210761195998316 -0.05887324449381026
0.5693226020178628 0.2839567717992395 -0.07374041658380293
0.4971981817509459 0.1957769022025957 -0.0696609511066697
0.5440072091067805 0.24521871126427186 -0.006058611075346221
0.5681667643185477 0.2623975897512878 0.015469128087886475
0.5823879265903713 0.2531362268347408 0.1427304113663581
0.5248952207251705 0.19746710135446222 -0.038773957943718074
0.5059611514657689 0.21038444474044127 -0.04264219725681073
0.5203940895202521 0.15376607661175967 -0.06954962740857695
0.4966225032322029 0.2049163906721958 -0.06139965904056055
0.5437032268499564 0.16083427588611698 -0.11878180694736784
0.45932437573799234 0.16314446837800745 -0.03818222249313408
0.5038843953678196 0.21239873820019284 -0.02161985585505022
0.6339912939781556 0.034919642764322134 -0.2811729578560005
-0.40065000981770993 0.1396841107846285 -0.36168362494659334
0.5225546302594353 0.2000946993148034 -0.04174832688892138
0.45205636948176675 0.16873852229373654 -0.06551773667499106
0.5699723490735806 0.28843757757209687 -0.0027538935425184263
0.5412411895669891 0.24066269847205035 -0.030537203088755405
0.4932366519520457 0.22770960582317912 -0.03731461559640081
0.6057383336378166 0.19188791866372412 -0.02679783132637681
0.7540157512270866 1.0239842796376735 -0.254230611833691
0.4473887558718843 0.20320665912777258 -0.0277378002928117
0.5341519589041752 0.16220059026471745 -0.1437191833145448
0.5589997961616575 0.21480875867027294 -0.041191347348330964
0.5146019369249046 0.1957840841400582 -0.07762717502311034
0.5076217871175857 0.18350937405760703 -0.09541630838566562
0.4946391796932943 0.1438694089371637 -0.12975789911843094
0.5408539159841581 0.20078344329709807 -0.05870790980375773
0.5153223350593947 0.18484595809721327 -0.06452277337538703
0.5622901051974338 0.22499628555264906 -0.12771993160720285
0.5116104709940572 0.1965871183516299 -0.10212883714135046
0.5191086648020331 0.1934649578883807 -0.09883202508149225
0.4531409740201582 0.21133356022963312 -0.04072925298871155
0.5741336021663841 0.16007546484127033 -0.13049971389378356
0.49870772894057325 0.1530326185286981 -0.11229415653988895
0.4797416245942685 0.19775666280818882 -0.02536732007169462
0.5059953696075894 0.21848045520178516 -0.07287022705341428
0.5137580830504049 0.2501441801502864 0.016937806306401626
0.5128580409307375 0.23039949726138786 -0.026697852086726925
0.5057994251531426 0.22375390184444655 -0.09025243267404903
0.5746124407923077 0.23334262352470603 -0.08112539878852942
0.5178077713036231 0.1870759269812936 -0.09626453280901615
