# .PCD v0.7 - Point Cloud Data file format
VERSION .7
FIELDS x y z
SIZE 4 4 4 
TYPE F F F 
COUNT 1 1 1 
WIDTH 799
HEIGHT 1 
VIEWPOINT 0 0 0 1 0 0 0 
POINTS 799
DATA ascii 
0.5425427446490971 0.21741305449910442 -0.06281193720064948
0.4784674258304875 0.17907667203999722 -0.08127334411418019
0.43875569048185525 0.16303373478791627 -0.09437731275227179
0.5246033898567646 0.17383807875738455 -0.06380461728460318
0.4195821295484876 0.1137628167705742 -0.03673077010435577
0.40180947950862844 0.15656750197533142 -0.025851960176424882
0.5016346662634419 0.19354583903486855 -0.07331252876323902
0.5479277596772363 0.18945250837447247 -0.10214216912262941
0.4907013957281521 0.10787195451538878 -0.17100089141140984
0.48536885323233037 0.18747186113310477 -0.04435674188596295
0.43172959541639955 0.3432379800410388 -0.14718510155393005
0.4688449801479635 0.2018095609566899 -0.01951574522450983
0.5429530198023969 0.1833985985815474 -0.07219668339649843
0.4292062288449756 0.19349627912676226 -0.13728745012585364
0.5407254608552563 0.2379817772038848 -0.11275879333405214
0.4995833779058927 0.19711487911322934 -0.06759196832200587
0.6521774732002541 0.24948239131049377 -0.23581251547025772
0.49491802517100325 0.18984143343784865 -0.09118867475763182
0.37962856680451296 0.10267897934429016 -0.1403585047533511
0.5928032997643982 0.19525965539826018 -0.13588457573544588
0.3859451277592143 0.20401388737116122 0.07448500748435549
0.5503602695586665 0.15396857675304432 -0.12761487405009575
0.5305809725721389 0.2280078841766624 -0.019140583461535243
0.5341612289796842 0.1976254263849171 -0.08614646195451314
0.5157269510968518 0.23003836359998786 0.0590762540253138
0.5009520155848008 0.18456929535832955 -0.06279690202805455
0.4377538307425368 0.18055478529549873 0.0007817328580301819
0.5457208494586894 0.2504559842986396 -0.10697790905766169
0.8008078469560189 0.09673266048119444 0.2819993877096749
0.44885351292063547 0.2122602437825094 -0.008290514239831737
0.5477886147004227 0.17960479738223967 -0.05544236707700634
0.48224132067329606 0.12827230524055722 -0.14783682412456756
0.44490918265226753 0.22209316889504294 -0.0013906774823055912
0.48214059550205945 0.11148734348225275 -0.15574486228391038
0.5407528392088494 0.1674529833908167 -0.10362073303690522
0.5018323140067906 0.16935378571795923 -0.0793704970037652
0.4829234370706672 0.165032682343778 -0.05779162308584773
-0.38103563214043845 -0.16505813514808665 1.4261130916954698
0.5145774054066834 0.1802517567237203 -0.09094060020589723
0.522855882602471 0.19614295817962102 -0.08117468299312236
0.5081073440443618 0.1910700157158658 -0.07484737676216469
0.5222005672210486 0.20299044057472315 -0.059519274698146774
0.4651270189116161 0.21173437716637977 0.001766119981311931
0.41713044299996227 0.2044549742562083 -0.0897309410438254
0.5288807836166427 0.18708996950144297 -0.0722860016321647
0.47138141396320066 -0.6543818313691361 -0.004024319156457068
0.3427799273367498 0.2313571865481947 -0.21701921902840127
0.5761406862085465 0.1950184858683599 -0.08337282523365275
0.4823834994027152 0.13240411315263145 -0.0486017147173925
0.525613849435743 0.21459094379787302 0.07045602372906501
0.5045648480296592 0.16493560673875152 -0.0505615877837613
0.537572081055572 0.22172875828456995 -0.046307062154539835
0.6112787852863164 0.19372223314164216 -0.11391619538835585
0.4197029206351317 0.10215187012767046 -0.06952232327674324
0.502928765707523 0.18046485832601888 -0.055679409049531614
0.591755378448994 0.20208565910380116 -0.13298764964662269
0.39044781564945197 0.14091079021437736 -0.09331135041560401
0.4856888747324035 0.15666636143352264 -0.09362931593850021
0.4762289563104929 0.1814609867811896 -0.11350201801164417
0.5736518704868843 0.3066817098355017 0.046634415237946314
0.5415145368425556 0.18960027517908884 -0.13560343776430273
0.5742872174341045 0.21912122841905557 -0.08971292112195783
0.6316969461343405 0.1689135977319438 0.005930316829278581
0.4873730582829978 0.13540231576382666 -0.08291833725414222
0.3486356026780726 0.16968740188293907 -0.0864236361468329
0.41694649170838716 0.16219234015223094 -0.08048164680886316
0.6184761079720289 0.236511913610002 -0.010945066755823518
0.4772476890809969 0.1463019010635378 -0.1280023006615636
0.5139565474194114 0.20019948603676596 -0.05692252243704843
0.5443404528308236 0.1829295565879221 -0.08003121449021933
0.4666017422124753 0.2089055584328321 -0.012148789158004547
0.4579796979466977 0.1836838837243704 -0.1903448071283549
0.6032335677673899 0.26734912694301727 0.028312710757234072
0.5053593678744193 0.2019705669651728 -0.08833347508121392
0.4373562642637694 0.20526215044975515 -0.055389419478871105
0.4536184477440912 0.2500847673412494 -0.09742470651204371
0.5728392222547996 0.2180739142823711 -0.06732205001722491
0.5196410871694042 0.19811879112921815 -0.0637627804815395
0.45361809440994705 0.17573379480869278 -0.03639088127403056
0.45899167559974785 0.16343191564433823 -0.04621237242810139
0.5313967443235583 0.2222411778245572 -0.03395260902647124
0.5293045182449561 0.2020000651971685 -0.10064834793487876
0.4223724968274496 0.14022877128226696 -0.053597893367879124
0.5331566330826831 0.19616419170411348 -0.09122024434500986
0.4527415830298054 0.205553412953833 -0.11505438715261107
0.516500268227901 0.18652180694846265 -0.08790325286975076
0.5809646541713818 0.2047101544525276 -0.07139105749655528
0.5761162044932604 0.22505975823955282 -0.07844354859571467
0.45312767934221654 0.20166593877483763 -0.021117595140538015
0.49584698667594296 0.09320846506892622 -0.13777918064764094
0.48522983415394094 0.15587311385382918 -0.2035199351677477
0.5242769447528701 0.18901672574800443 -0.07338613122277593
0.5162320739240442 0.19861835694987917 -0.06255936674341456
0.6530288060969553 0.06278150246643577 -0.028522475525107893
0.4496184672771335 0.1480889212769796 -0.13585360274865366
0.5790798302275846 0.1899949984472471 -0.10435976496603416
0.4543358378303992 0.12466080566640869 -0.10359028169017392
0.49451010166689 0.17430721035141516 -0.07776797222871323
0.8116825617698993 0.4267156951715805 -0.059317708192537566
0.5014866008540793 0.1949470678089824 -0.07807924228080765
0.44738351575857394 0.1515871955753596 -0.07819694105214126
0.514071721623722 0.21736731398998188 -0.044256838124482556
0.34992172489451434 0.1576037362201248 -0.06657071348482191
1.1332428960010077 0.04074296629910634 0.5511907159565794
0.4971628809616959 0.1814309885868397 -0.0492848331645348
0.4644861978863162 0.12614642681674582 -0.14652345076368078
0.4883691590986956 0.19579534548689992 -0.051980897369247714
0.18086205051525894 0.19978837270505778 0.3667055851004193
0.49438934959694336 0.19971550334147992 0.03181339644726222
0.5048198653648228 0.23995129952442085 0.018148234037425937
0.44271744314173134 0.09208885433612579 -0.10156221396090359
0.7223801717408378 0.2548941490315144 -0.0302520530296988
0.4894427298316373 0.18779255766132508 -0.05307650520953189
0.5417699368227176 0.20814235938544812 -0.04402169737349482
0.977229519342643 0.030510313636909814 0.17904070315458398
0.4187245205871193 0.18784723007249227 -0.049627937173823966
0.4235952015566369 0.0996173898561068 -0.10365590922063461
0.5983637340041668 0.19147491373163916 -0.11376955213711426
0.5147615282144073 0.1977708860314067 -0.019723360633008724
0.5549274258709431 0.19559072607655992 -0.09419517599474148
0.481549495015102 0.18156164334948244 -0.07243688035106288
0.518538200222082 0.18013826379082332 -0.11213749142683582
0.5608103056718363 0.24595390980211107 -0.0649371949193096
0.5208097460032377 0.21265477070006966 -0.0829238862124555
0.4076788616531104 0.2193243607779607 0.001079420165837064
0.5407997564386307 0.19504113837660952 -0.05799702626782732
0.5596763401160274 0.2294670056682122 -0.08002184743475027
0.4644338884662176 0.22221435294956393 -0.07168046054749766
0.46977149361906356 0.18948048867262912 -0.07810422070252798
0.5087138837910885 0.18670053642230755 -0.06798509746127479
0.50601284343891 0.22177572840850246 -0.029421806232818426
0.5281349401551978 0.22652372916383 -0.03388949244370565
0.5338763815731937 0.2025019694156498 -0.05306044926021514
0.4571962279283497 0.21386469618963133 0.102272595820466
0.4128160205088136 0.14844336064473396 -0.05401212344750661
0.5148629009344603 0.2176157726626684 -0.05178751911645918
0.5012070810261804 0.23211568040591146 -0.07263089312948523
0.5044367648200563 0.18272413942855792 -0.0603407055280627
0.42844779485426443 0.20199570462921201 -0.018316922899373367
0.4971592899685078 0.1560582586667465 -0.1099367106652096
0.46213095665653725 0.19937388743588258 -0.04204131953420642
0.42109553765013175 0.11613070299620176 -0.14762247424533825
0.5155913119840676 0.21602325971670666 -0.023876333768356517
0.6083207233221515 0.19245577443766138 -0.19100450395086455
0.4579255763504335 0.2513653881397886 -0.024174620828290472
0.5541825337873547 0.12048636861510431 -0.15992827923173536
0.5726531761832376 0.2185589465091482 -0.10074622815821499
0.46592036457924735 0.1698654495703522 -0.029109807936691823
0.4643603256498636 0.11402439930949981 -0.09817768024149132
0.4810156049182268 0.1652400070908584 -0.14605402033706127
0.6584112849143509 0.25620446826536636 0.2741903526204226
0.4676686169229498 0.2770654216620585 -0.015299906435103594
0.5060391154667911 0.2054567658865949 -0.024334246805324256
0.5983333679929075 0.2602592262511081 -0.06971569056418048
0.48187302997241943 0.17044413945981773 -0.08472669492084606
0.3919853805908957 0.12726529293814792 -0.10944946040660852
0.49400262641603376 0.20484739757023362 -0.0734890718498491
0.21655004076902173 0.12265792328815905 -0.21460989243416861
0.595253222162313 0.20347445186729374 -0.09729511556722059
0.47406525288297985 0.1734729503604342 -0.06415016118833705
0.506250504020116 0.16405452376659468 -0.05550554047866285
0.5476790858166964 0.22636194304851642 -0.07406292695799266
0.6548713841947631 0.31377495458264093 0.032472172268882105
0.43618323309921436 0.21239058148422885 -0.03293483805586561
0.548588272522295 0.210424532976333 -0.055649732887872005
0.4933201647503296 0.19828024173324366 -0.015356595082977265
0.5195551240752962 0.16960376458531812 -0.08128040116633883
0.5033784215876977 0.19069529742364466 -0.08076454386036858
0.46364297832965917 0.10629449017281445 -0.14453986489073145
0.5206536803849957 0.21723593168864852 -0.03309307033819664
0.5627701103940979 0.19217600952927683 -0.11040194588437657
0.5240449518482535 0.15597792484081197 -0.07143794399041781
0.4723892447454574 0.1927806201300939 -0.02693774670248672
0.4660289815960539 0.07392716191310456 -0.11903089405953438
0.5849178845881795 0.22428458690245634 -0.05042113165382034
0.6099121906803902 0.2051871135113288 -0.11748620589580128
0.5824977048874018 0.1847343907171819 -0.08782291631956696
0.48684889239426354 0.14016181824403873 -0.08084416572074815
0.512508809536655 0.18021721064665996 -0.041264171965792684
0.45950242683660747 0.17195064143785999 -0.11057605179641428
0.48252957123978035 0.12842851766964714 -0.11313256712722364
0.5561651602458682 0.12974661618903838 -0.14662218829653284
0.42842995100839687 0.14335637922296485 -0.10684281406670948
0.6773243915251612 0.24720070717009435 -0.08141050298326036
0.41080615035693313 0.17040590111518839 -0.07141406701842357
0.6271061424397999 0.20836397474857904 -0.047293060924346264
0.5178351437677264 0.20043412860660226 -0.06603471332567779
0.4696383166058524 0.14912608309964526 -0.08973986908577558
0.5555596504688936 0.18151793303258046 -0.10779307957980677
0.43239825463621173 0.18761657102305662 -0.001743223737975086
0.5178230464005367 0.18799306547415995 -0.06002573723387172
0.501661963804608 0.1977101660337155 -0.07107873801137998
0.5439172155034697 0.19234311335981147 -0.15973621811559724
0.5836855837873998 0.16349658952655943 -0.08377180226588621
0.49702584644720105 0.15994163373380843 -0.09777189634888828
0.5409795559894235 0.15632814478826162 -0.1478072322997548
0.5484519696397001 0.26911947604797604 0.002707325049755127
0.49999944035249655 0.15394785081616646 -0.12706703260664653
0.4862845757684511 0.20894252363214605 -0.040267400256368546
0.5115084734002835 0.16595789478478196 -0.07646553277049861
0.5029809717501195 0.23671904607364525 -0.03474510012193832
0.5044785958884148 0.17142659648636993 -0.0669416824894995
0.48598220259820835 0.20792528461865345 -0.03928939414495858
0.38185004823702684 0.12762289396926008 -0.1295036797177147
0.6163760189202918 0.1641888315182598 0.021961760203481617
0.5232072019252456 0.20296222861438196 -0.06902786125758098
0.6173533305272798 0.22127383021202718 -0.10130513210629033
0.6011831472100511 0.26307369867879515 -0.01931980037198855
0.38303418337794426 0.13758332056193012 -0.05343030486071143
0.5727444809585052 0.1819832578732985 -0.09466989280312532
0.5503411213979774 0.21461115585239554 -0.036010205088160774
0.5005412323071852 0.2128828450547644 -0.05578271221142472
0.5378800894062579 0.23276257214729412 -0.022657222787273668
0.5193651486796114 0.17923961258594545 -0.07043673699567421
0.5985219777336823 0.20582316865218786 -0.17648413256364393
0.5331901854471539 0.15601451177096237 -0.06043010744772914
0.504631611328918 0.17450955841125904 -0.07455011516765353
0.5154443986366744 0.23208597890243254 -0.009461217374820308
0.6321439809169505 0.2606072523954879 0.017375784619616752
0.4888871831944499 0.18771681583091038 -0.030506102992546857
0.5953341997980743 0.3425092476167322 -0.08253980278385598
0.5187528079695056 0.2414010790012071 -0.04973066964652162
0.5461190064291941 0.22440657270016118 -0.0687463489304605
0.4998839385350209 0.1374585660886396 -0.1411528077482842
0.4322271621785063 0.19061331769474066 -0.05383118015330979
0.46156473153348543 0.062983884511425 -0.14395565045319358
0.44032700455804274 0.18229270278911258 -0.03358752003481413
0.5738404008973674 0.18304734657721156 0.003623691326623657
0.44226438650335353 0.16496011732084526 -0.05480498900385555
0.468150588172378 0.1989667636546102 0.008684108425569548
0.4772919949668051 0.2737760791505366 0.026136167912881092
0.30186267951634704 0.1606244668143546 -0.07793512676090586
0.542339579230358 0.2094712646046446 -0.08710410326750662
0.600662757429518 0.22056449484682616 -0.048693932034069576
0.5441244519592345 0.21838226011290374 -0.06528997362164546
0.5563197140557037 0.20986320171375894 -0.03867723991621119
0.5131197897659092 0.20274135875612842 -0.06635486358382536
0.687333960387221 0.2184347360831964 -0.06727822963222252
0.6064699256614574 0.2127688829662162 -0.06648519978949707
0.5497589383356285 0.24050370006524702 -0.08459675728090588
0.48973424565839707 0.14676257469423604 -0.11017648172318673
0.44821342985962076 0.1402304422461924 -0.08951146453668457
0.48513194334496745 0.1834471000117759 -0.07750248924403991
0.5399295597879785 0.22151075329097125 -0.02799507309555338
0.5514245323416844 0.26512129542206253 -0.09096267189843843
0.49390190317767235 0.1993601229449098 -0.0345089935527767
0.44591572132833335 0.20141564984780302 -0.014491344653606575
0.5409843723655996 0.21082809248596845 -0.05755142768188648
0.4371213769306195 0.23421698321642737 -0.02976818864578945
0.40882778565527644 0.06742063150110766 -0.1476740864397641
0.5044813235560213 0.1988082141994596 -0.06112541020488038
0.5252194414719753 0.21837481134259917 -0.07654415525186664
0.6395147374078363 0.23732372928844825 0.7002551083885749
0.43615039979495407 0.14005291644251372 -0.15646089182598644
0.5073063678612613 0.23385559536927758 -0.0004768213358659068
0.46587938663769535 0.18027438840923082 -0.0537053533628864
0.3952067036543241 0.11914531061722755 -0.0677063511964775
0.5695001751274589 0.199087392147959 -0.14586887987917407
0.5855368933738845 0.24268469269178183 -0.07014754600163542
0.5111933235652089 0.13824384675422152 -0.057578827198142335
0.5026801245401344 0.22315483024271998 -0.08710346463561791
0.48339391068982707 0.16960591337650044 -0.0046461462758315974
0.4485925779264903 0.1825575330491631 -0.04110249114503972
0.43929616495323387 0.1937445664908921 -0.005124533285993493
0.4162708198210652 0.16117463737111848 -0.01704967554741188
0.5106302260726494 0.19710267369603685 -0.05014265806903495
0.5093183582278726 0.30266613448648627 -0.0023254304812212467
0.43016393656829166 0.28420425359779244 0.053635901258275
0.4821519843384152 0.18340579644910804 -0.0787103603099979
0.5439406745547899 0.2190598681201834 -0.06983578519370326
0.5068278201510594 0.23523731290819683 -0.02862463206449206
0.5025234710625881 0.21718240584468163 -0.049397433473416186
0.4760955433819163 0.18254541257664414 -0.07095341918619624
0.5919393110541336 -0.004814568238842298 -0.15847357960032582
0.42861727680478623 0.19746735657298586 -0.07848165900148274
0.5711282054753894 0.17339180469289772 -0.13742425527942714
0.46520129788714826 0.1624903389096488 -0.07381798980856047
0.4668543789851185 0.191316195883374 -0.0072258783180814135
0.4980850172860869 0.19273357606166996 -0.05067621828223423
0.521272972204585 0.2269432799020592 -0.05221584510988464
0.6571608873772732 0.30492606348502704 0.040237208858826534
0.4547225070651706 0.1744505865739825 -0.06546657202767392
0.45254201338175903 0.21457572183965112 -0.05077036410477831
0.470263109222671 0.09990572270231723 -0.19716800348982133
0.5172782493187924 0.21653072849488808 -0.04174986854428653
0.6202878993126717 0.2720130916592325 -0.06584039064955505
0.5954509453192856 0.22021494453888124 -0.025272057972358652
0.5454719101620782 0.20074507633270855 -0.04661477121936741
0.5852443199299415 0.24686048912752767 -0.056138693445547005
0.4780458848667166 0.1602885519167785 -0.11325107427796866
0.5125131763759185 0.1883584264819831 -0.05742827301017428
0.5033920454732339 0.20736945649636596 -0.012380627102544395
0.6154403967143196 0.20449693893755239 -0.06064985602085926
0.5302604680247356 0.18699729391698838 -0.08171217887377225
0.5419708833003938 0.16709986937476629 -0.012333729443554375
0.42143514993492204 0.16534809343980328 -0.12383894178719856
0.42886032594402934 0.20649376505710393 0.016986198302390676
0.4575419718470215 0.21200926138689624 -0.04487950257171747
0.516439989919661 0.2070051310009262 -0.08763449911435828
0.4966034953746856 0.19559542194392066 -0.053167849050652194
0.48800370655418135 0.20281612666322246 -0.08817502966894608
0.5254316990499603 0.21732275472794527 -0.058679231560091694
0.506009159491839 0.14512365885661893 -0.06237975412511787
0.4989601936406274 0.1605470023789195 -0.10935366348201114
0.5245915130217043 0.20301582035781962 -0.05476117112655743
0.4480164323831275 0.21302608904576914 -0.016683703892624635
0.7225549647020415 0.48715390066669784 0.43074936555615295
0.49253309292149083 0.16722818217378688 -0.0464173929370304
0.5594767463425825 0.21652225561052774 -0.08861145581229835
0.45787427687461957 0.22394407926518056 -0.043592712741855166
0.4935483926837918 0.18612642782218813 -0.062124064128312284
0.5556153704303597 0.20153299218615928 -0.10375201408774615
0.4767779232851552 0.16811302977728815 -0.09248286976318809
0.5178497264683415 0.1951044631902903 -0.06549893718232624
0.5160510475836304 0.24100710714746754 -0.05879722309327917
0.48474621657990724 0.11500217348142883 -0.1368390552038079
0.5267169128747042 0.1924017161724123 -0.09510108774600212
0.4811153788420057 0.17343123973782326 -0.056807320436973896
0.4444381959836363 0.18307013094806734 -0.053157244002790094
0.5553915331298072 0.2819415888472463 -0.0027765083604833762
0.5717031225756841 0.20172884597512564 -0.1098786168472543
0.5015615691335569 0.20193490439223183 -0.026390518455542633
0.5635602838846125 0.24076603034612276 -0.042430698326029415
0.45590471406750055 0.1576617632022419 -0.0499462227398908
0.3481066910426591 0.11765061715483682 -0.06251304774406208
0.4442252811488032 0.18621452827449048 -0.04425163637765195
0.5246455810487589 0.272452617205559 0.019173424667684458
0.563431692280929 0.13941490712755922 -0.11008450572563788
0.48938609193744753 0.18914059439825337 -0.048110709277324304
0.47297714275512703 0.16973535113967841 -0.0552327400490924
0.5659588959476309 0.22678333172621024 -0.0796264872400343
0.4679391512479185 0.17296360937118038 -0.051864251250350435
0.4550709019484458 0.1344250906745117 -0.09758805643198798
0.42858288479462203 0.162746530415518 -0.11043173332350875
0.4418309898414492 0.1639769250302976 -0.04254199670808134
0.5157741114441308 0.17900951342343774 -0.06347834742163627
0.5356962399256275 0.15687523370496592 -0.09238420003225656
0.520658384253764 0.24421032165605538 -0.02026962887572381
0.5186070656736064 0.155226545918282 -0.11102703125789048
0.5614710891499897 0.1837706656018554 -0.07580109717005712
0.5306084959322277 0.21024653544580474 -0.11297791505151622
0.5031164505590056 0.2050580603339256 -0.08374766752584151
0.25029069087088374 0.034455155329453646 -0.7790042378917832
0.4598811146458246 0.2227181701194354 0.005526880359127517
0.48796759551726154 0.19570784752306736 -0.06041165216248601
0.6711389943723844 0.061354624303930905 -0.15170639452355772
0.5431316568967048 0.19930121899086828 -0.1139860564043147
0.484417665064484 0.18974734236826407 -0.06967571170568476
0.5672152928226382 0.253171078673347 -0.03719564365425754
0.5561005781437558 0.24214488217654662 -0.1061908023969238
0.5997920725665438 0.2189379348322973 -0.10328091126538652
0.4509904643452387 0.12298587229534519 -0.13227504942145174
0.5005018194338362 0.1700532444583871 -0.07205357386862943
0.4536764099456292 0.2051053781194696 -0.07547460638986081
0.3360135688084114 0.14347767443913995 -0.08137408889035669
0.43530298987052163 0.21908128188543685 -0.013232210420056845
0.5670905427963788 0.16978272006633688 -0.1694057547279897
0.5261397457689441 0.17162689453195412 -0.18519876036700111
0.917594458661128 -0.10104910576805537 -0.13061460328239605
0.48180671461462055 0.15700728804898745 -0.048365780606445696
0.4976647847871476 0.1583757352567261 -0.06754559783965419
0.4687475092455742 0.17787362970227605 -0.11276844113271522
0.4091950238500601 0.1782879250206122 -0.032735386345876805
0.4324922267263105 0.18845431876094665 -0.06623967285304388
0.43901497029403913 0.196063602620427 -0.055269347695428905
0.4214360431621742 0.16412165552729618 -0.03013287644049001
0.5488881313434746 0.19779315503205908 -0.08988717466189655
0.5357070748954698 0.20430809751384515 -0.06378804414151773
0.5070852714769103 0.1373582092176946 -0.09311696276392922
0.44634628730203474 0.17773579809653484 -0.00016745358894354467
0.46533909819869734 0.15035975125532275 -0.06923374517907632
0.4195496956058804 0.1775701103887002 -0.01363268184638855
0.4997203740968672 0.2395882148970685 -0.0035781916057828766
0.47728218494221153 0.18396121375096186 -0.05304097713641909
0.4746646750499508 0.2659926113671247 -0.03259274979834004
0.5232735246396771 0.14636449530331674 -0.0869026044549912
0.5119393755648218 0.18351671260830926 -0.10378805669679991
0.49726935021922714 0.18268382009003403 -0.07359988925119865
0.47528381482280224 0.1625059509285336 -0.08775232645388087
0.5011436292271725 0.20182681755440512 -0.07552902257648952
0.4112978586333753 0.10503405986762004 -0.1632545384095181
0.6361233197063854 0.3570312444375503 -0.20265721488905797
0.5560988408808498 0.20064492150613944 -0.11622047775691158
0.507867535071199 0.19454227311791783 0.001876661661469825
0.49890483447521206 0.16625769321422013 -0.08763521020412668
0.5524358737949768 0.1895705204492515 -0.13047719402453595
0.5206424469906352 0.21003010634345287 -0.0426058104171716
0.4905741674323849 0.200711198933476 -0.04827804579196027
0.4417745460440017 0.18300510562828265 -0.04056210004375771
0.536258120980321 0.19096995738510714 -0.15125362822971056
0.5488883211773725 0.23541918035778053 -0.02047359058056486
0.5306049554107233 0.2105927299206627 -0.09255929383249395
0.5165867028146209 0.20335658694391157 -0.019283798945281205
0.49177792536436016 0.21490060930524635 -0.06258347913737339
0.5358094117751477 0.2576419020715548 0.0004405874721555847
0.4984934310661373 0.18722594505433676 -0.059050179183230966
0.422680559456893 0.17600394391180885 -0.023399830583457515
0.5004535535379944 0.1916748176042944 -0.05788264910401608
0.5045733046925704 0.18479779624271941 -0.053132569559522835
0.4993544420721747 0.21673315956243755 -0.04149574053090532
0.5252099902304366 0.1928424560338442 -0.0133686596742848
0.5490083563056061 0.19755834236849523 -0.08038507990664812
0.46153624113799196 0.17222864650105407 -0.0787084514656442
0.4116567480935913 0.14600630904133993 -0.11775121811734834
0.3870831097761567 0.12258406576052039 -0.13730410453271702
0.501024596377377 0.16616376516807918 -0.05303194498395669
0.5731670778240812 0.24337247813785723 -0.05650537613365714
0.4235195285981064 0.10556035248959006 -0.055479126204687645
0.46870557734045803 -0.08931592236356778 -0.022738368172582568
0.510189732265431 0.15277114630626443 -0.15340818588336447
0.46079530496487564 0.16044833934378744 -0.009584248760035052
0.5312483198827209 0.2128216189104677 -0.02714661006459096
0.5220834034865902 0.14206643670870278 -0.12324042912729283
0.5027163995262214 0.2199016531452287 -0.0020957143582620574
0.5511951645053159 0.22784540891061056 0.005574267692963986
0.5522924628285466 0.18313119831177005 -0.1192585092674392
0.5668143152609417 0.2366974740243677 -0.04776611856485147
0.5157753503937101 0.2402431577106512 0.004264817846063806
0.44228572341324934 0.1303327178589484 -0.10160379979598133
0.46865773409454903 0.16286071824481496 -0.06975369683516419
0.5123764061659983 0.23999018863298716 -0.06037163993028116
0.41982093388863007 0.12398926376464203 -0.11932555070873718
0.5055362638958911 0.20179938904800565 -0.06583337617178131
0.55438625653467 0.24928031427293718 -0.008609530746468863
0.41480283038470134 0.12698661253881482 -0.10085723857642392
0.5719483490793209 0.22016742196966277 -0.08780284959428286
0.45016084223375685 0.14421933951234678 -0.04192780778021188
0.42304363139597 0.19575633982420015 -0.027458215299077438
0.4728613626704714 0.1408814682422701 -0.12635466338355172
0.5088207410079804 0.195900005204237 -0.0746911287403691
0.5052139703562801 0.11460451927021609 -0.02474837279305575
0.5225348340343174 0.2346561470822337 -0.08080245921175333
0.49950297412145517 0.19014512545319917 -0.07869201861717556
0.4616056256850527 0.26883414378710313 0.1022471637224669
0.5368118070585552 0.19308188898287426 -0.1031588674659929
0.5239876903098235 0.21060459460426273 -0.08394783551642604
0.5003473282099691 0.1667960169937288 -0.1619808505694209
0.5170124178128646 0.1450535610155157 0.031379374869260346
0.4501225606852586 0.22419732807146886 0.028596262005805784
0.5938192835878766 0.18257853232398702 -0.13471591280099915
0.38887090816221814 0.16140573810977799 -0.09342922992769331
0.5131145724670887 0.19728943068129468 -0.09122058687697177
0.5325087694062489 0.1184223518860108 -0.05945593359513168
0.6089822762605337 0.25149792924425185 -0.009309478321796405
0.511714865585347 0.19367037401683262 -0.072229069271458
0.524520834424834 0.2072593126333402 -0.0567945330783175
0.5149264468474684 0.2118374448814393 -0.11158539932765166
0.5114328765401268 0.210471012765737 -0.06926217918115185
0.617376930705646 0.18121882253242916 -0.05255603442950019
0.45377041258285544 0.16151436983074063 -0.017493759553417476
0.5406162714861011 0.20796337808675958 -0.09633778543934568
0.45150285522130673 0.2051666287265732 -0.07745066872865891
0.48172003175466216 0.21298016602000303 -0.08131763192682229
0.4946351016417907 0.16904522089330953 -0.07984754444458986
0.6397843907672609 0.21844951511528166 0.003227150147836255
0.5207270526192502 0.19227782592837173 -0.05458946566679401
0.5382362129453782 0.22635395076392228 -0.03293543811065547
0.5019414000535392 0.24625274584417411 -0.012040809750772041
0.4939470031570181 0.22942900892736873 -0.0334260540259379
0.43188639829166675 0.1981849991015565 -0.021011453537482794
0.5317050401600198 0.19466693158823034 -0.1073024792381716
0.5128695030943646 0.17697662374602885 -0.06764239790879856
0.5443961204986323 0.17103744146001532 -0.10949937961686373
0.4733576912248907 0.26912599991642594 0.00714744615163454
0.440220038813365 0.1782047635397248 -0.05785330957235146
0.5097503363024174 0.20479725593648368 -0.06638036188562069
0.5378208740308565 0.20868460564227576 -0.0461080598027479
0.6060945647595872 0.21969452773234366 -0.04422492675584522
0.42438522441386795 0.18074020323956574 -0.012810595068884822
0.5199334024093076 0.26243153607123304 0.02852384615596293
0.49639468589921876 0.2280373253555581 0.03439937955380401
0.544727628931156 0.2829407559601833 -0.027947777069471158
0.4801595670052734 0.15482738808006502 -0.13361738788174193
0.45770959377728104 0.22514357126374307 0.037513735022770334
0.4852492894400626 0.16100113870186306 -0.08775013620143568
0.5684396683094803 0.2469457033978273 -0.021874991747409922
0.43879937745215614 0.12119772587729472 -0.12115940925252744
0.5125662879535184 0.21514247545817966 -0.0371213565802293
0.3988309263188512 0.19614071656349097 -0.024257174113529345
0.5315825052639553 0.2175209979108672 0.0004607193361891859
0.4548647935723551 0.15810525187035296 -0.10137545349161314
0.44956831287946386 0.10665468698283576 -0.036979545372702205
0.40367572866884416 0.18810033735078946 -0.09568149237284729
0.5238374521185136 0.1442215981150241 -0.06171229471013362
0.5435202635394916 0.18704687809895404 -0.1489438427530274
0.7363722602433143 -0.21359102421322973 -0.19772189253842498
0.5036042572602213 0.19830991752664318 -0.04316607446025955
0.45878614429966547 0.18408574002052092 -0.08811001083671499
0.7115902391693396 -0.2261492574409658 -0.036629083153371766
0.4604417358917203 0.17852556845403456 0.016983892343120033
0.42435886272221524 0.2744686203631943 -0.0856715578535443
0.43772408130953977 0.1483301814429865 -0.018248978701166152
0.48087395934896904 0.12804989149050527 -0.17969894172000522
0.47557328555323863 0.18456124391313722 -0.05641133484431293
0.4842107238709161 0.16817316068814137 -0.08503233699804014
0.5498618519498848 0.20748763297180517 -0.09104063684796415
0.4401589126425165 0.10447433913648752 -0.13566500469295306
0.4984235618499895 0.20073332478634143 -0.07430136640300589
0.610146370003136 0.22730077092059275 -0.11517444305422941
0.5419392327128207 0.28343213792965116 -0.0020208585540046897
0.5025395059474107 0.1304822751574335 -0.08880786710443545
0.48227686774508527 0.19503303383385173 -0.05721278780902139
0.45164277807889164 0.19318954822929868 -0.048849483790547765
0.6166831304642955 0.26171212977047276 0.03703226210370758
0.490040680939984 0.1923499222780265 -0.0700804255973253
0.47873031482389194 0.18869068882411 -0.042996258953166944
0.5139851296938929 0.18786843225808525 -0.053921257234605946
0.42715914047128933 0.08931859523281105 -0.09212412688069094
0.4758844384629981 0.19919632216999617 -0.03507922990800694
0.5781395868387875 0.21066040889445503 -0.060008696263594175
0.5666476539650347 0.22068097356645922 -0.13538286583053605
0.49963867934168604 0.17650608343028296 -0.06725588952164685
0.3923632646275479 0.11483743485234754 0.013416351237310664
0.4987755690266056 0.2053768978311581 -0.07283729132544181
0.4260885559044283 0.05255672114144261 0.05246517178503041
0.48477360503648015 0.12903528903288475 -0.1286914725870929
0.45957767964601715 0.18351744913857715 -0.01698860689259618
0.532504042907803 0.18322887197723503 -0.08327229937711422
0.5106393686182003 0.20838574397477316 -0.07974904146095696
0.48110724782513614 0.17952679826015583 -0.07743685688296864
0.4822083104946273 0.1862417255257185 -0.05396537457716022
0.4520796502860378 0.12844509587264952 -0.05387801826282157
0.19706797277922306 0.2937388627305495 -0.08264144600281043
0.46148528875824013 0.13632670276319914 -0.11246520221450851
0.5613740745960598 0.2351459926597812 -0.06765706324230791
0.4937323023167721 0.17377015374560756 -0.08744852441665785
0.5178862221643072 0.18837764470048057 -0.07716300192609538
0.5808867767506456 0.20425768960353707 -0.06314568782542551
0.4987574344237231 0.16037009013423642 -0.06331584187520889
0.4434989221929868 0.20745872382434527 -0.10586282476896258
0.4953741819940234 0.17714749846594202 -0.11683802455544878
0.5388384572099056 0.2363011451585777 -0.02041722111042077
0.5412558251980073 0.17818910520142595 -0.10205892327141441
0.4670132746175284 0.13365982133922216 -0.1310014267135955
0.5020402810898048 0.16680139061858767 -0.14348538707460534
0.5106309934457869 0.2017954354653 -0.04250499757182524
0.5696810951617266 0.16705834999510216 -0.14232206860361885
0.5067728323059555 0.2360246309465026 -0.0580036196555227
0.5314273167758898 0.21110866732794875 -0.028677453289986943
0.49961241725983996 0.1768423100969443 -0.07577310002216109
0.504052972809788 0.2252182318604099 -0.04363647766282952
0.5260806988113984 0.2066996789680502 -0.03437324543574505
0.38757790703354544 0.18098960345677995 -0.025641383337301704
0.5029703826697016 0.2169452578137765 -0.06351248246303953
0.524540087966983 0.21136026333154234 -0.07141906893363625
0.3946210804379007 0.06866276112469905 -0.10299975467682998
0.5155972805323898 0.1340163275381343 -0.06865194807554076
0.5088824537772325 0.21051067073894103 -0.02721085613669061
0.5531898398698729 0.1807410340298219 -0.08102653355066991
0.5095172622467885 0.18601657424167684 -0.05832519479233156
0.5472454913900293 0.1976552820776476 -0.13155172485878097
0.5264339477701725 0.18390904365398342 -0.10649543087018287
0.37345140006732436 0.21625822833293284 -0.04577090656979976
0.4920775891545759 0.18584350784762194 -0.07806552008577228
0.48617235813259185 0.20905938809195845 -0.04738762581982314
0.5055443276263674 0.20092088044741274 -0.053908066313567815
0.9264038342866883 0.43964986022018593 -0.3205950533225632
0.5254483426857348 0.2219162501560561 0.010306618032814185
0.44189594637934704 0.15293639266920422 -0.01084129393348121
0.4696411596077894 0.13752070051813803 -0.1019020014072396
0.4384025586240625 0.14074765725062832 -0.10756064876727578
0.5558122788451101 0.2075153399455587 -0.10100830273427164
0.5056470644184827 0.17534216023375393 -0.0839884442493144
0.532329712674013 0.23612831421772285 -0.0029723175874778462
0.5447250798040386 0.19079602784142935 -0.03253574856461228
1.0988183933938274 2.1021411912786334 6.696941393961197
0.45143020592198013 0.18363108258682814 -0.08462001222974891
0.5755485372321374 0.19089179025996827 -0.11960486143297544
0.4310569778398303 0.2060585347182382 -0.0794673195871951
0.5040276199441536 0.23566174571185172 -0.06330635857537459
0.5804886747342124 0.19591273313977808 -0.12689496773955966
0.49558515553700033 0.17777363892602693 -0.07877025056285447
0.34020712496213434 0.19295102233567718 0.04311312529907241
0.42165241560691413 0.14536819489262598 -0.08370857525713404
0.5925056239100144 0.1142317893861815 -0.14763428585601446
0.5527458519273694 0.21851106808009035 -0.16991880168473017
0.553410745640619 0.14326137184866639 -0.12666436082818677
0.5105991936843282 0.19760090507008954 -0.0692770509095908
0.6696354094506489 0.20222213617137186 0.05004401715521567
0.5390539893344481 0.20470649850270206 0.012818243516051098
0.5710751912275072 0.22585366350982383 -0.016283463513246943
0.6792611884230553 0.09888373743274315 -0.11230773964888385
0.47808927741856166 0.19399176475579338 -0.03299838746747241
0.5097676545246941 0.16447050446346623 -0.07761677802790246
0.49307713431447553 0.17733039679961848 -0.07425520902546623
0.5299124492106131 0.17635060484809628 -0.15641872309328164
0.41808953143132044 0.19079607697469214 0.03352701589528806
0.532817212209352 0.07307397143340211 -0.2585376603447571
0.5530526421456301 0.19894590593052897 -0.0964389796199896
0.47124385536017144 0.1709230979491565 -0.07286296893610711
0.5027367293548792 0.20252362342799302 0.008651752324311701
0.500921271317722 0.10920369208423608 -0.06760735166420773
0.5281434930235491 0.26354461562587517 -0.052881064409803
0.4213476308107005 0.1691796506670613 -0.1310067645247841
0.4981593049714377 0.2088352087567671 -0.06475096343964992
0.5246939790451393 0.21552885348185669 -0.05935641141434189
0.38617234821720103 0.12807201472750762 -0.004410731884519237
0.5464952498673767 0.22331851590310237 0.052765615455598436
0.4386375119328676 0.17411197605339623 -0.0804303639235684
0.4518064778788755 0.16113156563430664 -0.0585145710863344
0.5033127403699211 0.16409466242302528 -0.029656119564265282
0.4573463854220563 0.1521887948773042 -0.08196745138624806
0.530872514565587 0.28833132138362316 0.02289288222360142
0.4590605952490705 0.11653431379278345 -0.07125930401295477
0.5413853785789939 0.09891969958239599 -0.12977804704871687
0.5284320731775836 0.2163350356358933 0.00626403909367923
0.4911757304180355 0.19463903461206655 -0.047310747820148435
0.5099466911824067 0.11888163592485057 -0.07695299305109415
0.4895236466736037 0.1909167690884317 -0.0017657244609665668
0.5510169199571067 0.17731235502145637 -0.08466065700775971
0.5010848454869858 0.21448456041179043 -0.04080731824853956
0.56630043535516 0.21073498972482696 -0.09187600384291272
0.3939492110184375 0.16239298233023192 -0.10237754635014085
0.5251638942358312 0.25076908557531397 -0.05098717849767809
0.4975520214508009 0.17425985362788765 -0.04588417884852447
0.4000889415124931 0.13991266714174344 -0.1382277090278592
0.5089683828305169 0.2191349495884083 -0.04014054095358688
0.5670604092430267 0.22813151702027312 -0.0293826466583198
0.4934799859171477 0.1692136907527697 0.08534592102603256
0.44454786816319825 0.13505622902664527 -0.08889697246237915
0.43220585495919295 0.21796387266007855 -0.004451593415012667
0.5123079488606237 0.21415046151025763 -0.08143934122296059
0.5514787512153561 0.17150416674476787 -0.08013393026524795
0.471215299108934 0.1826039027176023 -0.07141254408918485
0.5700093850744565 0.18237468220758046 -0.10391869930413122
0.5275141612670922 0.1718670731381451 -0.10697884438428673
0.3982642582644189 0.2669599718244342 0.017898294241803114
0.4627874877591438 0.20395315433967198 -0.034146399896542334
0.6274926293357339 0.2567057266473398 -0.12459967039129083
0.48282515172351737 0.24275420012978088 0.07293141162668348
0.558105717210168 0.26689109307163505 -0.06083005277653797
0.5020254757475016 0.22453307198603056 -0.052785331548506065
0.34204653274581176 0.14257477053294565 -0.10869670532926534
0.5451136996317842 0.1858433899974159 -0.0993227321700374
0.5061075455962936 0.11758367517592205 -0.053201839911736215
0.49805777823679875 0.1539715603334315 -0.09466305929595364
0.2609465747503492 0.2481489792152729 -0.017574867912657055
0.4405869300676386 0.21340404880176322 0.018962364228627848
0.4634526360143667 0.18085457911388403 0.0217072171768109
0.4912432936021389 0.17769498552985397 -0.07583314244055828
0.3364409557729431 0.07026566203938955 0.27058001926252473
0.4747379312840536 0.16579581728481685 -0.1087001678795616
0.49372046513902035 0.1910710976591048 -0.05280865590620465
0.5765427933527718 0.22676722232441193 -0.07888107798004285
0.571527480073442 0.14465033680008332 -0.17698180652047313
0.506626474980294 0.19182391226019035 -0.045464869191846446
0.4847630976941417 0.13104850100137355 -0.025994145545553238
0.5832627918131124 0.2015206607150617 -0.10564932410403571
0.48315217701002666 0.18558346350741317 -0.10558326764481762
0.5594524241458458 0.18359335770298912 -0.1252357935877626
0.3838459480030707 0.13198148448037728 -0.09024745294999548
0.4028902806018664 0.171499528777332 -0.06889930958149648
0.5296171792599154 0.20253181295632317 -0.03604026242879854
0.4970563717109684 0.15903367937687563 -0.0786770409003168
0.5869480104188227 0.23680143114461316 -0.09397059085623027
0.49941904807884896 0.1721372350248771 -0.09007237738092044
0.43888096381444086 0.12366938392406723 -0.1883036611356772
0.5586086360715399 0.22318618274826463 -0.033875653704058095
0.49579585073730925 0.18270015608680978 -0.11443086821856241
0.5137349012216816 0.17670651700520068 -0.05942127399521269
0.5215739230041123 0.2431802881362728 -0.12363540697165831
0.38498564498902965 0.14547142428568804 -0.06565904096262898
0.4062926302044332 0.1057668443183104 -0.12393407945370427
0.5337615100710877 0.10718801292131275 -0.12333052859796112
0.4609029698979441 0.10979189602394968 -0.13127677306110286
0.44800930126618255 -0.33640829839814046 -0.3378771785229162
0.4083263096501497 0.12082982663278585 -0.04594082774076469
0.4865454546826129 0.18061924480093694 -0.07783678794899629
0.4803752944887094 0.19537491823162156 -0.09913813719870745
0.5114293343419973 0.17919753635085556 -0.11246296717510518
0.5225020202273782 0.1551004438573358 -0.15159286902135705
0.5050772686418696 0.20744807179042368 -0.007289571012108809
0.5052119390964123 0.19944077083454204 -0.10907884112029365
0.5715607934907609 0.22015620894015342 -0.06710088437938566
0.5199727985161218 0.22404504688984161 -0.018881016760104785
0.32392346978353714 0.1715172482465448 -0.07981954450514195
0.5980924200611213 0.27605325860663754 0.04829844345982792
0.5290468653019218 0.17847807295628115 -0.10820978430663786
0.3804951349301291 0.18080848221720203 0.0014279956929215132
0.5552892807894523 0.17228577084881636 -0.12207247710196611
0.4637548455315823 0.2731145473534866 0.007899387483632836
0.5762561956857013 0.22342904717926615 -0.06823515342293263
0.43691107100730164 0.2078703114597289 0.043457913854638264
0.419287486353042 0.1799590796915851 -0.03422967712131708
0.4546786622261578 0.21985982632006085 0.015166617691022566
0.4881979127628 0.1971017081841353 -0.11578939417887568
0.5140987050309604 0.19921918630932112 -0.058413872906612596
0.5488585816503502 0.16615971071486513 -0.07010361883334326
0.41487369481083647 0.14829618099561515 -0.10060448730669691
0.8228587046564115 0.19976106922283066 -0.10521972921233669
0.4977242169102425 0.2548769474609287 0.009681593647144382
0.32314092801652805 0.4399015768123036 0.057248645797898234
0.48858898039355836 0.18017698724926845 -0.07193275372048902
0.40472908427017273 0.13458834951349274 -0.29393357492614314
0.5468703820728393 0.17646389678719743 -0.14393696566105518
0.6361794408445149 0.21010139787414062 -0.100594384141516
0.5390391287196366 0.20933092683797838 -0.04816437674983831
0.35770895486476206 0.1974804691566021 -0.08342937529138794
0.5546183721779556 0.2133217002744061 -0.09571938626291399
0.5559256830153458 0.1596000658540504 -0.04012536067867245
0.34764183395436987 0.15474900711924988 -0.053002773259152036
0.5194621216487718 0.19312850159292339 -0.08219978349220014
0.4853127721495838 0.18453239972754432 -0.0734739875592254
0.5954399156041035 0.1929976726543572 -0.1437567959579269
0.7776389216309809 0.645904997150069 0.28336557326841216
0.5181873452449395 0.20002913337123118 -0.08194680134980104
0.49726281119420435 0.19284546056219654 -0.07023131191351695
0.5318690955938337 0.15700017904443087 -0.12023676543830675
0.5281227069211667 0.17402286112928778 -0.08117965144620598
0.513993449681692 0.20518957847903607 -0.06393325489989365
0.5022160160945504 0.19007471684813027 -0.06686529067764013
0.6176285498689396 0.07927906291362774 -0.10596136052726024
0.4576979910939798 0.18413621480121378 -0.06033846046440772
0.5096397446919099 0.19672419840671296 -0.018573453561117503
0.4142941660267354 0.12475686824930676 0.0013025038742284778
0.428248752136966 0.1774918000502339 -0.02386545466910661
0.4628374784880691 0.20457652346510713 -0.010778842287010093
0.4915920347812204 0.19926095912575192 -0.06433383546448113
0.48124783510048985 0.22666584982934523 -0.13180525783684516
0.6237359859729565 0.16499117161956178 -0.07802575983404836
0.29686133413879645 0.209189064846953 0.04304406316458653
-0.026854084947501633 -1.157376068229695 -0.17772029910801734
0.5110049704562982 0.20355916985921851 -0.062437534215320056
0.5031440775573088 0.1912224800782667 -0.06760906199284022
0.4058073021542299 0.1792495414341886 -0.051662914444676744
0.517958268115521 0.1709050314496494 -0.06393958404896694
0.5096612031039172 0.19273495365121107 -0.0655872435372089
0.4050914532927976 0.2002519427415166 -0.03112642059889481
0.5918857906098225 0.2901031547485786 0.017257673665142192
0.6912381886715622 0.24375513021854545 -0.02853054093048968
0.5431568653294363 0.1606671022377668 -0.07689045246740989
0.49202301121366077 0.18326239823328194 -0.06489289154663425
0.3437637143171628 0.21235469246296645 0.05362263803692713
0.4794926012553873 0.12533010281839552 -0.0883724486379549
0.4411959941265735 0.20165094925894778 -0.03484548592859937
0.4918424825378054 0.1972255849565272 -0.047996475823509854
0.5604140923495606 0.19724001166278526 -0.11809898098522353
0.5104880195625157 0.1710099243154133 -0.10020755017583838
0.4702967927929933 0.1488329854898751 -0.11879084616944624
0.4602720242749285 0.24491084804441243 0.03141901118740975
0.4989714471873441 0.1437616911182431 -0.10171088859161159
0.5248566476146834 0.18683568333692335 -0.07243942819033578
0.5004996742974299 0.1585530840551712 -0.10098035006740247
0.6383279625823519 0.23776482753544315 -0.04037379237038863
0.5285884834094787 0.21058521319679357 -0.06392047668350642
0.46430491319351574 0.17242364044767555 -0.03913700774060658
0.4784504311534903 0.17339168907493274 -0.10687418258498838
0.559822362643871 0.18678628387462481 0.008517792084290932
0.46194235202965217 0.20830206808420826 -0.04833711723389911
0.5459937976953029 0.11355808532249512 -0.04883788651773102
0.43290914059352303 0.1458613791436676 -0.07878849817967648
0.4780714278235507 0.1576654496946901 -0.045059490220751286
0.4531973804467242 0.27621195885217276 0.09874441008705048
0.4024448054383214 0.17704747511648122 0.014838507382563648
0.5056391727178635 0.18125025845733944 -0.06289467630159606
0.436115543753516 0.11700680996304413 -0.07884421218579973
0.5418395447553621 0.1906323144687576 -0.0853391212031056
0.4530009893426836 0.18544187970360326 -0.024773985712926105
0.36826790012675303 0.1300399447935945 -0.1066040334161471
0.4119082814970483 0.18972378878990526 -0.003105815777786347
0.44678679352750805 0.15970436249730824 -0.10861034276911141
0.3555924819692535 0.12199963022349891 -0.03691278512999929
0.5976691837245767 0.2258711563083864 -0.07074115360595101
0.5429644572253807 0.2485787974437983 -0.04716173089329345
0.4852877718668509 0.2235580940735531 -0.0700523075152546
0.5287913452226576 0.19726326343742073 -0.08313148754163535
0.5092754781600348 0.09958849505154888 -0.026620572130184428
0.5068961486810224 0.1467227550708401 -0.1093075300521491
0.5712665677503423 0.2036703116048102 -0.136341033868149
0.5619618001813222 0.058183840730663405 -0.12824670023690032
0.5995180984666604 0.17145620841012033 -0.07939171377324783
0.5054993461913995 0.17523223213534322 -0.09158636288552202
0.5307772052615718 0.18097035482637125 -0.062131300124292466
0.49436518423135567 0.23320709714928967 -0.09387783832556806
0.5246710632431331 0.2445795006332787 -0.05968890653844028
0.4206152764147504 0.10606265465978026 -0.13804458256907992
0.7021070907575364 0.23462364785186196 -0.017510855196690045
0.5013122992854306 0.18776842449804576 -0.06606305602915086
0.46346191243061696 0.19154026497554355 -0.06090996942546667
0.4982169828649745 0.14098656698388368 -0.01827147171192678
0.5396530909696367 0.22515525398408442 -0.06889513474300202
0.6013962480095927 0.1790703608509432 -0.11823822883607704
0.762025972059007 0.22038613276089336 -0.12320519689976095
0.5657304582760929 0.2505650874473133 -0.02664764412349996
0.48146900935313397 0.1650080382330117 -0.049373136248874516
0.5018120745822614 0.18961651357159326 -0.07838055766413277
0.5102151882866792 0.2273736109891331 -0.2172337071755237
0.5648237994556382 0.18686215182208343 -0.1069927377615727
0.6257019360026845 0.3008919577280267 -0.003395433702792161
0.5562110122482693 0.1662553702991545 -0.16360610150360344
0.6167262158776339 0.19124235432637704 -0.050051208299493055
0.3932351326642447 0.05636469626908536 -0.08843570497225528
0.482448642081323 0.24511329066368148 0.020017501247394875
0.5023875028347788 0.17476468224879227 -0.08111664708741273
0.5041052616631561 0.20935473513327452 0.008408538335004323
0.4386336170163503 0.11719983584909244 -0.06383705128968131
0.5890168501047839 0.2123506676175566 -0.09995059163011888
0.4583045636239831 0.13388797607672132 -0.0726156961871709
0.5298065789428961 0.17911543965273324 -0.09871587248295555
