# .PCD v0.7 - Point Cloud Data file format
VERSION .7
FIELDS x y z
SIZE 4 4 4 
TYPE F F F 
COUNT 1 1 1 
WIDTH 800
HEIGHT 1 
VIEWPOINT 0 0 0 1 0 0 0 
POINTS 800
DATA ascii 
0.479610234556219 0.1808137482682639 -0.07769667650973133
0.50028709482811 0.15478440839127927 -0.07646593855592698
0.5776655739937837 0.2775509758603363 -0.04058845437819514
0.4991912195256418 0.18197484877042314 -0.06479160189658728
0.5197509694397127 0.19178727436832332 -0.07235565513629183
0.4652051498119363 0.2311993654088269 0.010051042368729668
0.5097944804363408 0.13949111263036684 -0.055254763365084614
0.5187633312278876 0.1958705412571362 -0.07874838347811419
0.5241280523908642 0.1986420616870248 -0.01448136802069655
0.3735804046888802 0.1806789255976753 -0.008981953855055735
0.518469982773496 0.1733864304960946 -0.0497730192553405
0.5118913826058531 0.19749222965886304 -0.028873275691751132
0.5416032458817313 0.17626520700000015 -0.06044237064404001
0.48260020489425415 0.16447996761112904 -0.0456719040194713
0.5136683042773882 0.24163954732935622 -0.056624415026135466
0.5116640259485905 0.19251318714751164 -0.066490851610709
0.5088062652661449 0.16471071772278378 -0.1030843891183224
0.5087453776676227 0.17801496569609299 -0.08732914310853346
0.5304306983901199 0.2317753604660595 -0.022379011151372197
0.502242456696024 0.18966217205925773 -0.03790954357634746
0.5108950865825079 0.1637081577428603 -0.2724637398822978
0.526948472309698 0.1765503440368974 -0.09278952529587059
0.616379895309791 0.28806640707836095 -0.07790616683905682
0.531444852748109 0.23861690170930672 -0.023234696705713986
0.4819132515416129 0.19277709940149634 -0.08121582362046809
0.5357214585514214 0.1950213997296828 -0.08696206573755205
0.5246787971041442 0.11654365691121882 -0.05296636432582602
1.1119274988586199 0.3779288142448678 0.47728205167598503
0.5025954772775947 0.19012795242296932 -0.053674586678539526
0.44906263408665836 0.17977032672612836 -0.09276959797314532
0.4334499277487964 0.22499277010734886 -0.024932452015534068
0.49620065133936464 0.1912615509522908 -0.06722825691623768
0.4143302047376949 0.12236979311165896 -0.0651152879351713
0.5202400341071609 0.20117720361865565 0.05006116262390492
0.5471661678488431 0.20403580199123894 -0.09328823540458586
0.4667856910165824 0.15949436885105683 -0.05378835246676772
0.5091601059452842 0.14634756953682881 -0.13870756039061405
0.5108779207407963 0.20173942636199627 -0.049927356187637884
0.529494661606833 0.20733681324171016 -0.036487683368576995
1.183198089255768 0.03854597837900542 0.41862985991980395
0.47918559526684135 0.22510959476747416 -0.015464044040584213
0.47130189642197706 0.19854459321260265 -0.059125568825976416
0.5378754729717627 0.280170695707497 -0.13083034644650127
0.5897490960140317 0.27589086207345304 -0.0072766153822243496
0.5299154239181405 0.19099494888777713 -0.07515917030478647
0.17062155974824122 0.14471458387639302 0.06589660744182879
0.5092814538122354 0.21136442378826814 -0.07459859809134173
0.5018837914194876 0.2152851651454455 -0.015313870082565018
0.5126504261506568 0.18888160822169198 -0.07064266550980847
0.47980970538290535 0.23595548426743562 -0.09451525946458617
0.5125638675137338 0.1956461453034848 -0.07019781776502043
0.5267308913452382 0.21941822923696463 -0.009937770475957564
0.5252425857015339 0.19472410344602054 -0.10887944187105347
0.39100974338114725 0.12105914491610292 -0.14919045073075665
0.5448096316833642 0.19861349139540607 -0.08003218390909694
0.4646062285827668 0.11240316957733398 -0.08837153707109735
0.4994969364489066 0.19018048027966472 -0.08707311811377849
0.5560714419258375 0.2525894070425494 -0.08189783860227351
1.1251988313851484 -0.20785476204841302 0.17593529518103423
0.5075043873012817 0.173077428068666 -0.0699336292887125
0.4979877443453802 0.23026165945876187 -0.03106505380654312
0.435012285115306 0.15243738371907511 0.005172376178620652
0.4965465869514105 0.12783586803644198 -0.139379237497522
0.5420814056487302 0.2672548363712508 0.011878786362856886
0.35595805755400534 0.17157087831668605 0.11105316874792948
0.5158813664873492 0.14507231166966505 -0.07410865597013583
0.5130286375277251 0.2392125176471609 0.0175550841579053
0.533093871706626 0.19204516230541913 -0.07003268070971558
0.5432614521113521 0.22693990313862855 -0.02280116569806978
0.620684966580626 0.27394248766924534 -0.07394058093743183
0.44469962548069475 0.2004579362038612 -0.07277730265448668
0.5228890253015379 0.2475987325468907 -0.07696778359292011
0.4994238873163397 0.18978907503105802 -0.07793076022211665
0.5271864102911081 0.22898555604282933 -0.046611472609654925
0.48976682663536053 0.1756288785868776 -0.07346589731292852
0.5164768687188825 0.18461253093715868 -0.06506421527242878
0.63243314586677 0.20929231532184644 -0.06171090235950771
0.4914985206446545 0.16178887449538593 -0.0823040788088889
0.5362692465045882 0.2074789166395874 -0.047494519532662594
0.5471232390168552 0.1849798578167281 -0.06575900925589906
0.4979381028243779 0.18831868502869042 -0.05849683915657522
0.4782390771535461 0.16711070741068568 -0.08851665221610006
0.5498681196433495 0.21753151549084748 -0.09564151654009834
0.48174924457410384 0.14309890127333347 -0.12349298666046593
0.5289995323485073 0.1860110907620367 -0.056780937656668584
0.5149453696142814 0.20949441812831537 -0.08427571995289895
0.5236399599822903 0.21028266632005455 -0.10845651582911842
0.5285882847322227 0.20736007699716197 -0.06793790288514856
0.5451198858482655 0.19114729774049977 -0.10981400601450275
0.43722709024856954 0.182857895136749 -0.02133591047305572
0.5038340568956414 0.2104813681039559 -0.08895453863583214
0.4637589792208985 0.19881323567514642 -0.13331332536989748
0.5154771002191012 0.16651028887005737 -0.13520466780030915
0.4509136016846753 0.1259633788876613 -0.08454608285222776
0.473731373559815 0.219007293052087 -0.026652399927399983
0.5437608988927707 0.12620853137991617 -0.18061992098276392
0.5040368691074093 0.211221945507873 -0.02999525932960978
0.4377201117795835 0.15696384553838527 -0.03912973238777795
0.5294362414268221 0.2199033657823719 -0.06551131505817409
0.5110484872015775 0.21227597421824385 -0.021775395026935485
0.5055518851185354 0.18124653607588925 -0.04593297259553708
0.599487391743196 0.2294016128318077 -0.06712631383074097
0.48371778801831056 0.18677836247812252 -0.06960436149843474
0.4651949427354509 0.13829071917146507 -0.11551325224642994
0.6067907045801917 0.2107254331627928 -0.053714739095170216
0.44612635444997295 0.16205877138395408 -0.05311911941370795
0.4985296558422192 0.17492302033355145 -0.07945394126032568
0.5546574499668964 0.17897621638559258 -0.1834057248451728
0.5303922706908679 0.1555501349684505 -0.12428158644323162
0.49838787228691217 0.2168127895609615 -0.03478996515936217
0.4055508444257896 0.1574067900195928 0.015348140234905827
0.5464873755110773 0.20646541490920356 -0.08960102683028026
0.49546337769695015 0.18414746837251528 -0.05920163065208328
0.38952856146539716 0.17205551810766906 -0.03327381183478906
0.5145881398879908 0.24974703423896472 -0.11661567210859403
0.4787406423935465 0.11939121738706149 -0.12812670942592774
0.5198029640325217 0.18827025337566283 -0.06095252385797778
0.6638385337755608 0.47603228500770456 -0.04190096668433796
0.5339038753708678 0.19012421268536173 -0.07923541132542766
0.4782549982752755 0.19115341374796913 -0.04190571754317318
0.49794947405530365 0.18906731651409814 -0.05361107050133285
0.52111756700765 0.20273885476984788 -0.07029761989355165
0.5098572028948638 0.24396129071526218 -0.05485275634882214
0.5112558201043669 0.2155050701773007 -0.09862241808470174
0.5270075130129328 0.20984366499476437 -0.06226241780740338
0.5371397953426538 0.20544046947142647 -0.06621910852369695
0.4655600977941674 0.18533913299310711 -0.009610326623715082
0.5911995185952037 0.23328360788369196 -0.002753475746260392
0.5381115090423805 0.21801636079055697 -0.05675255489083497
0.5603508665215031 0.20828002571157356 -0.03224581695572226
0.5799180959476473 0.20425590569790586 -0.11946931154211882
0.4435678177521254 0.15875634711338193 -0.11542619026620571
0.52507973343603 0.21159616568942852 -0.07717134622687638
0.5576264742759065 0.189237704797236 -0.03820260179521995
0.49784834625489793 0.17427129580570977 -0.05910359344422034
0.6221756762674033 0.13802984672054208 0.046089429843434004
0.5633922374087774 0.28421900645984977 -0.014719821430844604
0.5218027903805478 0.17102650717133372 -0.1001930846063459
0.5235211653342731 0.18311078435320383 -0.0907801362024685
0.5956694752698297 0.22575164689257576 -0.06347184885169099
0.5517598574246847 0.22838102967406826 -0.06963054096846122
0.49913221357286375 0.18119251523231128 -0.061393780587792435
0.4846358600867404 0.1524194646446233 -0.12772043576268288
0.5384885160010242 0.24088535561320157 -0.06856536275638803
0.48198505002366687 0.16912953646928486 -0.017463081674264913
0.5178670440426458 0.15674973740038922 -0.09874821292663682
0.44135063760381854 0.06757137340308361 0.08772902739674748
0.4422181128885825 0.2095208751980664 0.005153958365070821
-0.007914139072028092 -1.1493064720348798 -0.14767161213517
0.5762985702047843 0.28605377871086546 -0.1152161726818548
0.5239287870269322 0.20682533746659715 -0.05895304008502933
0.5287241046348754 0.1756972013393039 -0.11775043740176727
0.3541063698853293 0.14419925596249072 -0.034954640017843985
0.5648453299994003 0.24217329215269956 0.03217985847466309
0.5671140109091652 0.20617614769099646 -0.14603831538441625
0.5210082585216185 0.2191939218377712 -0.061274356852365486
0.5403449275112564 0.19015065965996314 -0.07393262827996239
0.47906093583785037 0.17611891534312463 -0.07734253993056939
0.523753282891704 0.1928742617676562 -0.08868555407535439
0.48026245940852164 0.2092965426372757 -0.05429624364911945
0.3435359735409236 0.17208575529849668 -0.09174850722061478
0.5243265650903481 0.18335381536959972 -0.07523584070257527
0.5007621066690717 0.2590769234002437 0.06524671609976451
0.4467327266591212 0.19456725844176503 0.03198180824739438
0.47218415577472683 0.19004314852530513 0.022447644773635034
0.4797662286140678 0.1519664204214024 -0.1160495527499279
0.5446969595363953 0.20052927305599155 -0.05703835063262375
0.5549272413661299 0.18246159241077464 -0.09630522477640113
0.48404629561071033 0.1908111520697986 -0.06464732537197904
0.5270303980825872 0.19879686803869845 -0.09034032126146485
0.47607114455900046 0.17024924040453016 -0.12377362250644808
0.5139552940821943 0.16512681800251983 -0.07142857764252142
0.37143883958955826 0.15343904448343437 -0.08304393127170329
0.5261833172070567 0.21063901473434044 -0.03153431567004361
0.501690217246761 0.18897061498026346 -0.0661738760541084
0.4822210580669548 0.17861528434477236 -0.10919515266999724
0.4600576408195707 0.17319016555664746 -0.058412093209668114
0.5908523683075089 0.03200914188428783 -0.15939727373267942
0.4817104444404663 0.14329884678997473 -0.109983117411943
0.578292923049446 0.21600884517269492 -0.10437259290063139
0.37231477980785144 0.10097137446548743 -0.1599156388809888
0.46893141927375837 0.1842216085181292 -0.09779128234264078
0.5155018952797548 0.16866114618181882 -0.001595059741234195
0.5454969042204993 0.21979836269140662 -0.04870699087523178
0.06981159382047508 1.0952927746421892 -0.22428312339424394
0.11851476054863497 -0.2617345370225621 -0.25617936328426083
0.4028300691848017 0.1778874990069994 -0.16131232821963692
0.5173090290048776 0.17423202504440383 -0.12942957223977203
0.4681464883997535 0.15121991143192304 -0.02796717962554851
0.462214465238759 0.2010501525134316 0.01123468406346717
0.5088387367074745 0.1969840477414948 -0.023522370021282768
0.42717018798217055 0.05735158658310979 0.03993798205701182
0.22357383261436325 0.12359774780210842 -0.14095601827166604
0.5116169717301773 0.22818249056174977 -0.03711777033879571
0.5475357251358446 0.22000756563241453 0.01496191432882199
0.5034411013336921 0.22391134860757234 -0.025840499754920643
0.4962961063557998 0.18112959044465526 -0.08239148890410775
0.5734078439336656 0.24694292973275367 -0.06506535990536122
0.3805473008904414 0.15543974328264198 -0.07401092227698314
0.542088620225428 0.280260445342293 0.00026584322559131124
0.658632031811635 0.09088462396721297 0.01636022953312022
0.5044032767744397 0.18887489878852648 -0.05082912703286979
0.6311190078473885 0.2426671758978216 -0.13164416501545873
0.5967835068480554 0.18293893550631424 -0.028127405976377418
0.8203900748316642 0.1700761816254186 0.1271656476407088
0.4585808890750229 0.15959595948962146 -0.05972780421741675
0.6370317903099192 0.12273027339966802 -0.1268265747933981
0.47104190626882314 0.17037692219523137 -0.06628863885580927
0.4791647737300764 0.181874169227072 -0.08754059685165316
0.4591538336336498 0.15942653930669337 -0.1025353661600974
0.7692702061962962 0.29213522976544937 -0.34560761254509487
0.5402660235076553 0.23492681965242923 -0.06255768421067387
0.5276622775329827 0.12206669295350991 0.005340900947587102
0.4970523756464331 0.1788344999908702 -0.06566214506646872
0.45020834740930127 0.15732732977676278 -0.1017048385304804
0.5430784439967624 0.2187905695878385 -0.045509176713139254
0.4834634303996381 0.12012509825650852 -0.1542542728432892
0.4052798383732181 0.24248519856769235 -0.03970831717010981
0.6259059382629459 0.2752532372188625 0.025383491379599832
0.5064466326059858 0.19596129809589513 -0.07460992355773044
0.442430284253561 0.18250029271322887 -0.034340482166300035
0.49387665973580397 0.2298138754351271 -0.02749383552331608
0.5049665333213227 0.2528206003025133 -0.11255781091252004
0.4934912423591413 0.21138589466065127 -0.00567214232619051
0.5332950565723991 0.22325333465281005 -0.035658808703544764
0.4794703825306499 0.148639574697512 -0.10671840643064456
0.4580251118012484 0.18994722044052992 -0.038638004443754426
0.5147741992234103 0.1859889681654181 -0.07280893628249885
0.49827496078441413 0.1212595280395874 -0.17737604060503998
0.6989166849584194 0.38688281009939374 0.01281790401621663
0.5607537458752176 0.2331579736709699 -0.0066863661167388955
0.5153917038223881 0.1919145794356325 -0.08251311125864902
0.501904775927585 0.203433579992776 -0.07760358933779798
0.5204230667551144 0.2340742326488794 -0.021732598316873464
0.4492026420910804 0.15202626073973136 -0.1411044115528597
0.4436678620450891 0.14466436471306565 -0.15016663051700618
0.48302110305874635 0.20003814703217415 -0.037899952114401
0.3496549331677272 0.24543093175473985 0.20686083566381797
0.4564683336481892 0.20455806695008505 -0.11847203255726413
0.46224057938607643 0.2119673555292394 0.02290587385569154
0.49524663218286946 0.14553321939084185 -0.09206313038933445
0.5723291647661313 0.21215605414815286 -0.09749963831829689
0.4961585693945949 0.20588864727474743 -0.04500741851354917
0.5154174855676104 0.20667050000477616 -0.09649219890238214
0.5075507997423188 0.18028380717903758 -0.13000285648514875
0.5710788737041241 0.14063792279138454 -0.11650039481270369
0.5799811080033521 0.23959598105764712 0.014514503954103475
0.3628755105584105 0.14338075657423133 -0.028513321377445777
0.37572152620074917 0.042036341878940675 -0.3143105467959799
0.6074485877448694 0.2415832707960135 -0.10180642260108641
0.5555838781797888 0.20189664466593626 -0.09232076748369877
0.4558265266388162 0.18390962289997503 -0.03565762561409258
0.5604867023686779 0.22889956236173248 -0.01162808554978767
0.4773346812419845 0.14414131828269205 -0.11787617110347526
0.49235814532843847 0.20257386403415012 -0.08698652439059629
0.47107696524378184 -0.09833051982860752 -0.06839548375458548
0.5117769557236613 0.2000801005621895 -0.0863312801930789
0.48064360886627355 0.1143440049601736 -0.1466663589453816
0.4866295471771309 0.00816881776265177 -0.16151581119736136
0.47023835074804765 0.2068316948239044 -0.06739531062402193
0.6026947876315774 0.22967385872996715 -0.14386173007264347
0.47331783142607264 0.235025947487145 -0.031794864385332744
0.5586479981800494 0.1898807129701794 -0.14139261262845082
0.5596181426123508 0.1339517942674604 -0.1560369887225761
0.5294572718132713 0.18500793525265635 -0.11857100920202868
0.5079240406174392 0.19447321675392004 -0.08588528655741356
0.5515396886820554 0.22104283719761497 -0.0268234879520719
0.5454713044173047 0.15048631280757263 -0.1257662743972361
0.5889233128070259 0.1613559005780587 -0.17515898610328406
0.48140034365857787 0.22893233749670117 0.0209810605417573
0.5656614857327043 0.089325061809987 -0.13363038767042212
0.5040867883242868 0.17143127478627207 -0.04879573381674618
0.5195272526695476 0.20962601957519666 -0.0712651404143827
0.4411532740064956 0.1744512637922071 -0.09304277944383443
0.5293971948872525 0.21809508102626296 -0.06813906964235628
0.2741686558897527 0.015567619810326505 -0.02392862567666043
0.5028519410549279 0.21082974423373457 -0.10076762366502123
0.4503137655327407 0.12642492864807764 -0.11824471497070022
0.5334898902926852 0.20302712498786946 -0.0770222965592211
0.4396769625984689 0.19935760038711692 0.0036021545641204966
0.5422480152437288 0.2030129450951108 -0.08221350534439864
0.48926362817559266 0.17052939638818998 -0.0426515361824471
0.5074735349302557 0.22697757936711582 -0.010623178659386667
0.46432368924033085 0.1804567570761435 -0.0250333555510025
0.5503601206874293 0.24440763828241074 -0.050565334158648056
0.5014759068648118 0.19927603043521458 -0.057016406098171046
0.5948489464065574 0.4187589719735172 0.09767350022796961
0.5241024183693526 0.18345025582630115 -0.10824616504044116
0.48877826260496704 0.21114654498228447 -0.06274191075345925
0.6122293699464763 0.23447945649023438 -0.05657055908471875
0.4828114521282316 0.18069210653686696 -0.10024076509930069
0.4174033970141693 0.09189988486190259 0.0318315302879455
0.594250934742746 0.22681477251515503 -0.11478801143769601
0.4641354996496716 0.18123032019263974 -0.07243572762997985
0.6062413981310328 0.2036906969028962 -0.09631937880385522
0.5387211777483856 0.24395107519153214 -0.01520582334794085
0.514792146281593 0.21164962222349004 -0.06430037498270735
0.49102393602123584 0.18250512746575964 -0.09651370370455936
0.43248013558982734 0.22153540101140834 -0.03468432027136714
0.5750032958848692 0.21752794191873193 -0.11318198513639288
0.521331812579632 0.15244302396251896 -0.06406193981946728
0.47016814034361687 0.0969813462266984 -0.23520163879562972
0.512170499975781 0.20645432440093714 -0.06776358058408505
0.5181998789740021 0.196751620034064 -0.06764416281293961
0.513977727008438 0.18575206056436855 -0.07385956395276594
0.4597809861420501 0.11999519660001567 -0.1732112661635199
0.4047886469842581 0.1551974319202003 -0.07591186993245458
0.5015352405391411 0.18295764380025048 -0.09036141179959145
0.4965287946184844 0.20095207543400306 -0.030218015917000685
0.5369945966495777 0.21554675510114407 -0.047012610422498824
0.4976624893172925 0.18945233610304513 -0.07485751479792668
0.4623285364172034 0.1394299313490137 -0.09714204441588947
0.44200824688701346 0.17619801623484932 0.07157038664310278
0.8863551688175448 -0.3417428568572518 0.08572931502750691
0.5746537791016522 0.2528583516380536 -0.08254843836127179
0.47625915257751217 0.16890291797795953 -0.05555766161441511
0.4651783342151248 0.1904491842014977 -0.10697638077132865
0.564717065229047 0.21782801138168395 -0.12108244012993907
0.484729554233013 0.20985132364418746 -0.09814156744961622
0.527792610328305 0.19054688446698265 -0.10645462428816188
0.4236915261224965 0.20144284224343778 -0.04560044715688605
0.468859137120603 0.1711277310130157 -0.0851909606297454
0.4720793747374614 0.1699735665273181 -0.11259287704288568
0.45630996682490377 0.16357999024106107 -0.010477290528967842
0.5160832450648059 0.17785260343990217 -0.052450521363823555
0.5162278021957718 0.19606820333399355 -0.053207371851343055
0.5330172679971099 0.18570450406517125 -0.09280163843075684
0.5275035478678376 0.1813126418315676 -0.0815925023980526
0.5985792107424572 0.20969619256027272 -0.09423312836182163
1.6977733627407758 0.40266937492754096 0.45269753673312607
0.6071948526207223 0.21790022081449933 -0.10412100314373163
0.575924289226748 0.24744635170623042 -0.058326412992343535
0.5511604043049658 0.16821023130506774 -0.11588204038021388
0.48587556845458835 0.243434531732305 0.004486022863886774
0.48894963623985177 0.18842088317727246 -0.058934650773935005
0.330913438171649 0.09601586723817945 0.049815248079582375
0.5128434090476617 0.18038276170197776 -0.11020641951049015
0.5105590163545912 0.17803843772770733 -0.09947750136308287
0.5679553634570595 0.14320910312292767 -0.14583298533371192
0.3786838405327728 0.10145930356256372 -0.07179523780369834
0.49963838882479195 0.15010429039652706 -0.07488382349495737
0.4635708999304313 0.07087476330617903 -0.10666152923727168
0.5596556691579622 0.19184057573002633 -0.1613241985711369
0.5410295118589374 0.14277133600872105 -0.1012760317912722
0.4779762305583972 0.22718417836610172 0.03279618251255556
0.5095113774014521 0.18317328484124573 -0.12259356507877328
0.5751548906503388 0.2546705772934814 -0.04084457705960176
0.3905487587405787 0.34778803061564645 0.17910656585394236
0.5032338325418664 0.20404728593616994 -0.09279672767800662
0.46651801580946994 0.18015523453740911 -0.09063736533900624
0.47516396586158294 0.20997212698610213 -0.06988912498175637
0.4478815992909233 0.13151322259398057 -0.07228430953267662
0.4975410601489614 0.19815029696385977 -0.07728945995512504
0.44934864173339406 0.20704954893574268 -0.015916998761156265
0.48757826731505816 0.17953284758597476 -0.03896963048921975
0.49392344006497524 0.235016167613054 -0.00986578347142597
0.5662697717091021 0.247800819666395 -0.04469008965875787
0.5631482944960169 0.21485881519633665 0.012654111652878441
0.5083758055117471 0.22134172198066437 -0.024842126612114157
0.6025317066655873 0.24314816660847782 -0.014177545138508663
0.5502803390882889 0.23016280939938838 -0.07775359246647895
0.5803154393627494 0.2338684615308324 -0.07001099614198836
0.4634357931118416 0.1542849495660903 0.06114120433537096
0.6209632833420642 0.24931067707589705 -0.05598414595503698
0.5395470084839928 0.22994665685345694 -0.045071745114640294
0.6370792296706895 0.1592266491977341 -0.08783252445384448
0.3841394529739546 0.16939776528013795 -0.06401715635007577
0.45432068066952525 0.23637876165790317 -0.05813629768540807
0.5397562239440958 0.24760022380252167 -0.06708447273037166
0.504592908294029 0.18404282685057183 -0.07347176346411288
0.46247024900060296 0.1373058328423724 -0.08208076625565752
0.5741479786395871 0.20910208697131338 -0.03718585785026107
0.6932393472040417 0.23026528970967775 -0.07203665996806308
0.47290637269671265 0.07558574336329116 -0.14988003927915372
0.46135753211311226 0.23660720902785215 0.03708677335328048
0.5474398119586112 0.1815932706996506 -0.18148428925881888
0.4940233894043331 0.24236069156671647 -0.02491254245259711
0.5700983517799898 0.19939831350274062 -0.05374844435327475
0.4609165606037777 0.24571004843969035 -0.046357660348064655
0.4965083955529508 0.21186609085862074 -0.04537823088588766
0.5017108548400131 0.23469644997992134 -0.05202484929139928
0.43362740984073866 0.20755362687700085 -0.002248026400081926
0.5243414875799886 0.22976198627635824 -0.05789779878730883
0.4567592852233986 0.21571635448623283 -0.014754119449534642
0.3390230489223143 0.28961551117717477 -0.014357635389274037
0.5231416855918098 0.2819802519162806 -0.022750768190874737
0.5081242972341045 0.16283419606131133 -0.09577112163030677
0.450860747975355 0.12234726360648551 -0.12247718727695656
0.5013440619783012 0.18616773941238307 -0.0725848845861492
0.5985253117040656 0.25816759735371875 -0.030685041938028235
0.5488046056520659 0.24853574561666392 -0.08053531386656232
0.5200361987371593 0.18369414688538654 -0.07973397390263415
0.5438529795352167 0.12190533390972291 -0.1236877607510678
0.498448895553139 0.18448582301192573 -0.09505095063727254
0.4981860011109802 0.17308364663657017 -0.10751183228100558
0.3568866670353259 0.5921593687734941 0.6329874170814378
0.4857564630490856 0.14504597816878118 -0.17316068542217522
0.6318989030098692 0.2433870490039709 0.006151421864927897
0.5099678760317943 0.19820913634572435 -0.05765717594969999
0.5605587701411707 0.203046389737068 -0.06689552224607098
0.5406493240228372 0.20466326179527528 0.05056356519212102
0.46843872377294815 0.17805441008863454 -0.07981037740123043
0.5010265880110865 0.1934406027793898 -0.05216042685863442
0.4129044631340264 0.1893914601798059 -0.033974175855348676
0.4706605324087718 0.15134912380392507 -0.15049882141806847
0.44660521487458027 0.22610605980585774 0.007326806657871998
0.5277023547434965 0.20626874779807736 -0.05918631082261072
0.43342598285522627 0.19499946730255147 -0.021268062402796772
0.5743730967149077 0.1714576776503094 -0.13593953854214647
0.5530481031097736 0.21425849484029413 -0.0741341274878522
0.4271867200180566 0.1596768287459156 -0.061385777530730934
0.4453535921924754 0.17267394226678334 -0.08356735910993507
0.4346850369016124 0.2025979616208673 -0.02001762949655017
0.33823530746306574 0.16247831462021622 -0.051319491016641905
0.47589306269767917 0.23333472548111445 -0.004416946962209067
0.49804509142791176 0.15967380837130918 -0.14025449976220727
0.47459737264995283 0.17428848195348223 -6.69222055762475e-05
0.4930213432656103 0.19654446686118376 -0.04420760488355313
0.5141370231735038 0.1848131888638136 -0.09385180516045466
0.33468167621930434 0.2617458741389953 -0.05786718687816972
0.653569760759865 0.24935795993319232 -0.09650917223994782
0.4943378388908002 0.1914392908071818 -0.079767509582652
0.48298646252200683 0.17412861165354343 -0.07089689161227852
0.5562455783916107 0.2394054525255882 -0.07416430276752806
0.5029488975175411 0.22558900670381377 0.011883263843813552
0.47821625064696605 0.1303447551561021 -0.06293141376805522
0.5740053016683078 0.26124388370297424 0.006495164523400376
0.5701562786140357 0.2500864857595815 -0.006943918210666311
0.45178024457234756 0.15824807728256474 -0.08274032274292153
0.5617581472426139 0.3092115804784328 0.014410541550759604
0.4914517548608899 0.13304278484088172 -0.12267812577407256
0.522087247358769 0.17311871090875286 -0.05333707861335313
0.5991068844086556 0.20553074392688586 -0.08176014445876945
0.5858819941228148 0.19039669297222872 -0.12224639157574302
0.49929856299704056 0.16335695368877623 -0.05585023179550319
0.4942935039192946 0.20399382182588965 -0.07214578933979965
0.4550510526918572 0.2187976236641589 0.016507531875035397
0.48255961761890376 0.15110355430326194 -0.11885998633322004
0.5287461612594768 0.19295910747140965 -0.06919802895760085
0.48586486185374156 0.17601890607153337 -0.03791758999223305
0.49856526383669575 0.1495625339692026 -0.04020602391771888
0.45713445427290367 0.1838978944034011 -0.12221714593633237
0.46008013185485197 0.18064155476021426 -0.10361062844701507
0.5384340318484817 0.1964076209304153 -0.1281722819179123
0.5191069475484653 0.2516502570911143 -0.07582502162667026
0.5306998694294691 0.20757253311737145 -0.0729314875074607
0.5040003313122554 0.12266505019104557 -0.036544437305906285
0.4632574417586568 0.16963449050928148 -0.031166241465982125
0.5395630620766951 0.23376204575603765 -0.022490065556993954
0.4675904545112246 0.17253607861809428 -0.0798799098379277
0.4602869679348487 0.18638875148664624 0.013654267577393853
0.4675019911126128 0.12595820867109353 -0.06642048750944696
0.5329483651873943 0.19689055229503083 -0.1356363240832792
0.5402688464308483 0.1809759975350147 -0.07672170536991985
0.5063887212313318 0.22607666687551387 -0.029259855282106173
0.6160122035575171 0.3452338108260449 -0.06064258569318781
0.5601573018868464 0.2211790785475216 -0.09480929858392528
0.5347815230254298 0.2109209647938144 -0.08410439412527637
0.5163243342547901 0.10724677243240421 -0.11100171373193746
0.49101351013945305 0.15341548857549014 -0.14967740816024389
0.5224689004694199 0.17229058627279414 -0.10801912559884386
0.5995261397214904 0.20927706086183662 -0.08359888124221015
0.5247869824837323 0.16764712460654607 -0.07842395053590678
0.41660333393582505 0.11058862955138693 -0.3994111877108253
0.5951070059972494 0.214271059121927 -0.06394365560022663
0.5539593101276239 0.1808939709664088 -0.08079340893199571
0.580328191200806 0.23345886482007927 -0.08438322986462765
0.5520501297107501 0.2743733938624757 -0.011597236177379955
0.4465840290788208 0.17145614195865733 -0.09232899034202546
0.6423012769191132 0.1475344160986367 -0.16064780490363262
0.5422521439613774 0.23566399196661791 -0.11371846939847785
0.5302007115076321 0.18100302512979738 -0.07027745987394951
-0.4768916570553188 2.7800575721026632 6.11489938375226
0.4531824389088399 0.1787899819280483 0.018708213373571425
0.4582999988995766 0.14683236468975736 -0.05998893509219272
0.38132058248820044 0.09265786705182677 -0.024964467526274348
0.4560367048300691 0.21885763305658656 -0.02396346404374583
0.5540002536066027 0.21586619461847079 -0.03583509554778175
0.49059999007317856 0.18482011201378157 -0.04180022930455607
0.5325516405587507 0.1840559991272528 -0.09987499636189057
0.47710054847965466 0.12002674665299651 -0.16552776493979593
0.5157367691832349 0.143585055164408 -0.10888300564153042
0.5075671881246535 0.19352797807552236 -0.051027456525034154
0.49139115389482413 0.17927642708045255 -0.060176669205489475
0.5300769085137915 0.21286450667714973 -0.07526323176703897
0.5016326556807371 0.18785460907795937 -0.10270510126971999
0.5530911553814519 0.19985561821047781 -0.1970371917381044
0.574898950498806 0.16615034975691856 -0.08356157576926648
0.5710664037631545 0.17364304550410736 -0.08623256014300296
0.4610299086315308 0.1607112495545664 -0.0748844998796443
0.5849752726402642 0.19085837284032436 -0.11226576136745336
-0.1273249312832263 0.11336888439794279 -0.1865230908954345
0.3018157995566071 0.04775890842518038 -0.0062087271232513785
0.5489474064484909 0.2314828758726719 -0.004454711618095075
0.5694878446311122 0.18392026713277687 -0.04381947937837083
0.5835587877114108 0.20251971597517127 -0.11001598332974538
0.5399674944376045 0.2097471740163428 -0.03551099224254983
0.4658149571779404 0.19340141810658906 -0.12036811176567142
0.6531700564793255 0.19359654930738657 -0.05002739360688224
0.4603920786259721 0.177447560089945 -0.03648393824724394
0.52135270047512 0.19999020714479343 -0.08130786961068281
0.5045760012786786 0.18398605493062803 -0.10870911150028917
0.5242316595563352 0.19690091855400738 -0.04298633897715831
0.49140782439022246 0.23407569310019483 0.0326824984980334
0.5546918671805372 0.19901023373220994 -0.10226861644019891
0.507984417152727 0.21839971636214273 -0.047642242737197193
0.6231692235534467 0.22667089033254229 -0.10570036842430852
0.4999792271896979 0.19371620322064587 -0.06204443203509413
0.5147350106650492 0.21067820756962874 -0.10154438082496142
0.4650585623066661 0.20613042920757607 -0.018748130770589455
0.5406714905150807 0.23997296713406513 -0.040531992045444554
0.4862070068770947 0.17086063264156337 -0.07812174314696563
0.48014868554378154 0.19765507834097207 -0.03432227697281576
0.48833893439302756 0.18905581069043365 -0.07246981527626417
0.5432543129901148 0.23304241155638294 -0.11708737995820684
0.4842717820166911 0.16388134887583305 -0.059921157907382394
0.4902017171745001 0.19432013286316874 -0.08885985045641576
0.49246041953773556 0.19703814662399566 -0.09557355801128153
0.4747861059723846 0.15797141555871974 -0.006854907047966208
0.5178978968053798 0.20278328553106917 -0.08085365486493856
0.4573488832194812 0.16919229922399381 -0.04848096333920182
0.5441189421006243 0.17374615545523397 -0.08728547191283553
0.5295509001224161 0.16900931623300153 -0.07479648835214903
0.49169259451841185 0.21597344517151384 -0.020274730184993928
0.5892318541342547 0.22894269650018373 -0.05846437676103733
0.5164954864969786 0.16390735529532208 -0.08082443370895476
0.5502503687322928 0.19434807903942897 -0.1022747505542867
0.5058173367103223 0.2017605911888154 -0.13744122693123018
0.4443601206011465 0.12315538183571562 -0.07116823913247572
0.4844628177658876 0.18599435180367152 -0.07916802371968856
0.5909111639030868 0.31628503314186673 -0.0677129261212599
0.7824333452244332 0.17249384168562187 -0.10821102857698861
0.5119586945279764 0.2041828300696693 -0.025516119064732834
0.4671081138584725 0.12850781257570532 -0.07317164749743199
0.4691003371951865 0.1619700588436217 -0.019511912766148498
0.4905316767825525 0.1585576858872173 -0.0629458622729544
0.5080185868390004 0.19393413519730984 -0.08241405400625013
0.4787642011480102 0.17085323863700808 -0.07796097066469088
0.5055826032991888 0.19310053616152345 5.50672192929369e-05
0.5531202933956365 0.18210814503696326 -0.13202255698276133
0.9165260735591403 0.5462206134292558 -0.4194500418475542
0.5429191160192772 0.21139940236906796 -0.05487374019450897
0.5919048053098379 0.15894647644043403 -0.18336282135464899
0.5312497148784132 0.20498443508699893 -0.07169405676425811
0.60202235320358 0.2611142141450671 -0.0634308498175784
0.4074593104643043 0.215009529994461 0.15842896217034763
0.590442641105966 0.15850217596295124 -0.16060949268963043
0.4350148601520516 0.07388140973878876 -0.04968265740028244
0.5175294017205374 0.17881748879108272 -0.07158607252574711
0.536622974922409 0.16603598917083673 -0.18279788254680795
0.40237897180006144 0.09746327526674747 -0.2289972893132699
0.5428282178293102 0.2359612713694048 0.013638604483318773
0.41675181585941345 0.14546304508253627 -0.14310466836158753
0.3520961941002554 0.09809607892523786 0.21669961506665913
0.4516135159242083 0.156471514524668 -0.0799830403688162
0.5661942387514216 0.21263013047393997 -0.08691496085764072
0.5303031062980494 0.15748259433951262 -0.08461576542288185
0.4965803248948646 0.1630878055280789 -0.08686526416741458
0.5000736563318355 0.23837138313645312 0.0512875635073442
0.4871475174465445 0.17076637054660182 -0.0794190578031646
0.5521588782016522 0.22579921174775563 -0.02993039545879128
0.5220325386067088 0.16223573100026556 -0.08860494956277876
0.5906730891826726 0.2668291638266851 -0.08528196279480937
0.6263305215140349 0.24178929600819288 -0.12605670411433323
0.5231140014235791 0.2115168209851106 -0.00016903691505376628
0.4607592767083588 0.11996558140532443 -0.1957831577021949
0.5650456013720486 0.23012682485244795 -0.044861703389400986
0.49338718100037227 0.19395748218263975 -0.06855330665113968
0.5191738532158752 0.16893100341323475 -0.08312022215463344
0.5637897008396351 0.15782305095299876 -0.07290274058874502
0.5381184667130583 0.1533392600803154 -0.1023267315659524
0.4877056398073023 0.20169519122046609 -0.10380314845856731
0.4479501241746675 0.14854138628444957 -0.12460917767418778
0.4688367257487016 0.125528841695143 -0.10866535946544786
0.4530815890033466 0.15710052890722181 -0.04814486625757297
0.4410730583093425 0.22971886091775673 -0.040033244536658685
0.542612620404924 0.20621837394635634 -0.053352331228779803
0.5183976570642699 0.18839362014105632 -0.09994575635553815
0.5247758940271865 0.2997665414476671 -0.19550030988892786
0.4138597861401365 0.1526387212414022 -0.10734641189863225
0.5272668153596953 0.18467837990938563 -0.07629387010538835
0.5319871644791192 0.1952535135674225 -0.07697328975990558
0.504670229674133 0.18672020223462482 -0.05521928980392943
0.5215341475245054 0.205508519108065 -0.07085633818113024
0.5644709795850815 0.21162113576886554 -0.09923660191081751
0.5277607880314008 0.19668824002886254 -0.05621222853329755
0.4818370248981978 0.14581462114063015 -0.025631382808811054
0.576118908577115 0.22950972144275283 -0.04335367107489674
0.44831196427014675 0.1778877450115317 -0.030914990150520794
0.4860098929268304 0.25035458816995515 -0.011542920267658019
0.46414442169117365 0.14327311669231335 -0.1425320088853823
0.5569118117701919 0.16236182994180126 0.018856336034389187
0.4757334125842476 0.15931776139042597 -0.04952682766719363
0.47410043419350245 0.12598300242669325 0.1968663363586387
0.5619701979329363 0.1781285966821713 -0.16084704491549928
0.5358770812724174 0.19400900517217678 -0.07358321980733251
0.4893824020569184 0.19836693672741035 -0.03572591377012202
0.47603975559448486 0.21071068289418804 -0.029315158401260533
0.4589573129857456 0.12739909373090086 -0.07576794438070067
0.46432286911411325 0.12698705070636152 -0.09867203448209239
-0.8600729006924439 4.415655709669267 4.439251874960576
0.4669594459635107 0.16478519085762855 -0.2356295207122372
0.519476688474839 0.11929766688564314 -0.1505400210485277
0.388500608195983 0.05835207599648129 -0.08245840363731816
0.5174256897269061 0.20802909922183233 -0.017953937824302102
0.5123720966872725 0.18144991103434904 -0.17056064728443232
0.5231724238429081 0.210736566105453 -0.0628403603570149
0.6817044824141192 0.20054427468903668 -0.7025829412922775
0.6033393517483887 0.19462561476811402 -0.017856547639723885
0.4888597270219748 0.17136366129651037 -0.08111643633758092
0.5468739084337528 0.22999072998399583 -0.02218262633716961
0.7373820551267158 0.14661037109786434 -0.10900986323868267
0.5581655932468834 0.186588470868287 -0.08921942462194465
0.6847376066411357 0.20478121117764658 -0.09808695334585593
0.5356486694871307 0.20678939684059117 -0.07515130549276705
0.4811828270491958 0.17970034352845232 -0.09725200188982797
0.4692515364877181 0.17540922189849084 -0.09708568543048557
0.5461723882418994 0.2256866844744536 -0.021018230192382248
0.5096051016670344 0.22841177372009724 -0.043208523834650236
0.6178018879447507 0.20134571401645474 -0.13680378661862846
0.5854475807614108 0.1959578125392909 -0.07022180958945512
0.4320387108424768 0.19737340222962985 -0.028833402673299702
0.35295060292654057 -0.32047849861008615 -0.20275192518296592
0.530299056915311 0.17913134398281727 -0.08417909264115053
0.5491190821481666 0.11839307673932353 -0.21582345778853096
0.5793303082840282 0.2564185983345624 -0.05232909189324175
0.48297088657761833 0.1720035589220288 -0.04291112384662199
0.7082415229009484 0.41243134033405227 -0.0791679548164268
0.5784287163034776 0.20555865420587338 -0.12412187782663864
0.4983157398053777 0.14833514458095465 -0.0680513972638721
0.39324331450333716 0.11008426998324694 -0.21427231022357773
0.5814332422798145 0.19265802292740375 -0.15153062598697886
0.5278374776725911 0.18075334161409273 -0.12489374721506863
0.5068636054198237 0.18668443169470095 -0.046973769754032446
0.9943966281566361 -0.0026606984144450507 -0.08273789606579385
0.6204534314911996 0.1928665621784944 -0.04198162095100599
0.5431510079873192 0.16315442394434854 -0.11863663858395057
0.5298311091560777 0.18251895490234915 -0.07062785914411052
0.5251181204300224 0.20791547435175062 -0.018249912685078584
0.5339967523838425 0.18383380657630255 -0.07607381904236377
0.498686213773766 0.18384161917276742 -0.07968961191191681
0.406345700767929 0.1597325679832693 -0.10500571125706415
0.5970970050669848 0.23122911710487415 -0.06467037867523118
0.6086633221307807 0.12784209790319778 -0.06352332696917529
0.5638263756705157 0.23298068275779826 -0.1312525346624085
0.5131026999789015 0.20030208556588036 0.028229247096618337
0.4853237680006828 0.1418644086081997 -0.10550477417622517
0.3648887910254359 0.1370869918841322 -0.0949397774556644
0.47782461780857943 0.1675694022363814 -0.07068340348713775
0.5726964486885606 0.2489160882806658 -0.09877595543261464
0.5289478807053456 0.1991691186679816 -0.08634246699443793
0.5137085418475067 0.1501667599722225 -0.12189679587768865
0.6193829912666047 0.2040300480752819 -0.09880401732969801
0.6239223028894969 0.23180305199360873 -0.10905882228342989
0.6380534535700519 0.2183994330471677 -0.10790217345576991
0.5266829133233273 0.17978633195683358 -0.07943297381670789
0.4824966594235889 0.18132071879927025 -0.07413722530030498
0.5705552859529917 0.11851513130481806 -0.1331289236516966
0.5693724887157146 0.21700282813128524 -0.11731873427605422
0.41257493638559595 0.21550273729695846 -0.02027493207636155
0.5289800778331823 0.23320140582006843 -0.008349872951498583
0.4845134371605866 0.1332828891424498 -0.03285323123850503
0.4582758503583477 0.1964860731472413 0.0042848770194154895
0.49079825518742837 0.11155918959678957 -0.10313734402355124
0.344443171689619 0.14809594083172328 -0.11849122596396455
0.508369988380224 0.24944230915539833 -0.034430374191074975
0.4909446222283975 0.17657826338572136 -0.09110910052041277
0.5689254160083124 0.21419894325620703 -0.09967605481450903
0.4720625158322491 0.20848609179631694 -0.02176514793504225
0.42741736118662743 0.15467293098660662 -0.07841325279822797
0.5910595650965718 0.22209798814358805 -0.12937624662279745
0.6781115619188824 0.20779610279279837 -0.3200967971732638
0.4953956921642373 0.1837829227280423 -0.048039510012557685
0.5560699523107075 0.17685086988716137 -0.13407835229899945
0.5427472333653611 0.17252203778591024 -0.08800974094720004
0.5437047644914799 0.25051816030367036 -0.03578850976126091
0.42737221539343295 0.1667610708459648 -0.048113940863473204
0.6473226653169775 0.19665180224635037 -0.08348491666662028
0.45615480906857897 0.15173106446752627 -0.06114806264409367
0.5225238512753378 0.18764658472218798 -0.06978529011038859
0.4262400511883584 0.12844244189736287 -0.1719429475595149
0.5594379643281684 0.16573470281036862 -0.1253236085104419
0.5231486301358075 0.1875614118062714 -0.08384361161425602
0.5697826399477606 0.22302186588962059 -0.028828715451709286
0.5143036619557506 0.2034541338039162 -0.06301170564788094
0.5055056155626403 0.20727578164982674 -0.04627865273116072
0.5882278395371827 0.17168778141885355 -0.1219849541802489
0.49037674820240795 0.18395977239532613 -0.07283008816713732
0.49395340625034123 0.16648237686567313 -0.08065417316818468
0.4220742308522176 0.21484231868382153 0.009003649221028809
0.4977765941363259 0.09073185968114217 -0.15273746050026205
0.4914318483177169 0.19022531507748397 -0.048693874341026344
0.5307018006537874 0.21298119208681499 -0.056259480981140086
0.499691127289708 0.15861633170700884 -0.09158060016589786
0.5186360910220742 0.20334423090569942 -0.07983472956024684
0.47967230253036064 0.15653210580865107 -0.040279198360792634
0.5046013167687704 0.20117394007377243 -0.06374642675783093
0.585283114467984 0.1873999435497069 -0.03734987895703057
0.5514563349196919 0.15410703302148931 0.05861454102249297
0.5209573775632919 0.24050972837432028 -0.06939339109236187
0.5556051425322153 0.1935886789391077 -0.04246640715680883
0.5156082337915677 0.2158591442644564 -0.037035405877318794
0.39434441614699267 0.2333670930295284 -0.05842105306480505
0.4634009664956409 0.13627541266228604 -0.06720060423941732
0.5361740172579346 0.21836394992010355 -0.06752222634546001
0.5246945065218824 0.19212542178351555 -0.08337791641034187
0.4955586741060358 0.2074426347009961 -0.010181504786473283
0.5215819198431291 0.19422076166426905 -0.0840094785142611
0.5993277677065123 0.2443622030165784 -0.09832954813465733
0.5070505873416096 0.15070820765325266 -0.14176931263533277
0.44884585280607325 0.1758048284929714 -0.001036095305792628
0.35266573140751234 0.11035544000333175 -0.14524588685350182
0.43774202300144793 0.2240283571880468 0.01777832648831179
0.501374060242398 0.18834122729904834 -0.05579052777460447
0.4802151234230223 0.1434221302034473 -0.02175424516551061
0.4771533610528138 0.25184189007433133 0.027612386141456113
0.532809438250041 0.22064714627938997 -0.012021738729927733
0.5045062211914058 0.1529638675330034 -0.0861307585625184
0.5088945621555467 0.16246577528342243 -0.14637919201479122
0.5005566932940724 0.15333410501271771 -0.09883731945156171
0.5411309557662491 0.21159015320212404 -0.05267014879258625
0.47680962387056525 0.16773756324151634 -0.1068511194324202
0.44795839464796927 0.15536339783096764 -0.07569263567535245
0.5226991087172621 0.20877231373276572 -0.12320107303824557
0.5672566208941987 0.20679935595151733 -0.13028133056691615
0.5068932687325969 0.21788984022305158 -0.07819951770909483
0.5395322039175312 0.26169111343679674 -0.00628134956612314
0.5575422914614308 0.1747695088658361 -0.1162493123912327
0.4899232972838945 0.182611083496397 -0.05044706803914778
0.4383737281223148 0.20210257854580504 -0.030092055061260226
0.5265045526398069 0.18644563312733453 -0.07160541870881332
0.5122070443474627 0.19226504986173154 -0.030482803031986805
0.5178985518107027 0.19998708333753257 -0.0850376001509403
0.3568118412501349 0.15771147637281047 -0.03379553322045581
0.6395027719748612 -0.032868357449217456 -0.6178633326153573
0.474815639923861 0.15461997574070097 -0.09268183750039327
0.5804758105829535 0.24030093355503368 -0.03713821973023812
0.5949505464679419 0.22457081129249445 -0.1121485827597013
0.5816131964650708 0.02129150088612164 -0.01975032136806476
0.545903233652183 0.15697507743118422 -0.08999701625012335
0.49365914437228753 0.186759365597581 -0.06839418776192474
0.4632900331476435 0.20094212817019752 -0.006563657674249157
0.5140730092255694 0.19361505020646064 -0.07900896366273003
0.590379096360607 0.19466613027873336 -0.17487587100244184
0.44624567064278153 0.14379095750933857 -0.10566123910638225
0.48868333061230373 0.1933424112186941 -0.051686365966318704
0.47481167299324056 0.15984632045010017 -0.11401860925118967
0.5803389849667155 0.17001778500221576 -0.16468676006807925
0.9938360127192141 -0.46362137179262675 -0.24086989575168616
0.48330332859981695 0.16292815216905865 -0.029856792628109474
0.5097999284884338 0.1824753496506304 -0.0509402354643953
0.5222521555424748 0.18828329387696385 -0.07080752655846823
0.3440919274614487 0.18487147358570155 -0.0855874364109468
0.4913746841127704 0.18077840600786033 -0.06910328353016837
0.5291769235168715 0.20334296944089658 -0.08072299439545816
0.5161239968998075 0.1759502766140315 -0.08382235077081646
0.4376801169638611 0.13953784677933356 -0.07089234400046962
0.518488616606362 0.21979099487516862 -0.048166898388387835
0.44538105790803684 0.035537300542472394 -0.0339666742658693
0.5155357316624816 0.2005575561063324 -0.06755258420477617
0.48973272325935113 0.1878861812084267 -0.06439416469704895
0.6277034041308127 0.2990883984763997 -0.12114665005877612
0.6155356421966758 0.24994019342608453 -0.024585489114187453
0.5204927107675701 0.205586570337573 -0.07964499909368783
0.5780757746900065 0.2500515268808243 -0.07763962949741199
0.5883293662420499 0.18869010119485097 -0.1229836047679953
0.47838418780875713 0.21352552399102365 -0.03416776427518187
0.44738056197255105 0.18403315562684952 -0.030414238742849875
0.499511540748216 0.17537960706189892 -0.03277325317274915
0.10709208684835403 0.014769811687926904 -0.17409361396978795
0.5592951296566468 0.20134958328102925 -0.10348696145760528
0.5997357081853636 0.17399701903207188 -0.12502402050719752
0.5645949630801681 0.1916679299052788 -0.12164346308270524
0.49858969162795574 0.16173416329732504 -0.09982948872212205
0.4135668984234542 0.11278596113731965 -0.14389507332094809
0.547972183662182 0.23035776582131007 -0.04952931315551723
0.6142461521563405 0.052214671601205964 -0.11190679087727062
0.5216513044304065 0.19703229355141616 -0.08587268370403933
0.5554816754905119 0.17824483682264258 -0.16772329038072087
0.31018641276529024 0.12269192345081592 -0.0781374070201366
0.516489844334842 0.15838907980864292 -0.06326224584701379
0.4230344973873059 0.20010547683482116 -0.03399437574537956
0.5602219304466871 0.2439431555519036 -0.05114958865038943
0.5420893442005763 0.14095680798077126 -0.08976517038912846
0.5264283295860537 0.24488818181990268 -0.05093577865797272
0.4679521566426672 0.19433217772169087 -0.07077162266999437
0.4791404636388563 0.22014666514442638 0.0030358768937333025
0.5032346821963642 0.1973907669052437 -0.06696829151704264
0.5502615359930019 0.2177665185339066 -0.03402268746981463
0.514210598664846 0.20352494907862706 -0.0500666367447451
0.5113601684412856 0.20891597855037958 -0.05100777123792
0.5429370849076633 0.21759010668981205 0.011270060953791017
0.4774775852659445 0.1118933475419226 -0.08872043042731548
0.5488507515581489 0.2553484745790513 0.02607400008851357
0.4916002166262956 0.18560538630399037 -0.09593227389903802
0.4817244884466447 0.24200579178821613 -0.002691816818952475
0.5080278279069432 0.18081825956303987 -0.06806661832069949
0.4439668467520619 0.15339496456442703 -0.013941486233051137
0.5477255447085554 0.23816990011908956 0.03183922482119783
0.548412949043211 0.1592522935342231 -0.1343818978197504
