# .PCD v0.7 - Point Cloud Data file format
VERSION .7
FIELDS x y z
SIZE 4 4 4 
TYPE F F F 
COUNT 1 1 1 
WIDTH 800
HEIGHT 1 
VIEWPOINT 0 0 0 1 0 0 0 
POINTS 800
DATA ascii 
0.5227353221491455 0.26832635239577485 -0.05490861244460632
0.4798757757488943 0.2181715853173074 -0.013006372842909286
0.5271355845969481 0.19092377183000053 -0.10129296818037403
0.5439431166482223 0.11895589445069277 -0.146207827307677
0.4832209292832488 0.16428585134073614 -0.06344790649727372
0.45560198707988775 0.13904026572603811 -0.1360850969139733
0.5426488129531037 0.20454601042936815 -0.07853033803891663
0.44847588386360826 0.20369607573786652 -0.04370422904838733
0.5227743582022129 0.22507804315908686 -0.0419339435106707
0.4929572030968927 0.14112746944289256 -0.03659923622639383
0.6115702321224319 0.235121881877717 -0.008255191276646201
0.6009989886545384 0.22292256326548454 -0.10173942689247895
0.46991194055607366 0.10559715899495359 -0.058053184241245503
0.4385440747470568 0.148599881274194 -0.06355225454969116
0.5115562513540794 0.19915429505195448 -0.07880102245319165
0.5155998450677828 0.19407098026718472 -0.07523776078950561
0.49014424661754674 0.17243543982166898 -0.12570542473596902
0.3192917918068474 0.15679920566057604 -0.13765232303823893
0.33648003521972214 0.22677380659449398 -0.11996455506086079
0.5213092838112914 0.17865989279827943 -0.10935710431019174
0.4762361126265944 0.1891067429041584 -0.05197414146297774
0.5847575853347848 0.280118025792774 0.0350747456013778
0.4207137781855579 0.19810506076947831 -0.03239612916496526
0.5513886021385304 0.22715207667422987 -0.06581537765029566
0.5427714553547389 0.2062613194810865 -0.09829882489712816
0.5128941012856103 0.27603813512483555 0.039606616024997265
0.511195520803426 0.1530449307697097 -0.09920187685695225
0.6171157879645364 0.2566527710244202 -0.11341805950550565
0.5801705166677493 0.16383146712563246 -0.1740270070114036
0.6209378444743834 0.18328350393758797 -0.09807546886142404
0.4949870099952989 0.17874861228364125 -0.09171306304307336
0.41197078567944345 0.12600302376668537 -0.10309466521388799
0.5425915531830299 0.21824736979560555 -0.07419316754199201
0.6575023731642773 0.20146407790568333 -0.11607956469340763
0.36960465663210584 0.16566530064361018 -0.18946635381233534
0.5184465835522474 0.18279955969084938 -0.08940235490459258
0.5158395085163363 0.16316429799229581 -0.09706841219318108
0.47999751735127916 0.1738889443350331 -0.09335064581060237
0.5899169847917847 0.17952833777104615 -0.15787962048686666
2.687338400250468 0.1802388842270659 0.9456272867058999
0.5980781671970306 0.10254587579987628 -0.18131653410002002
0.4970809089998909 0.15535079182004097 -0.052304838579104285
0.5019553559621954 0.17578787851489608 -0.07298528903503154
0.3985115234961256 0.1298458880052351 -0.09823699284422105
0.5299796080313115 0.210986161778294 -0.06362091127500946
0.6092616658913812 0.24382710436984212 -0.10418858037846235
0.48086867270032485 0.1755250324096238 -0.07126177302428971
0.5486404965119789 0.2359641766266236 -0.023631653587528945
0.5848461909693867 0.22730188107234994 -0.08188032508324739
0.4468822061096205 0.15947457789729924 -0.07183869419176858
0.4732545916979518 0.1660024418902708 -0.12505757447625854
0.3738311228059388 0.16099071354429384 -0.09658691926296115
0.4739668698622381 0.28189993913809985 -0.19707321624842677
0.11750266089555339 0.3771072061345393 0.4346459452189606
0.46641292457562145 0.21694020369869804 -0.11420571612762842
0.44750288900777946 0.14851686803370967 -0.01760286711781589
0.4955086601830203 0.16126319971594683 -0.0899854048035138
0.5302200603220797 0.16922547293020784 -0.09732164614216288
0.44293811998880983 0.15144077035016323 -0.1394635300833471
0.5160959875677236 0.2253981868328765 -0.07063489781508281
0.530624514058303 0.16717191987061142 -0.06286969092374761
0.5911954185418722 0.17462302418678632 -0.1489522115143842
0.4733266738026316 0.19411892325096858 -0.02005496155423714
0.5611060493569369 0.16830354004420656 -0.10572145630936802
0.558294343086061 0.2539802910829536 0.010776947215248356
0.5161417127080483 0.19707894676760418 -0.05405592875304421
0.4466227723679026 0.18051533697443745 -0.1044725140138496
0.5173200539683478 0.16901946282398228 -0.06621370942778526
0.5704900796469303 0.20833782064471507 -0.11543409178882769
0.45210898159277235 0.19085564459084026 -0.0399471365423949
0.45849286933693634 0.19405765844499 -0.008454058581975232
0.38554280438589217 0.08397928556031786 -0.13329546411054594
0.49602855650667266 0.22548771483474184 -0.05321417848651322
0.5464348542380435 0.18354535923754156 -0.097873946521986
0.24437035469711077 0.2853914425120223 -0.042692840265218024
0.4064489635699715 0.1420586425249155 -0.06869754150319807
0.5131927456122298 0.23198374177428605 -0.09344786013286921
0.613618888561092 0.27272416336799665 -0.03619213391199594
0.6537514587745648 0.0400074486614983 -0.05223341794359726
0.4250460569930965 0.1617659974820782 -0.03886116359055336
0.5064262487729536 0.1261659665413788 -0.12985945964881296
0.4510441604056723 0.1966637408469012 -0.02230200349669076
0.577437686153587 0.1230079601848928 -0.18115627015188807
0.46989464054732366 0.15772348742127917 -0.1093137843485863
0.5763437037989547 0.21097110737305513 -0.13541939804217407
0.49462571345031847 0.15289229550197092 -0.036548346526871
0.5710657822849328 0.24063543366811757 -0.013640180270073188
0.6786918338085854 0.19882859213677762 -0.17696274296868353
0.5722973947734147 0.23205938429734374 0.020703227186146478
0.4958083153127575 0.17252600522397188 -0.088970075294867
0.30047752398240846 0.30758349684444397 -0.1516745188817623
0.35371424588595346 0.06057585879565863 -0.05842837353939956
0.5022250323696937 0.20090407906008068 -0.07542044832760553
0.44035248114511205 0.17303768567421685 -0.07416556869780777
0.5751713565910563 0.18252355211392057 -0.12445164624230642
0.5000780337823869 0.2176045513260334 -0.02157037349208224
0.5586408958284323 0.16757511668481584 -0.097715901276473
0.5342375026520187 0.22785989469711865 -0.039637845595507315
0.5215340820366521 0.20147205234644616 -0.046778164231767505
0.5287962803514858 0.1649544734106314 -0.010702163403564668
0.5034188790464498 0.19274675834027732 -0.07049627883833409
0.5949939654333605 0.23434842476780204 -0.06279351595351557
0.5514530774108835 0.24004835769696342 -0.1892649371532542
0.4896374919114237 0.18651553455973158 -0.051817820067213916
0.5311048688675442 0.2361209415951464 -0.03180919232534052
0.4919582437148904 0.22474871299212396 0.021752168017343365
0.513504954033408 0.17339612711683117 -0.04666909630144289
0.5301498774633728 0.18448525981833086 -0.0977743493501464
0.5017558156410473 0.1801859639684551 -0.094358822544649
0.49681749641379724 0.10405222669676562 -0.10295288627955301
0.41058225744620813 0.21312994894307735 -0.08764181892999545
0.5575035195435589 0.2217125993239506 -0.034373748684373595
0.4885639907913344 0.1455470033889128 -0.10390027356007181
0.515566596143799 0.23236939107567878 -0.0829819013194566
0.5858958202949225 0.14702423181452673 -0.13901370869233176
0.4675784800508893 0.1601269489324295 -0.08098356868347878
0.5345231814244187 0.2531951939568273 -0.0037124182898082836
0.5245841750450211 0.19303757153321044 -0.07271498023901302
0.5446633262981209 0.17322420410718564 -0.12237533058464578
0.4938232731072958 0.15415699638502645 -0.12415120249173128
0.4008872925726905 0.20127052377728205 -0.22503957144674303
0.5231517688545466 0.19487395189943868 -0.07134903596680431
0.5455472590836052 0.21049271846280249 -0.10524250704050075
0.5138816861159796 0.19672299364177093 -0.046587335406940156
0.4832023973844173 0.3275410972822499 0.06932779163720681
0.6239055685777544 0.06259646857222378 -0.07014960216442034
0.6631150627432589 0.2612878090856441 0.053192716171395205
0.5478883774710255 -0.009257576260012002 -0.07643407069922148
0.540747466763861 0.14349071959264847 -0.11816066601474517
0.5847217787871557 0.1783084690009673 -0.1336118554434904
0.4807078351709322 0.2731615192581245 -0.058305234169068854
0.40669711007717524 0.32654684800328937 0.009677845697837029
0.5567707868451635 0.1623705374216513 -0.12667882214508097
0.5298419430026513 0.17528556349071778 -0.05993772776858464
0.49914265327942076 0.1482794805601202 -0.09427981026782106
0.5951821632135648 0.13980088574710692 0.031187316496115614
0.5172861181755479 0.20486001385270924 -0.06872140673422678
0.6222659415810199 0.26649744293528954 -0.08096944401059147
0.5043136507948418 0.16239005601883605 -0.10339691646863969
0.5135046257557576 0.15936520540722654 -0.0876982647567246
0.49757591385696287 0.14999416241431618 -0.08978536245990654
0.5331385258681962 0.198186278958687 -0.0788729839552218
0.5725357021213711 0.15950259668483113 -0.06775037981185505
0.5144300067749725 0.1856530046999012 -0.09397228174745464
0.5318385680226925 0.23929218211026182 -0.02988177676732562
0.5209199292956725 0.16795794404865205 -0.08064515149904139
0.4812095337166227 0.189207718164198 -0.03188393303614134
0.5031828872222945 0.17821199102316143 -0.09790270590595185
0.6642971122470556 0.18494495238550712 -0.1713031359679178
0.5800632063801459 0.20641693538190964 -0.09577550850286798
0.5715750575518541 0.2307632611996553 -0.04961187139986123
0.4365535702736736 0.18526781759305777 -0.04708478931860327
0.4977517284287387 0.18513722370563812 -0.03988858400070683
0.46747274203104894 0.17004004436384434 -0.08458721461838081
0.5212326602458859 0.15061343335219135 -0.13141961247839617
0.5502264874029095 0.24043885680666222 -0.0035039827405967117
0.5553192828395765 0.17215625801574674 -0.04308578334493518
0.49772193204017867 0.17882357442788077 -0.08106736575389561
0.6031909207289914 0.232330458842668 -0.09846700914430073
0.529558035959127 0.20449174433767325 -0.07277214800723186
0.4502658712347909 0.11550576979144012 -0.09941635181377251
0.6224941874290835 0.18937112572875492 -0.09758866516766318
0.5672861183369662 0.1529967432398962 -0.1710649974477576
0.565741968702639 0.22294422331916053 -0.03578497207753628
0.53319048169692 0.17475743083507211 -0.08768422407695198
0.5382517721620275 0.1702837958283112 -0.13115675810833238
0.5234236818393754 0.2876957574289918 0.011741065002624396
0.4341033773776246 0.2260847082249029 -0.059044514974601725
0.5449752831688954 0.19841833269222775 -0.04205019889691641
-0.12907816140841533 0.8589670025943406 -0.1489115019079037
0.46751819046244236 0.1320033257507447 -0.11848857575380123
0.4921881473792098 0.16434862580787524 -0.12022213978728757
0.5041188043597629 0.20696580913975993 -0.08762777498701269
0.4748915006947527 0.08516700309333203 0.03158843425460134
0.6329461220784651 0.2855120975234797 -0.024467508105715297
0.5059139331190181 0.11803691554119666 -0.09337869746151739
0.5223412307040292 0.21258277780523827 -0.0483836483327309
0.5086071682939632 0.17573535051064937 -0.14116455791689475
0.5322532748978404 0.1756936496212802 -0.08421767656392376
0.5133472927239211 0.17458899356444135 -0.08766245641783144
0.5609615702406074 0.24631019060822723 -0.046731133073933506
0.4782027138539604 0.21262478017646913 -0.010419120896543177
0.5201344113731636 0.2019256948710222 -0.05233858115722967
0.5149561401694314 0.13922397245885065 -0.09381396537187925
0.4360697184783362 0.13702043843271383 -0.030646014044847902
0.5078562185470616 0.22584530393756097 -0.04100004523407108
0.46273578297703466 0.15912403632208338 -0.09731141520346398
0.5416040229171983 0.1658829051521451 -0.11187187138573051
0.4732967883785193 0.16539655445359358 -0.12849811715356907
0.5175258865054673 0.16908627719050173 -0.0029473619637343518
2.1736933965787273 -0.7451659019917543 1.2841053411350174
0.5693098753964136 0.1879313865299821 -0.10550241823645479
0.5026713930050732 0.1603306539487903 -0.11680496658256345
0.5095350436500041 0.1502606949221672 -0.15081463974061649
0.41598432949854214 0.10311339649453544 -0.10824630492027154
0.5434667825845452 0.22418017919906674 -0.03024723151793296
0.48309371588243266 0.1738275335349897 -0.14627197181120266
0.5438440469046952 0.20316567952734488 -0.07436793940392761
0.5048682389487453 0.19133546478070684 -0.06275418658199783
0.5454793271687777 0.18968334879622262 -0.10784671595492057
0.5299485624587987 0.15612739647227158 -0.14155444162220476
0.399439579915736 0.1454755557365388 -0.01586085697030626
0.5711762906917102 0.21212202123039958 -0.16202137315474374
0.5083020315802003 0.1871440225630181 -0.07373014749802564
0.492640650205459 0.16457710830073324 -0.1045442885222343
-0.028708698837988322 0.8104512568394142 0.39868261743272626
0.5602197051601081 0.2289885955283495 -0.05328546011388369
0.5070071491090289 0.12708804955973108 -0.19503390895968664
0.590446203750389 0.16111259616570806 -0.07853030026407737
0.5305995491582678 0.23023779764628216 -0.07691323090578805
0.5395933415138643 0.20784197598629817 -0.11089591459315784
0.6274163545400313 0.19366368497702524 -0.05428178159657193
0.45096724687590495 0.20827818825458166 -0.01655168034110943
0.5642019406493262 0.21049214473542577 -0.09466872758106604
0.4887812619662668 0.13498257604521768 -0.12385472497392414
0.5215058823621064 0.1992966495787698 -0.14078446557194013
0.6243042982959821 0.2862836081186657 -0.09213152843771866
0.5229056572376578 0.17607951833473123 -0.09293725115294649
0.5056990446717009 0.23493281050180315 0.030888363639363092
0.49162034487207507 0.24094115475544697 0.01578567598897962
0.5273579736393685 0.16900850933524225 -0.11384356655914019
0.5246089753804881 0.19129048059230058 -0.09709319116512916
0.4379804908332119 0.18522364352403997 -0.02266665823960068
0.5631511547771311 0.28174023460668707 -0.0724260692380625
0.4973874430723981 0.188126915785773 -0.056546160487911834
0.5486132836871889 0.1451477303465225 -0.13537105784303094
0.5435477389330856 0.17633631653171733 -0.09215219419880327
0.5066261648083241 0.19028402674766198 -0.07975624105981183
0.5390699020284444 0.21888360506787308 -0.05291487164761577
0.4799832051207886 0.11649498069095898 -0.1533307718183181
1.8149724138647514 0.1739046816400247 0.06673447152746803
0.487747025049174 0.1497285906273902 -0.11901871265087038
0.5281041593675297 0.19464949193303482 0.04304155746902438
0.6359236066818141 0.17405766057090943 -0.163483647226343
0.6281875968695942 0.19984937847181072 -0.06230253784471529
0.5055332038765528 0.19446110457964494 -0.008154491132259523
0.5307589816231939 0.2010137794909781 -0.10572915841341057
0.4495346894226202 0.13954499966524736 -0.0871159325546671
0.6645815293849466 0.21181966139644715 -0.0920201006316006
0.5708821738668917 0.2670029063274626 -0.004087385465851412
0.617869974442101 0.19485771475982006 -0.10277629319716652
0.5625129497889247 -0.0037424532930430132 -0.1548668953711001
0.4164529616649304 0.2506083405855861 -0.151846861943298
0.5225694380147843 0.204483110725576 -0.0823639674361516
0.5239878417433204 0.20654472061269757 -0.059689775873920325
0.5267134075757838 0.1697773913920031 -0.10162648392009999
0.4201617485496456 0.16022752518369998 0.009721610869405595
0.5595316884861745 0.23796135296801424 -0.1244812689950976
0.05690842523242168 0.24314575562709706 -0.3870774481009249
0.4814460717604163 0.19888044529342608 -0.014550354530840082
0.5610548927051866 -0.019585678774802773 0.29943219165926394
0.09031275984682452 0.30950398687586755 0.18769083954907728
0.002424361802354724 0.2608177291437812 -0.27424429227997393
0.5639478457875384 0.23158032874771095 -0.06616191215006495
0.5498700289688259 0.3014400203649643 -0.07948351128382569
0.49929437592280124 0.19504333886658287 -0.04430813792107813
0.47189022985062934 0.1683993260172656 -0.12654708052558306
0.5456088592585502 0.1912627294857998 -0.09277810076505943
0.5955630081469678 0.2239077116909982 -0.12010187412518292
0.5300159985803532 0.2181526850220905 -0.08395459779386272
0.5214765784614599 0.2369265393722344 -0.06900218696476657
0.5243720189299381 0.07876227573098049 -0.21188778209197778
0.521203713415872 0.18065225126909468 -0.07946221378301743
0.4935463705214147 0.19775569885067057 -0.06683936361213227
0.4940821954582191 0.18559386839174863 -0.0665681046173745
0.5530630764069429 0.20973165406113026 0.019765653165336516
0.5043509487476285 0.10812994596665249 -0.4448708756286095
0.5237202258583693 0.21344802886008551 -0.07812504846801005
0.5107769408693343 0.1863573566074308 -0.07878022539451024
0.5378874156563427 0.18474575965805684 -0.10464579046684719
0.5246583375862599 0.17400533277992736 -0.10583825470708064
0.3675526930015849 0.12782366573350146 -0.10710895923379837
0.4934505789661614 0.1784732182632922 -0.10286848974747898
0.5176346433453602 0.149908017613825 -0.10054254711756982
0.5023530708349995 0.20766276353401736 -0.021054427863660408
0.5898405513156888 0.17948224350473652 -0.014379295815245996
0.6210576752554857 0.19916349643868614 -0.13150090173638773
0.42400628703828147 0.19822603830726848 0.002343816374519747
0.49980029045693186 0.1928657361227124 -0.04403233521451
0.4154723278955714 0.2231733606555366 0.06849000453094334
0.5488781831931817 0.14073560049664025 -0.16840491206966135
0.5599016771253957 0.22640814884985616 -0.03559191813874918
0.5221758864988146 0.18725827739758927 -0.07437914847039906
0.47073408269960737 0.1275955455767246 -0.12317773080118855
0.4963918804433831 0.1942374260455182 -0.07872416601784948
0.4686677042034262 0.16935889356841471 -0.056679938547461006
0.5404461565791792 0.1681391968690633 -0.09581757378576583
0.346175334555312 0.24444295087599244 -0.04343564819377832
0.5000078997315427 0.17032816022867792 -0.0738594417688887
0.5547575475122812 0.24217185627142612 -0.0740492467762408
0.5211273259441214 0.17111670563511439 -0.1064629537830939
0.6803279616286204 0.22796145361117226 -0.15336943735280784
0.5372757473163574 0.1881831659490274 -0.08838547845667222
0.5625808303891233 0.16267719645620105 -0.11678950760507689
0.5319283758932158 0.20967463396982566 -0.014188026117409436
0.5664169695680528 0.22673826531124064 -0.0439505317820732
0.5277495068558551 0.17902844031524978 -0.09297570735476768
0.45696172575165406 0.14253216685330017 -0.0796312551470777
0.47460129293915543 0.1686302542689191 -0.041095566667749495
0.5781814803212342 0.25499387822037534 -0.045152658529318046
0.6056778956589994 0.16527479094645514 -0.12265327663526193
0.4800412392379485 0.22444370497198918 -0.045231554184937295
0.3987837214816068 0.06653999021092716 -0.10394808877528305
0.5357184480161266 0.20564657226475447 -0.050203128152801924
0.5131704969033137 0.19150818950021176 -0.10359553606087957
0.5791763832474146 0.15954752537132322 -0.06863346996688335
0.46251800814874855 0.19430833704382167 -0.07803404250597623
0.3730315609309116 0.08426321216627741 -0.03901114864336819
0.5592413039194639 0.25416511081554916 -0.11613321856431469
0.5371214306493926 0.12236215651223858 -0.14444083343964564
0.5083167345919719 0.1702555762166753 -0.09657821390970867
0.5494188625275456 0.20906831888061106 -0.0615621642863573
0.5016222540296837 0.1784162777861411 -0.08083844300428211
0.4778757510241576 0.20542001115376252 -0.09286405717126911
0.5672377268921309 0.07978489563801361 0.0201271050683971
0.5339655654130695 0.1734501904652177 -0.14108863079630396
0.49967987127377 0.14732271592271218 -0.10191308257711285
0.541090155867181 0.22206750275721276 -0.013857574520812932
0.5124046411295069 0.1698452656454208 -0.08834370593972096
0.5479566526341557 0.2926719596248404 -0.09754216254725634
0.5724601499477728 0.243634848217269 -0.002909042984541088
0.5842793371940616 0.22542141786229308 -0.048129060671470825
0.5062161071955416 0.20743358346965124 -0.03119252955637819
0.5595746338535434 0.13832370756765044 -0.17080889571892044
0.4608627774052536 0.16312714077592716 -0.029448452497135236
0.44625076606357084 0.20029705317512025 -0.015186081454331202
0.4757342191551288 0.14177674188815104 -0.14728398626256478
0.5161938548615979 0.18528304976837262 -0.10957668212402893
0.4453186113624952 0.14361838824538609 -0.0691067760267714
0.45991955114865846 0.15297808497453502 -0.045503843230008556
0.5272276542361851 0.2408301755338016 -0.0355621913824109
0.5281239088466236 0.21509976217402027 -0.010662356115417992
0.5169601748747539 0.18819555372878938 -0.06424826060928979
0.6092061680148788 0.23643495002571058 -0.15850876526062052
0.468615571334027 0.21459366407418656 -0.017288149669454356
0.5026523105181013 0.21491523564336035 -0.025385151491704505
0.4914828593930167 0.23339119903036476 0.0887002783406956
0.5726459554842904 0.23936021931355356 -0.029352334352950038
0.5108364970789978 0.17555202287290683 -0.08468313192108212
0.45161472322612894 0.14847263275893852 -0.021922511404724787
0.49524794117331794 0.17958828778211 -0.08816675007180663
0.27886673216835334 0.10333007441036557 -0.07824062533656218
0.5549333573176511 0.19453766854304888 -0.04683411507558333
0.4997877782329283 0.22366394328302874 -0.08020592396779591
0.516539775830438 0.18429222900300601 -0.08141744013030916
0.49319692111129143 0.24067225515997848 0.038329645800885714
0.5156186048807285 0.19791009105163937 -0.08497044652331454
0.4455961164904352 0.16643145829047512 0.04928222665758142
0.3444268020213599 0.18846589509917067 -0.06646597782400931
0.5110025876937812 0.16864160275520135 -0.10013568052733035
0.5172837688670313 0.16168156934543276 -0.0892312893170839
0.5614772091028044 0.19897522432914627 -0.10896687505929492
0.48362250535916473 0.18593311946460744 -0.043821692600332085
0.48317209778250003 0.2219682728038066 -0.03598260326459979
0.44348122111335897 0.3002560976991475 0.14769111513652433
0.4824156481744808 0.15087651494765453 -0.3384643495537887
0.45165520776237145 0.21201443368306627 0.06662863609709291
0.503024883189255 0.12402434636859994 -0.1174095119172307
0.5351138068983801 0.19428300051401948 -0.1048529927622468
0.5165322091945654 0.22083112523617388 -0.0613382667713438
0.47119343404310143 0.13866111354505506 -0.12138951039401036
0.36582606395418793 0.10496774788205698 -0.14679808705834319
0.5715850597699443 0.2372366829092698 -0.0402596220072553
0.5169586719288191 0.21527549964423542 -0.09848984640160552
0.5610729358991762 0.2102993580333674 0.03704243884020286
0.4752326956227364 0.2074305313620357 -0.06043594614811809
0.37294733919520695 0.15594151376996024 -0.07334793578772292
0.689475379855196 0.12925219644515096 -0.013736499864947405
0.5176949209386805 0.18801913351001076 -0.06634147735621809
0.5969169445313014 0.22959626480147222 -0.08320398378371863
0.39192447819021936 0.183963473356755 0.05129275205410977
0.5536661854597185 0.17819873128885888 -0.0981318233683055
0.5315894544343678 0.1925570481962211 -0.023100328413008242
0.4652755704569813 0.16876281408825378 -0.0018535931346548296
0.49417149287648954 0.256061780448988 0.009695868788128337
0.549706816810442 0.18969931631053782 -0.09062903340283412
0.5133576042355799 0.1928759145331469 -0.05507699306355107
0.5951636290517399 0.2258734480088549 -0.04779234977058877
0.42781827985893983 0.17335530360290363 -0.09576789236562888
0.5177968714212682 0.24279694734525492 -0.09887348106255445
0.5053131058965903 0.16346621670618333 -0.07289077326007032
0.7010139297106264 0.25105517870579774 -0.05473401765665642
0.3322212606228163 0.07865357954386809 -0.10986205923190084
0.6054964122254205 0.2679041360532608 0.040573113219480206
0.6934510406895811 0.29208942507816005 -0.0862545292758341
0.4951662870395239 0.18221592955740107 -0.05769433195852969
0.5751449192233338 0.20297794335311892 -0.10852805320098469
0.586261561115947 0.1875847705528173 -0.1294482695484902
0.4910340837133731 0.1374229054994629 -0.14245480041684289
0.5128299919681467 0.1754173728411672 -0.06924047614988638
0.44653174456476563 0.25620671491941494 -0.001718672820530287
0.5225563312556858 0.17452182434030306 -0.13526328821103561
0.5802617699653183 0.22034416705525928 -0.059695762865842994
0.5730716650310512 0.17378195134566 -0.10549032217217302
0.514027832426649 0.22509810144075004 -0.0852222897646584
0.48198030279283444 0.1344725606385282 -0.0668531895873059
0.46432011357845226 0.15916781210461295 -0.07155026605255443
0.5494658002446045 0.07412847001172906 -0.15285593743399772
0.3563068038776578 0.016690099261225555 -0.12457358844049793
0.4371418816722894 0.17747986012881256 -0.07225082900453117
0.5815715656403313 0.19116414974243412 -0.07375825520868773
0.44604150483797866 0.15615226939594606 -0.11036524347979082
0.49597398451706454 0.178097258638374 -0.03669019245087668
0.5536012452400882 0.19629356091074612 -0.12852176780901914
0.5276809960323874 0.2316764868236163 -0.07200524892951421
0.5614044480564075 0.2695354708234561 -0.11711345578052601
0.5101894015327275 0.1275343563669793 -0.12986058072833373
0.4749061971929791 0.11768878926577031 -0.13303458595257212
0.4901930453490593 0.20438065237712522 -0.030593459250781052
0.4384034364169338 0.2087011407300423 -0.002466358054050488
0.4914937610518848 0.12843869045724432 -0.10251599947304157
0.5117639796266644 0.1604865449411932 -0.08014299291036764
0.45146856784691636 0.19309284335798793 -0.024117958609053858
0.4662795804489974 0.23241916095005877 -0.05863307884993674
0.6462503252843987 0.21430864650770332 -0.06792295257510261
0.573464707886103 0.21989006142767664 -0.04959197519178815
0.62277152460004 0.23575653037062239 -0.07976082183232336
0.46476767628834637 0.1956209969823135 0.0071459657689416645
0.5250687262862641 0.1713598660675757 -0.0398648065325915
0.477487544154684 0.17662447686879545 -0.08632858274673083
0.4802959671434053 0.15173643695568728 -0.03524235959697819
0.5181462544023248 0.17677160079368548 -0.0750286901635775
0.5014668609946398 0.18510491027066678 -0.08023857193767014
0.49296710419949363 0.15268593487107296 -0.08978859918002513
0.5239552366642783 0.2007258279687676 -0.09042342371398604
0.39987246415003597 0.1916864028987959 -0.03487751021953045
0.5785629817912934 0.22844503234458102 -0.11270772673383078
0.38100139065591065 0.10808407891049399 -0.08997766213451541
0.5256671411608522 0.1711981645453875 -0.13550366298727567
0.4834415344446086 0.1849746747323593 -0.04073047831464294
0.45552283666145854 0.1376126017548529 -0.055479370137376804
0.4999563386677721 0.1837546041177518 -0.06510713230389342
0.46305100786725006 0.18866147274940204 -0.07835164354628432
0.5269173361508024 0.14959762992130266 -0.11645295792932586
0.6269083944146416 0.14368618514032505 -0.15723995742020236
0.5365657428453119 0.17476836312491173 -0.08439704923661395
0.5133666498806804 0.18301562506353264 -0.07438031303026094
0.4746177049739799 0.11427349267907516 -0.12664070465270072
0.5828696612090596 0.22180498892339529 -0.041675869277923994
0.5045770020957434 0.1848964928544632 -0.02925910178248614
0.4877501313594905 0.17460127729360408 -0.0801982743660119
0.47551921743749404 0.14781208799388423 -0.08064694509232595
0.5105011806546997 0.19662306855916256 -0.042865531457024986
0.5258116895020066 0.1916363777633876 -0.08379417317270565
0.512473995181864 0.19923783000044182 -0.12314244420605291
0.5677502520520079 0.21753191245565517 -0.18416688899091582
0.4987412487474785 0.13501697396317525 -0.09834329746985304
0.47512538211611854 0.12509256048539896 -0.05889033631484608
0.5627723806282177 0.22181093262744866 -0.08584384058990224
0.5497411593320294 0.18807960079425357 -0.08894169869972757
0.5436858068101742 0.1893656977921978 -0.09872735157668444
0.5499945453994428 0.1894047099145837 -0.05477577178355375
0.5421642331864405 0.1935509300209901 -0.07485705038006074
0.5591678940160989 0.20030753539315072 -0.02213576692543029
0.4927839439443744 0.17882047306196114 -0.07155189868150558
0.4634468777790346 0.12387531720970912 -0.14682754203499826
0.6205301694206469 0.23185270133839708 -0.007373067257177013
0.44063822143198195 0.16471155352957112 -0.03752248738396702
0.48768681900452293 0.19089557295268378 -0.1080737344676379
0.498993309313164 0.15903035737736104 -0.11296760207069667
0.439782684768943 0.14128535485538407 -0.07599369952194479
0.47192885081122427 0.17383958379568298 -0.07000041226181963
0.5146442849554376 0.19256541487654033 -0.0720977305334145
0.5648480640745674 0.16549981355433374 -0.1497975188535463
0.8021251836524357 0.3350313730759211 -0.28968786128477575
0.6055753363701797 0.24650571496809448 -0.2373273414214765
0.5032297580141574 0.20588462330238144 -0.11242985638106973
0.39839474765969385 0.19374451907719958 -0.09297103249413396
0.5273632432488569 0.18713805273114303 -0.08381932805542647
0.5744725664550856 0.259689127617321 -0.05119871644630791
0.5059508737899705 0.18904979036092584 -0.009964032245136423
0.5422162797210319 0.19130281952288897 -0.08542171736483795
0.40938230808444587 0.1465336037359748 -0.07132123780870359
0.15197257158004618 0.14604252367492165 -0.27666835044932725
0.2885462008109414 0.19574899102207155 -0.12503439945706418
0.5985709595821902 0.1857552088959551 -0.005281139708245064
0.5689884861070027 0.18129081076054376 -0.1182429531528868
0.4928973554596894 0.24287338258633895 0.011521296554633409
0.6018019774312791 0.19765824216793249 -0.11762874494263542
0.5292538577192829 0.1807654656028035 -0.03409796346804228
0.4485137930662404 0.11325127642115262 -0.1619269109806254
0.4705602647610192 0.09500580436302641 -0.10985196587499502
0.5109725769319482 0.18311139024871181 -0.06084971058645294
0.4009919076437427 0.10831994491255159 -0.08296432546946164
0.5193570991845888 0.18520180194728653 -0.08062487259412876
0.5659447995029723 0.2233734384331001 -0.055903660837941516
0.5918518659805727 0.17660837734472068 -0.1882882024562207
0.4894001443426248 0.16227511113882542 -0.0864022347319775
0.5374853809150295 0.17526711103215575 -0.060338906487402255
0.6527634030038598 0.22798212183650435 -0.14818383782251487
0.5173450126316084 0.22052398717568167 -0.04215216988542636
0.5354031587938266 0.19108814873045787 -0.094275098013199
0.46938776345308497 0.16699070702141228 -0.14041663655102354
0.3453861421535578 0.16217577090260704 -0.04204458974962222
0.5285906913685778 0.15917683542608074 -0.12434480950288673
0.49527026701474597 0.17827823067645454 -0.028988754542496054
0.5232443128034845 0.23143129737917434 -0.06343085377254454
0.48485801506768667 0.19784342086708762 -0.03119130446363272
0.2504269339205507 0.08879702883598384 0.011051317879989142
0.5925015441227401 0.17047202400148365 -0.09511290880463719
0.5287234226771602 0.19854991250824128 -0.05600658248955881
0.8293586565975488 0.40994418027281654 0.14874224971198657
0.5663115923179021 0.18718288981540354 -0.06151265609652512
0.5217159895679231 0.1691028496726119 -0.12387680989962746
0.4603273708484892 0.02714141730163533 -0.07645982980015731
0.5248992171872828 0.17823300090009297 -0.07713737981880797
0.46210503945465575 0.15408498746114674 -0.025811417666972147
0.5154694223966487 0.1825003513323935 -0.05142567492706007
0.5152717583771675 0.17568311067786624 -0.0854017437753356
0.46122935907476403 0.1861301063411247 -0.07316087576090524
0.5420884600719091 0.19512178584278672 -0.10797872713754941
0.5756176857800313 0.2347695161964225 0.038423750629874576
0.5451269602446871 0.2091515747068371 -0.05292182031621451
0.48889991825507195 0.08471230393396922 -0.17578760150964
0.503031686759897 0.24788163687782117 0.016511247842800003
0.5273140011505859 0.1934165875149887 -0.06904842853788296
0.4744576494300645 0.24716997864130974 -0.23480826840398095
0.23426976949266987 -1.0393972662276951 -0.04722445697531441
0.4664493772083915 0.17240835802124366 -0.05997310725469163
0.4811982499082319 0.16558270962866573 -0.09225334092717219
0.5007614583666395 0.20318504267740423 -0.07212075468396506
0.8294559186937533 0.19334922864535997 -0.0788961876530152
0.5483175374211839 0.2187018644234513 -0.02612520510797367
0.6457493348960384 0.2355211474770158 -0.13939902196769083
0.5212181690165494 0.1788414701058798 -0.08645172073663332
0.4971302108889688 0.18501201190120753 -0.08987613518378623
0.48616309601800367 0.2036520806755675 -0.001956049003240423
0.5449736961256804 0.2136231316429189 -0.0628151416142515
0.6090613480268132 0.22757997849609524 -0.10501416374873429
0.5687250036656906 0.2035229516317969 -0.1724188211397717
0.3723171334198696 0.12914566648896653 -0.08394320495627028
0.5858496741284682 0.27488870327356096 -0.13059953158732185
0.5397891174529263 0.1966608826463414 -0.07522410233352161
0.5068954956604728 0.1956064644232356 -0.0686595924916844
0.5107189958752372 0.19422360182565512 -0.053400990992614084
0.44874505407406673 0.16798275576326205 -0.0830183142440859
0.514109992324137 0.1738421087569293 -0.08722205698779817
0.5102076375118827 0.17298105770807126 -0.07569004993837325
0.5907747388177143 0.18123896938590178 -0.1673513085369649
0.5634805104675706 0.18785434118028377 -0.13791339870948605
0.49587449705032327 0.1508302486745947 -0.10427250196849513
0.5967117862193163 0.09175236183330071 -0.150042774141653
0.5244390996587356 0.18828376832166782 -0.09543005900341939
0.5334672055063265 0.21103144956032338 -0.048638924946985185
0.5310887320584925 0.19690329958410757 -0.06949532118802892
0.6112803539365359 0.2414737030235159 -0.08336633532222493
0.4267773378505524 0.1431730528714894 -0.12049135945291312
0.45605688527734856 0.13361454138672002 -0.08575243289052992
0.43076832830521994 0.11882005873366097 -0.1432406438476903
0.4751266882412324 0.24909461023790413 0.0014597300223897491
0.5038783754588394 0.17432070308613845 -0.09103067626440975
0.4311603165526492 0.17173010391584853 -0.039085527248246876
0.4362609091435843 0.1414766798908147 -0.013880795210582164
0.5277206078330892 0.14827789777214662 -0.09785031906112351
0.5556818316055683 0.2377726390514141 -0.04844035616986275
0.4429128883372755 0.20683307601962042 -0.00034534083471271515
0.4656096739693112 0.16175610835938414 -0.1187706148762544
0.5225638629704576 0.18436248425649637 -0.08608575130568852
0.3517938534751863 0.07118063002127428 -0.04481197752818389
0.5381747223002549 0.18465199325875403 -0.07065632248119869
0.4527690932375208 0.15237367613109143 -0.11011377246299503
0.5432606889813769 0.1802756141366757 -0.1179674108113602
0.518667089116974 0.21508822372285863 -0.05260803712978657
0.5306967864838157 0.20033919470924388 -0.05630047550693007
0.5592711001571615 0.2282607851214209 0.01591553951529079
0.5716300773035243 0.1970579743093026 -0.09571234000556217
0.4982917855701885 0.1810043031918127 -0.09091040401607131
0.5309566849613816 0.2193079551751822 -0.04669739829012087
0.4945684448986185 0.17993082854285092 -0.047103296616953116
-15.498066720200455 -0.6416877574433499 4.031475241271096
0.506413285109744 0.190878449712784 -0.08660818771288348
0.4752480952231508 0.19295406722537223 -0.0889366542085952
0.4756420961090555 0.1460993053779589 -0.06947395376556642
0.5105244779589952 0.1826342224465236 -0.07670822387846954
0.5060654480997755 0.1899825201400489 -0.014916423227404607
0.4998660828129857 0.17817575283004317 -0.06406457263663867
0.29659400638104216 0.2743216509554145 -0.07850168509907007
0.48042848331260757 0.17538736851716408 -0.0914345716350482
0.3995646616960471 0.21963544666743928 -0.11836477970183523
0.6102246872926287 0.23153666926769745 -0.05473292695762666
0.5773039815549055 0.23922529012412497 -0.1345112070398926
0.6113340099592222 0.2762086405057289 -0.0938420315281121
0.5013629438688554 0.17633739671254034 -0.08364596974662675
0.5486166640660315 0.20464326626580487 -0.05549101323009609
0.4944307437422424 0.13247370754206145 -0.09418669886696307
0.5274064712695576 0.1733921474934732 -0.10787709594906403
0.4428408180266956 0.18718677279697715 -0.0005626186855494097
0.5137561709654506 0.21910825281341317 -0.0224280795298597
0.49370093210666255 0.17292467494758057 -0.07855977248584622
0.43721847186174045 0.15927582186787959 -0.05970187901090185
0.5012263502801773 0.1585828496648105 -0.08779116621903427
0.5443076071817359 0.21457451062522637 -0.02666391558182113
0.4990411528183927 0.20198552241264167 -0.07821062456490324
0.4062662430866055 0.09695948537465426 -0.23471834465041752
0.5766249033162296 0.16617544516520866 -0.1799605565145015
0.5494949252409924 0.20961113813351062 -0.050772782061656585
0.5736817850007583 0.2615160912662873 -0.03831162048349768
0.5537108992755861 0.18433038409696678 -0.0812176183081732
0.3572184185555898 0.11822812307906361 -0.39231119036124085
0.5730984491353297 0.18698221787153102 -0.06100038396547802
0.500148099050989 0.16015624727765498 -0.10284188005893213
0.6082525043743203 0.2817903039621683 -0.06689968138213942
0.4819280357935156 0.18653780563846567 -0.06130034289920161
0.5116181102452231 0.1539389038405261 -0.05859066756403308
0.47284569472495264 0.16629726113028198 -0.16535447587327212
0.5171725338338717 0.2080712120829986 -0.07272154875886372
0.6022117263539144 0.16034912536113666 -0.17572148605725602
0.5799004721185668 0.17783930238294943 -0.0862296933163833
0.48477646819705456 0.17378545025847814 -0.06668197310176538
0.5024682567571688 0.19859013411587512 -0.0669077739342896
0.5763454973969431 0.21067554867855165 -0.09033294452152063
0.29247552172157043 0.0900210235425618 -0.09571790721425089
0.595394912805773 0.08771146504540184 -0.1000316923891802
0.4043337317795306 0.153192978256655 -0.04056936411112133
0.6686772783446884 0.2442409200321265 -0.11754418318561477
0.41960032431802574 0.2027858776965843 -0.051762801618977505
0.4307199161664528 0.14202276795381863 -0.011331840472720955
0.3947581872879198 0.1611987390471512 -0.06365850646579929
0.4510319258703248 0.15983972706888494 -0.13331659385163164
0.5781699300591185 0.2458060048757602 -0.013657423746664676
0.48973829838192273 0.1974382477560681 -0.0825197970893754
0.5653487213042183 0.2272743155244683 -0.08390410417754879
0.5191871938345685 0.18201234516322984 -0.026096160538372715
0.4026835702721314 0.17773220831388414 -0.09898115035174726
0.49745433259877814 0.1955837334863304 -0.07363162497291853
0.5899496244834097 0.2512040884788149 -0.0645849013583728
0.48574067780083396 0.14698256229945628 -0.13291610050336544
0.5278294963827364 0.10156497177646884 0.03940692470587237
0.5150792776437356 0.22062978714723158 -0.05181329525483136
0.4933243359178334 0.17505148711818208 -0.07289053966651693
0.5407018639473051 0.23477346308655456 -0.015470662524137424
0.35865687313329886 0.18040712434995498 -0.03925502773442702
0.5166380730235858 0.17987265645859907 -0.0740274603981419
0.5284635667283624 0.1913899190766699 -0.07271512203071495
0.42538494739659427 0.18549203581176243 -0.2079568814915973
0.5809342252488818 0.25780462595778886 -0.04078565276633128
0.47788598878290145 0.1540047948572436 -0.1451741821454675
0.5795960584465547 0.2460633002889665 -0.06564448670103218
0.5416195565026101 0.18180124349518678 -0.10635941075811672
0.5390294363375858 0.19971000915609238 -0.1341136551520492
0.5439154126010521 0.19428253025081688 -0.1138798644345087
0.5582434020070366 0.21917890062343304 -0.09935924078814651
0.5562597963492806 0.18133916640033476 -0.07950998155078537
0.5215122231964813 0.1807570016685247 -0.07508608649207815
0.6209956092123434 0.08574051571068253 -0.1739764635053973
0.5290759379268763 0.18142014500817538 -0.07780312021463942
0.4869330653612849 0.1625760122310851 -0.11921903236846276
0.4038565928574087 0.18093077576386918 -0.019020477262884583
0.517793562036104 0.16109939825538788 -0.09903611559755632
0.5115423310666358 0.20104727141983858 -0.07714986519523848
0.5000542482553101 0.19180114552855798 -0.04277885418339622
0.5312199964477031 0.25578516822113784 -0.04979483875847279
0.5233191454601922 0.19913367280911132 0.008194127046138533
0.5195048052160018 0.1736729449940526 -0.08986030271974244
0.5377360176731543 0.19598495018865947 -0.05837530918310563
0.4554021015008516 0.16407644224597107 0.0025439389942363277
0.5709082708135895 0.20953471152603242 -0.09861902659082489
0.4795149231678124 0.1557821239777013 -0.11529548193573191
0.48812038510911293 0.175145872040531 -0.0787731011345727
0.47929540368539847 0.21510218929353186 -0.04180434387571097
0.4549462081125739 0.15182209070621866 -0.05314759643532341
0.5429866608240559 0.19619845904909994 -0.06697902241643305
0.4932707128030529 0.13727813458737614 -0.2557887154970615
0.5632332802989595 0.23851743812501525 -0.06076331460648987
0.3185425693688728 0.5072823868122782 -0.17236813154322306
0.5486275018686797 0.49396618273951276 0.041225026297766476
0.6166615820870902 0.21263227065833235 -0.1331126661236084
0.6167416593710016 0.25914844546205984 -0.08174400473528465
0.4179972824301217 0.1802447662181521 -0.056615758898871604
0.43471154368594966 0.16092749442074705 -0.11294903531592126
0.566412472923588 0.16193865193167767 -0.1442471982339555
0.5548362369864037 0.2257561391388947 -0.07044112695427884
0.5109395105103545 0.22337412287413372 -0.03912618091978004
0.49681225550210684 0.17552522207461152 -0.10243969430842981
0.5226530586583067 0.1896794553891823 -0.10077441475866067
0.5968281347570041 0.08985549366785506 -0.08773917390850272
0.41699710533234224 0.13162623041013433 -0.04606552598831115
0.5038172063298134 0.18544154301937965 -0.06356502241733608
0.5649822496928607 0.2637701989263377 -0.06367703517172174
0.11193561833519539 0.2906844141434419 -0.6797031531139481
0.48522745785012944 0.14139024688134327 -0.12609465105749962
0.6168509976704684 0.27181451245392907 0.04517140228793437
0.4731586790364304 0.1123624096716469 -0.046168561887043325
0.6044032878040184 0.27078139948376645 -0.06241305832000421
0.4847284582444047 0.18539521485766386 -0.024281213704682614
0.4762625069124624 0.177244216044258 -0.03244094370469952
0.4135219615752703 0.2216673500334707 -0.07070276672533282
0.48932021879454624 0.19999993992087184 -0.06723858601168331
0.48686549757977104 0.22420316794034534 -0.03907271874798823
0.5810975139719403 0.2191639422208027 -0.10456352458108142
0.6112966603674295 0.058276750714838954 -0.22243738587278017
0.4464686305034036 0.1697703651969107 -0.18007777935153513
0.3797794533138017 0.18983665586728193 -0.10616050331917393
0.5137614662298517 0.1785249971768792 -0.08619540103043732
0.6901127976767611 0.24807919147036728 -0.05266293808992373
0.5395780252098064 0.21146610783367237 -0.09655870968521185
0.4635306238582473 0.18853903796050986 -0.015097495395892224
0.4954133793635265 0.18740816441490438 -0.08862181958164683
0.499450993513733 0.2025822439793643 -0.055792581538710806
0.6202259053149248 0.18007686158077263 -0.12458539918205247
0.5168085978201873 0.20455936406088426 -0.0891275508739966
0.5035839908966295 0.16772578930334703 -0.10654432052346863
0.5998584558868458 0.11838741159758115 -0.24624051562366844
0.5277730771631184 0.14652218329484867 -0.1371401326844648
0.40119249289458025 0.15726733780468294 -0.08558786697689413
0.5739588713404942 0.23465103138846644 -0.03741161801082171
0.554907538987095 0.2622578034555545 -0.003887046437583308
0.4602208154119296 0.2690346883222219 0.009248097386404197
0.5591999872589213 0.825909933399771 -0.12469775013501305
0.5195520810275411 0.22214372720185338 -0.016169816140504167
0.37913996889770374 0.249602187752771 -0.03514248927277208
0.5244202655794084 0.1912491100185605 -0.0938198314047014
0.4631395121260482 0.14912530203363872 -0.03473701531969198
0.6028689438373078 0.2294174693245452 -0.10985801685627905
0.5043283553676474 0.19268226725334614 -0.07942514484514618
0.44124935637964313 0.18105373436540617 -0.018404097523486485
0.5401906346889689 0.20564183939822556 0.056647297840854094
0.4892935756134307 0.19256119125316218 -0.0536634942177443
0.562807982283573 0.18685288698480917 -0.13275765500632986
0.5504263330482786 0.16764543907379448 -0.09705982460731377
0.5668924048593169 0.217655036352852 -0.0026396328737803287
0.49242744610288014 0.20135691541656797 -0.034242696869569045
0.5204419235962519 0.19025015982225568 -0.07396673846506019
0.5369804140125041 0.25897592004841385 -0.019663394203021767
0.4875448841681589 0.13460166343497804 -0.12661354095347122
0.4911137772376435 0.1940202508759512 -0.057403966229529146
0.49640743962510214 0.2012022883900073 -0.0023417478648752876
0.6119193523642537 0.20174927355841987 -0.025624821841887524
0.4936561903949439 0.18598056804131602 -0.05889566366946042
0.4516983327985997 0.25841239638914715 0.004626745403683685
0.24283097070932058 0.18975805414139302 -0.03387115415817732
0.46660540376916515 0.16727784210246455 -0.08999102884027366
0.4794885007885057 0.19569027692165264 -0.08630042659072501
-0.05990634298677833 0.8964537045180521 -0.3437921807002624
0.7279555278187786 0.11358168510894018 -0.014647999873105277
0.6029341128030126 0.2821044211840018 -0.01813610931579035
0.5285219289016823 0.1869546009684484 -0.07441867199599983
0.43716473394368904 0.17701349106674513 -0.08573119158423026
0.5444019524944395 0.20471073414024943 -0.06737741346411497
0.5012943315849725 0.18784237773726886 -0.05066536821146883
0.5497792396622572 0.07266985128364922 -0.2636565744530799
0.4447864118906466 0.19133976662917007 0.0002784883352404677
0.555532532050961 0.16564846561082902 -0.18111886163090674
0.5528288261939167 0.17936178044702444 -0.13503684047253728
0.5983416994429831 0.24013902279455124 0.03473521888903974
0.5003164054580509 0.19190732169464297 -0.071491599333811
0.4924828167373789 0.12573503801897346 -0.169264335656095
0.531215301713786 0.20042686488164918 -0.15110233285196273
0.44535681764344304 0.19333240621726588 -0.008388827645049446
0.4947198105891175 0.16535226582118412 -0.08455394112286285
0.5390368547594164 0.3013872065003085 -0.003660763471700079
0.4338934417787925 0.07037403537495379 0.02286496057431009
0.5496853513361941 0.15173786187776273 -0.17631158694005933
0.378866209356687 0.1815234170541089 0.034115056664006715
0.5995239238261831 -0.019751857882539525 -0.07157224017565511
0.5589446837545609 0.1401997940421893 -0.12150542321991509
0.4902484651603629 0.15301595791108014 -0.0979843481322149
0.42470196040270025 0.19164567019919332 -0.014305148391585476
0.4050869808228015 0.11179993994323922 -0.13107026284787082
0.5103500962164276 0.1572183412112338 -0.08763114037051878
0.4843393319981715 0.1434928043801733 -0.1527594708537805
0.5039069530999143 0.16474722464278102 -0.10484464410178873
0.5210934032526495 0.17158090999785713 -0.09014260327782608
0.5558982248240909 0.18456744630576338 -0.10840654594645116
0.5314363161591871 0.13473829290781225 -0.13330188619102046
0.4871181433374261 0.14502218111024945 -0.11566385706989024
0.5531350433105331 0.2697125911403475 -0.10182259204033528
0.5460549985368743 0.18073187294827164 -0.08657348153634814
0.5489670404863602 0.25713408765156487 -0.0417383126766282
0.5128072022256731 0.17739580717119452 -0.08710379579581229
0.5646372369809285 0.16343730380492616 -0.1572158007331268
0.5603231794895294 0.27309335566863524 -0.005592084723517132
0.3812444744881134 0.2403019093601131 -0.0762994477476866
0.5738185369054918 0.17363858615725292 -0.17151293414546842
0.4626970086056872 0.263140742418031 0.02509971557940105
0.5402981245553065 0.19106931132057525 -0.06760184597528962
0.5145571668616924 0.18021251302749874 -0.09424419674992635
0.5212209536350372 0.18508484783825452 -0.08915948630465209
0.5579796000393173 0.21754677166465797 -0.0602997342953131
0.5407759450373248 0.15135400763935536 -0.14650203108053006
0.4642748569433195 0.150735907217026 -0.012432633313693486
0.5806188424350296 0.19614259308565352 -0.09928101384389265
0.4915861277189322 0.16629712762770055 -0.05927532511945799
0.5674312859032682 0.20050619812013792 -0.03637039681998999
0.4633578592646188 0.1325791416272466 -0.06626894363834879
0.3263849200742186 0.15990666834865408 -0.0605832932629653
0.5892916114284787 0.17632188528422432 -0.16889094710153074
0.4715395204419224 0.17174670008789406 -0.13790709935854295
0.4944759530596059 0.19236609801546933 -0.09016655856805755
0.4989741697101522 0.2488422629252227 0.019720359389495457
0.5240730641038454 0.2015293767383639 -0.0777128758175678
0.4757485432282067 0.17753264391782864 -0.06965362316323365
0.5077359182658086 0.1862905581307075 -0.06224295273752034
0.564431408843177 0.2191533233257985 -0.08454216934252656
0.5386926799691594 0.2070159864566108 -0.061105789183059755
0.4839148155449493 0.16044517028041128 -0.0646905102949944
0.6171889325292454 0.24321047445496902 -0.11865105472314497
0.5340795699362104 0.16893197029190787 -0.05544545226103992
0.5465003734896641 0.13933789269430008 -0.052209344261044066
0.45019790498352563 0.1449458954173224 -0.13566679816329952
