# .PCD v0.7 - Point Cloud Data file format
VERSION .7
FIELDS x y z
SIZE 4 4 4 
TYPE F F F 
COUNT 1 1 1 
WIDTH 801
HEIGHT 1 
VIEWPOINT 0 0 0 1 0 0 0 
POINTS 801
DATA ascii 
0.6048322406201123 0.14904101241052103 -0.11835238477338805
0.47650044551535586 0.19388079691108828 -0.03405192786978262
0.5585033762684333 0.2591969545195809 -0.04587179215192805
0.46075177368038567 0.18920854657109487 -0.058660106585008975
0.44614045951163916 0.07178737874357921 -0.26980232543215266
0.567802773555897 0.2149312118757365 -0.0721708579146707
0.5349102302809428 0.2275738026407339 0.0024123803135438493
0.5406129109222064 0.15361161552360159 -0.1423455524776216
0.4397071097719447 0.144023300931039 -0.07157635992628286
0.5067586314426933 0.17226658000726047 -0.08701693469571126
0.5308544238229587 0.2665473414631947 -0.0016857457335817116
0.5226053836784672 0.1955294291692269 -0.07482310308118656
0.4275508977025879 0.1271078196774056 -0.06702158025548499
0.44724356948788113 0.14045351478812051 -0.06347357712557766
0.45370510943885733 0.1870823743312826 -0.07453283376165132
0.5517597779928565 0.2178828300980058 -0.07576396565232812
0.46703228187040224 0.13266297750378442 -0.08741141882543957
0.5034278165270649 0.17622406926818712 -0.08331640334834844
0.4898866441329801 0.1576109492842761 -0.07221419361061976
0.5496750043189991 0.2119402438821112 -0.08632839829574834
0.4854267712276936 0.17995852138538737 -0.0404673620112419
0.5392999115814661 0.17392358252769213 -0.168670549646464
0.40071620349904435 0.15888471233238022 -0.02340891072772422
0.48280230452641604 0.20423548681878856 -0.07853930538676934
0.567597934193202 0.2096926628092035 -0.08805403758476871
0.47632817368300095 0.1871076544766055 -0.058823921037244986
0.48992526309605466 0.17668467387318287 -0.05855595254033119
0.5566071795889371 0.2476539009127805 -0.7431839368812945
0.4328997307152207 0.14241994286314252 -0.028222305496797162
0.49875249172045244 0.1501930447743689 -0.08835507097197137
0.5147246514956976 0.3309964379689063 -0.18950419413887687
0.4743941982118258 0.1824038053903223 -0.03672252378615326
0.479299661229291 0.1782461564864093 -0.028637064641543475
0.5776565567445715 0.13531784794628265 -0.1584881508424587
0.5113407684377904 0.18276201095275724 -0.10559163437174846
0.027168437141654067 0.3509646774847255 -0.2513851165077341
0.522372664548783 0.12749167395494965 -0.11878699374669566
0.4496716187190799 0.18294596646282457 -0.07318609070573245
0.4504232685979588 0.15987571016897562 -0.05626074689864424
0.562895356875714 0.23032891633624786 -0.05701315742945212
0.5928729455449258 0.2120158247248014 -0.08549191840323545
0.5252225164752673 0.11895045611620958 -0.09398965931669068
0.7112673742823574 0.177550679831171 -0.0830757526157413
0.4913586484471182 0.1881300454363668 -0.062127965968429066
0.5066143071255311 0.1886023482170316 -0.055574191357905534
0.48778074491572454 0.15213913426457282 -0.10699032092516347
0.48913835908622616 0.12731444349037702 -0.07613042797834169
0.6443176295538535 0.1306962761444055 -0.08469513667648698
0.7707477305415864 0.19861088505430757 -0.08927929377624366
0.5040348881893664 0.15572951687659042 -0.1214334299744877
0.4851050182746661 0.19896132344268835 -0.07298427501345373
0.5162482384754554 0.17253013907563286 -0.07586512912020282
0.47394893006288896 0.16093542227352486 0.09364505590548333
0.4987710773682892 0.1659062713871151 -0.09507964976917549
0.5233275125214476 0.18320963647421706 -0.08138816444400732
0.5415168472245284 0.1638782162881114 -0.14111603746275136
0.487236779084796 0.17429480583133738 -0.09895472190525822
0.4890710073813267 0.18994521088086458 -0.030193654834079098
0.39160164877282 0.1600532606097147 -0.06576111443560251
1.1252695747196384 0.08607034867500829 -0.08800054965988124
0.48728050379510535 0.13672916340952668 -0.11682081024288493
0.6762133974585538 -1.0672774548800135 -1.0264698307804991
0.4762076025214128 0.14930228951973845 -0.11749548328327819
0.41196723199800545 0.17178631075810813 -0.01850294568868094
0.5003391782205568 0.17096454800045535 -0.09737649293194295
0.46174392315543855 0.14589537648595297 -0.09231401275656026
0.527395841512444 0.14408486026563594 -0.1448807462181918
0.46999566488105415 0.13604246514611873 -0.11790897667471256
0.522202104488116 0.15371630149421378 -0.09622726523919312
0.4961344443112381 0.13640530374479454 -0.1211478032564628
0.5900927974787606 0.22619639164238947 -0.0993955046985775
0.5478674483375556 0.21368155293878033 -0.02496356847154857
0.5729763602595881 0.1829763680100598 -0.10936470388656971
0.5227186244947148 0.15670969497959675 -0.08117204382116938
0.5297402693213513 0.1147219515075335 -0.19768202030034843
0.5185483089890681 0.17884169306054787 -0.0912721317853169
0.4841849968280485 0.2044124443300177 -0.038007004543757716
0.5037797642594057 0.14293730528419246 -0.14652581900826078
0.4940081613967635 0.19734101420714012 -0.04383921516311773
0.5025172980418091 0.19493790011230772 -0.05983362818973603
0.5237479418461533 0.17517247179821993 -0.11464913383251485
0.5225811075016651 0.2295328500143512 0.04183620612275263
0.5824471487099885 0.21498386795956037 -0.10765978189311909
0.4471979801882071 0.160379547582977 -0.04978357069062156
0.5733245418089865 0.19727417583791862 -0.10991506919920369
0.4837402158323272 0.19980890082608482 -0.0034194478644309356
0.5132952787152902 0.17151103992956962 -0.03236461952455727
0.5232952570644898 0.21828547722684277 -0.058208068773311084
0.47350621529403725 0.15490317068723414 -0.06466888215013
0.5109801332130388 0.19330643938315006 -0.06838911825686012
0.4685837485229172 0.12252632479440706 -0.12451090201253123
0.4709211023894966 0.18317822415835394 -0.015744523517668085
0.4714640846236051 0.17453332860463888 -0.08838828423219525
0.525330812988102 0.214157337692086 -0.029605825652438966
0.5352566303763382 0.18352233404516483 -0.07422333799134151
0.5674404923768748 0.2226425073215239 -0.049791769138295194
0.47777710893723224 0.10727954077266588 -0.015622276896095855
0.6049583522658537 0.2618983528623602 -0.0883522982621372
0.6086645360665415 0.10971325645195407 -0.10531609821508425
0.49949153874892716 0.19918246475808132 -0.0979077051422621
0.5291676320204886 0.827637531982873 0.39582895497177617
0.4709216855900138 0.10900692456601746 -0.04924620208495867
0.4783266711185945 0.1751555242788072 -0.06411875113447252
0.5889232832780777 0.17818750599892041 -0.034653411864169925
0.5320242817227978 0.1672982583319822 -0.11177071799755822
0.5599772486414736 0.12010055132256525 -0.17617394665410302
0.5157519348275912 0.13830897448144697 -0.16999899981887268
0.41933899546242515 0.1805059816367418 -0.004736414255035015
0.4933459139112699 0.16372282904151803 -0.04577159306252554
0.4530863469570505 0.11067633914690589 -0.08953076342190514
0.606556160978613 0.21648894214783354 -0.11242227799020554
0.5161064546649357 0.16823161254330898 -0.1265426234500353
0.4951729630860626 0.15323013733254243 -0.06776534107767418
0.4416374972939394 0.1954177389347933 -0.017405393314462003
0.39481294756491536 0.1999972170592912 -0.03431250460029389
0.5249026279222448 0.17254811793159774 -0.10235306448494441
0.5794088138657543 0.11901538460381289 -0.24491634212922975
0.5293959827516659 0.1942728020770801 -0.12567179074011392
0.4950869976034227 0.16675321581296032 -0.0689215389398612
0.509373164414896 0.1894897949379697 -0.04455557104427044
0.6380470379075547 -0.1664515969550564 -0.32117581217625
0.4995634333847647 0.15934425340503822 -0.08881516399962663
0.48503863540379655 0.20179759972600664 -0.09508339899440443
0.47174845002068366 0.14518342924452554 -0.1048260484504766
0.5957711122380402 0.21150164206238742 -0.11150631892695628
0.5022204894541886 0.17997985914723813 -0.08856668816599722
0.5331527644782881 0.18742434585522005 -0.10658498773477731
0.4154246370049606 0.10126461789177199 -0.08032220817661084
0.5807529201082531 0.16646924594931534 -0.15316595547056977
0.5618305162581692 0.22978625110613393 -0.06210711142914249
0.5348835864383403 0.18000747098651004 -0.0878334005453354
0.47792093765170307 0.15803474993018085 -0.08692617316303597
0.5314550351522342 0.1336309177868884 -0.1591500356854283
0.5150603487715699 0.14592156436087578 -0.1160134056518558
0.34709194866732673 0.3188919338393674 -0.09118421101092622
0.5216659188241266 0.17762391657190335 -0.11716463756253859
0.47515542371540676 0.16676345609209875 -0.05200576004416746
0.4964307745741081 0.15090595789382633 -0.1138880566532805
0.4916350387914008 0.10413094441140913 -0.023149255899824084
0.499238886389648 0.16538916198126685 -0.08988109213213136
0.5544050031750345 0.20871755693245575 -0.09769096996205917
0.5174542090861678 0.19509867632662292 -0.047964049685916166
0.50139960579628 0.21426088205006977 -0.08475712949243075
0.5932469973861743 0.2249718857226668 -0.0949035139222616
0.44640059702570056 0.16414275156614622 -0.07692279700405891
0.519660733993291 -0.03912122607957258 -0.19301712345975375
0.46025241061919075 0.1988939132296963 -0.04968179184642452
0.513014417546799 0.1747087392535036 -0.09451738448808555
0.4544946632461091 0.17679056243683533 -0.2585355425382687
0.4731569800552933 0.19086305935448422 -0.04839462551443319
0.4787349429234382 0.1552769875860065 -0.07193797987503103
0.516718407412128 0.1920746927903565 -0.03725823016024776
0.4616634418570271 0.1872589806982603 -0.08417804545597107
0.49988625816328636 0.21460353389304032 0.009543152567658808
0.4630661246664829 0.10750016802236928 -0.027850138020383497
0.5456457725171191 0.2024340540469467 -0.07656956116774438
0.48967725282064123 0.14556884337470422 -0.05931393402195795
0.5677968223003518 0.2032771718898232 -0.07484175770206036
0.5387995152477743 0.1476168757603631 0.17608886422731018
0.48879267534555026 0.13284540406064593 -0.1405261863132381
0.524499369999873 0.17789586282586356 -0.0781588844617147
0.6023498272274281 0.15340372375558786 -0.16669248766089595
0.5027257866987753 0.1685702997888825 -0.097619412750376
0.5476042635866918 0.12199139381948498 -0.0769282869604524
0.49744152252353047 0.20616440743702924 0.0301721685680576
0.5158791070991811 0.16575377926965018 -0.13854518285738493
0.5393417930529694 0.15949136534749186 -0.1129181079000432
0.4898068788467924 0.19225549671141096 -0.04540327785989007
0.5268706083808752 0.15970937315989886 -0.19700194744972066
0.54304228267236 0.1665992169956496 -0.1217611784845758
0.5162959943215384 0.19702878531417412 -0.06403513464736932
0.541727559505901 0.20023507158427378 -0.1272781619043144
0.5662392843629505 0.15350279396203348 -0.1474805590979713
0.3248747013141866 0.040140972668211816 0.012328874290901126
0.7004399356632831 0.18727684251678056 -0.1641518814934102
0.5005899412722243 0.14269750276542936 -0.1028083435760152
0.5896635364909741 0.23221328662114615 -0.043415911281144304
0.5091455665517657 0.18917587606459563 -0.06750539191213534
0.501166158914927 0.15770921308245534 -0.08509728928505922
0.4675270478700213 0.1469361928966748 -0.09243818791232172
0.4381044318503058 0.20236505757205236 -0.07754140259129372
0.5008502697893817 0.16313359837195662 -0.08654014791680709
0.4882466473805209 0.16764283425996496 -0.08375595619961018
0.5439245184095824 0.17865652850559854 -0.12100546457588734
0.4708053986293379 0.15459210482362096 -0.0722663995812951
0.5597355867779754 0.17995362442945861 -0.13241305446689466
0.5110470137294243 0.16856962608221693 -0.0868316916798193
0.5507752022284649 0.17506052864490584 -0.12539775430225575
0.5345192529051701 0.15240010119569547 -0.15754536003579744
0.5076511372359676 0.18533029265634582 -0.051209067398772845
0.46850794708217336 0.18728672240899868 -0.018029707050516208
0.5557657541598786 0.23998805161205894 -0.0895963422771473
0.4764202917353373 0.17003670542536042 -0.023728116150209644
0.4828516162401826 0.20135245028330928 -0.04802221980132515
0.5416679527364039 0.16785631155136116 -0.062498813126680375
0.534588710676374 0.17310339018609966 -0.047663811200635564
0.5513341559621665 0.20025703210998813 -0.04536859589038045
0.5511304455236541 0.20597537198204918 -0.11081426496731694
0.514252047284586 0.17826245472743096 -0.06686318700940319
0.41193479174395975 0.17903258085667062 -0.021151628602964934
0.46701303641867753 0.13152321440671244 -0.060554447860312166
0.5057572611352583 0.18273482903258298 -0.08462179828688932
0.4605649026771914 0.17117636947931203 -0.08407772765463051
0.5570378644246006 0.18835523630593798 -0.10142372993425397
0.6097181931470885 0.20863594406129948 -0.05940441842641064
0.515342587853624 0.19827231039199944 -0.061964297675871194
0.5421336324081949 0.18894212425898615 -0.10654295478266818
0.4705154590842966 0.19254550413953098 -0.003355762267915452
0.5133301439061171 0.16249525137709497 -0.10946886163833369
0.4868494780036059 0.1971693343554506 -0.04767536795243643
0.5475889262291105 0.1951439511004054 -0.0763122965370826
0.5739077272779554 0.18395564582506552 -0.11986840434200019
0.453741787893307 0.15217713360473795 -0.07492136335237376
0.5009062837096536 0.18036254104546856 -0.0855764800427039
0.49947362762307534 0.17357497275222045 -0.09847015470400322
0.4781973914225972 0.15534700459755868 -0.08808383804992559
0.44729588620333516 0.08255912445859792 -0.13585629309568503
0.5932522027637503 0.1910749235588014 -0.0826258922061669
0.5480399411932524 0.19108107425094545 0.0014667590739065872
0.6000953259561612 0.31713796244105197 -0.15356636588809636
0.5389476006850913 0.19797267097914073 -0.06933483249905237
0.3775098598135145 0.09366407318188408 -0.19787572645763873
0.5571640738288863 0.18842274659871805 -0.0502255097982669
0.5144204512174753 0.20490479954131047 -0.03661601233936551
0.4812842766897205 0.15899169616648123 -0.04556966354925862
0.4516968376881749 0.15971423032559073 -0.08157915488683898
0.48901732563417966 0.17125172563598312 -0.07452922918820093
0.5542700242993703 0.14203991831841734 -0.23863464519176603
0.5372154598829297 0.1761528675916253 -0.1516927485325965
0.485497235537693 0.16578480934090578 -0.08722021257111123
0.48195594637064687 0.13109726760292517 -0.039984488120936135
0.5984096942037951 0.2515503499774354 -0.1047318486548221
0.48413024617063627 0.12811743368951056 -0.05744345752655988
0.5162705043439217 0.19717327349053448 -0.10937350545670199
0.505446464902235 0.2048558965211953 -0.1923099361509628
0.4934268382990439 0.1778890902249941 -0.09060304387973872
0.5224006245131392 0.1696170582701484 -0.1024935096720867
0.46828769839308393 0.11193334782667819 -0.09489339235430805
0.5047593416257854 0.2043308304121183 -0.06900067492674111
0.45167023831980657 0.20113964319072863 -0.04527255198119917
0.5122126561469997 0.17436318201183099 -0.1518557093941979
0.45258370542904913 0.16900290323968647 -0.06461964137673704
0.4852582320235683 0.15876011323076966 -0.06674028399338283
0.49125204095629726 0.17983055655588487 -0.07067205991351955
0.42944243614344657 0.15644186624885492 -0.14175096662893338
0.47008607551306625 0.14184229344672872 -0.09064435541527871
0.5677166465719097 0.1589839507841333 -0.13857009776815232
0.5283114849520985 0.19406421119023776 -0.05889743184960139
0.5157312686690148 0.1701520766196296 -0.07856096829709713
0.6494453469246366 0.18179423695281116 -0.06871334781233429
0.5357878652450836 0.21271173261374088 -0.08890865886273502
0.5497524137893777 0.220754787384152 -0.0883334782634364
0.5196825447853115 0.16652460597254048 -0.10923354062715873
0.5465172203063702 0.23520209195095276 -0.03712066359226185
0.485428207880247 0.18930193077187596 -0.045436969038817665
0.4861166818767799 0.08468111108500409 -0.19238497431200585
0.545614807707608 0.10898753072896739 -0.15344739258138418
0.5550128705795458 0.07784123943045529 -0.1642703134207153
0.511793209212172 0.17744172752153986 -0.09497695907960235
0.5485197406905797 0.1886588372357494 -0.06702208327057235
0.4579793012468514 0.15080245542061732 -0.08391146741529099
0.5073115666499746 0.1851260930715739 -0.07478591764625264
0.5239607372287196 0.1701816330327972 -0.11643480263454364
0.4989627503363323 0.1961390463550714 -0.06861125633086829
0.583565284645033 0.2477679365910319 -0.07019374721268434
0.4756673529228834 0.15424156148448276 -0.08116190448268412
0.4649397660880936 0.10560591048900392 -0.1311983494901625
0.48299084721830354 0.16975910824598373 -0.1400221159198054
0.49492472237136553 0.19961465068055873 -0.051786812562482964
0.46532693244138557 0.1637387722512358 -0.017111267214644954
0.5240786869478455 0.21185940940617343 -0.03195892249574683
0.5317105785011194 0.14666002620015206 -0.028169863592736988
0.4578958466219234 0.08517847878577811 -0.04794774386884626
0.494319155014054 0.17162159484129802 -0.06371580235121144
0.47029615765396215 0.2576510544419932 0.024763508782143617
0.5114383660543638 0.15038141518274983 -0.09960074355642234
0.4850122904339713 0.17094640477098721 -0.057855424891371854
0.50570442484198 0.16243183842738063 -0.046824389907698105
0.500620181701052 0.1705145655396052 -0.05657313419010279
0.4907032029039442 0.18932936219670182 -0.08591216899949927
0.5350686190733853 0.19274127430117005 -0.038271015036244194
0.5679379990113063 0.16837451916178736 -0.12387442253314873
0.49119997901802037 0.1927450414298164 -0.09110231913116706
0.5162986032871828 0.19968281811144095 -0.03625834288557428
0.4696699445517112 0.14821377989075302 -0.0783493182999706
0.6571650509954594 0.22355345328634257 -0.12841243050704065
0.3912729041220899 0.2893566385289432 0.10515179783519102
0.5228832552284786 0.1269337669894668 -0.1269983280646727
0.5274020518231737 0.16850768213720357 -0.09666864626225902
0.469986522839946 0.150501842417043 -0.07103333168413428
0.4887248533985229 0.18760845573476104 -0.08037520163982492
0.3982334779461212 0.3649576476499874 -0.0563595669554644
0.4885602414332766 0.18426034500259902 -0.0642737248994365
0.4559090030816719 0.15335644109251234 -0.08503066323986275
0.4661382464658317 0.1617267428883622 -0.051382883179570626
0.5499780147562632 0.16887232783786033 -0.0998513586629457
0.5028185108436531 0.17964718903492383 -0.09095238186164067
0.503239976046558 0.1455845399227087 -0.14944994635349929
0.41579999380132904 0.12594039644768884 -0.1321496005515712
0.6438658627865408 0.12322554238988914 -0.12751989596827684
0.4687873910760345 0.17830648821581008 -0.05359144656806336
0.5282384704822221 0.19777977511921563 -0.08909926100703558
0.4595250552458623 0.22429352958782545 -0.010553419265860953
0.45782998206433945 0.12180658305172187 -0.06655927646205839
0.4922560637155726 0.19844998821319848 -0.10453840350285759
0.4893111913279711 0.14823587866254684 -0.1413133180243733
0.5435374036125893 0.1914702341258021 -0.04784938017456852
0.45229885419762184 0.15567194421021213 -0.13634755513307084
0.49112825701915597 0.15454755061125525 0.0029213898545066286
0.5859230412282841 0.054706526695269986 0.13220587655283111
0.6209183541458145 0.05620924155502394 -0.11479836501422369
0.49776715251462633 0.19114350623547693 -0.06881393532572133
0.3755706197107145 0.10239101568058118 -0.09420190147017138
0.5255279685446652 0.05971194924316592 -0.07101301283590544
0.6685056960524491 0.30061657167907185 -0.05362798581916195
0.5037345956532135 0.11374541665671245 -0.18132342371218613
0.5248970162155189 0.17279724154009557 -0.06919155301098101
0.5512446181685959 0.2194394842725842 -0.016897929307418735
0.5957533798135017 0.07720580429925405 -0.3080998614699837
0.41677580839987627 0.07644835483324641 -0.10556652953924583
0.5757859219086896 0.1795255827445601 -0.15611930858170808
0.47357558315546555 0.21131646051665598 0.0024753816457376843
0.4772479409289332 0.1930363853441861 -0.0271811354383118
0.6119065142604256 0.3445067575725602 -0.1072407711569241
0.522000143821046 0.18703137535374026 -0.08254806134443982
0.4806418429959223 0.14732648327064624 -0.11211055050415553
0.5461015030885505 0.12206965848388052 -0.19625608686241947
0.6041353016103983 0.2238962984777686 -0.0794059432079024
0.5556566198800539 0.1322660897666026 -0.1629200826968571
0.5304505942963686 0.19022382077862687 -0.19224769940332465
0.5428205324798512 0.1996388878125117 -0.05427324349116702
0.4678477509664276 0.19393202228236817 -0.04998089913750903
0.45191663865146836 0.15834914964042923 -0.0781566996472236
0.484034297240413 0.18172423258377535 -0.06521145097347869
0.6037998087812895 0.19790537218315762 -0.07187863408928763
0.5148655955680255 0.18708718066719143 -0.0740498485245098
0.39791407055282946 0.1957310423878198 0.008655707952883063
0.5837356082298015 0.2569309018433046 -0.046853816882531873
0.5445936612276512 0.24872643467674038 0.02597970221746948
0.4587935351600976 0.054967949294706386 0.17412242457724858
0.43456030890671116 0.11859076025015725 -0.17335062434784732
0.5374649407987135 0.1757184172762578 -0.11169754522468622
0.5071194344821635 0.18194867811176607 -0.00165452936657573
0.4631963531005141 0.17827379753188666 -0.14493087838954466
0.6273269772954677 0.05475541632026193 -0.16793841149075206
0.5229351580404966 0.21424533997966932 -0.06610679370656669
0.5072631547113104 0.1650712115333306 -0.08775711926952567
0.5495839659593145 0.1545510873878868 -0.11764591359253984
0.4790090706539303 0.18346931326689742 -0.08950519642178278
0.4289507448556975 0.1612795807683085 -0.03586678713685387
0.5542874683588082 0.2410229407495308 -0.03486196955381615
0.4075686097040716 0.20989497943190827 -0.039570360408461625
0.5155657301103673 0.17053234294316155 -0.1126107379475485
0.39287877091908285 0.1315160180381696 -0.02409151362407158
0.44050115890765085 0.11318692004972775 -0.1393902363530941
0.5170338438738469 0.1814907118002509 -0.0823255740903619
0.5481453333033812 0.15006660785086012 -0.1200401022933022
0.4646868852478434 0.1855261389795686 -0.02662755243260051
0.4567389422952175 0.2052980887228273 -0.026382493012548025
0.4957650316628701 0.19091668867281442 -0.0585666634793256
0.4510768437308599 0.1263713134404867 -0.08066983574695996
0.4793209073060325 0.16668469708152145 -0.101814266378085
0.4018101364114841 0.11898717122255675 -0.09407650749660945
0.37508943997630695 0.1263668957922448 -0.04776686323866386
0.5276809121187114 0.32581757121747046 -0.11083994814438825
0.5410065654514966 0.13546655044004297 -0.174329519098265
0.6220802736144577 0.41130450405402996 -0.12754240452262877
0.44115102073335777 0.11590047530344805 -0.0665963396263578
0.4663633876314037 0.1777475375115074 -0.07600801785574163
0.5630509113423301 0.2084308954477052 -0.06583269187174778
0.5979294683944545 0.1777064161916826 -0.10053362066908278
0.47472527716847424 0.16520974965240498 -0.08671896725408601
0.4879502909101916 0.15904519682406715 -0.08964012860367632
0.4661123524565767 0.18292238739748257 -0.07328424946514644
0.49056518807387306 0.1661346446113896 -0.11200770533520199
0.5198813393785855 0.16068003209963422 -0.12142807909943087
0.5001442164470404 0.1634811135997154 -0.08263495923458208
0.52173432095816 0.18170780399267983 -0.0802943808594705
0.5153935054607359 0.1911072200309718 -0.022799492259835574
0.47842041568462434 0.12028403528137233 -0.16028622821069405
0.5191361190856725 0.16512527322350934 -0.08622887234827203
0.49993883273909034 0.17571585740034834 -0.07204619743717444
0.4964528194011564 0.18922772927633957 0.04614440083302895
0.5524560993780341 0.2752467428861394 -0.07486795018309067
0.6114713825906364 0.20845765267287675 -0.05938567524901828
0.46156058581878767 0.1646713459704756 -0.047430986032409805
0.4970220779798069 0.20627852825487025 -0.05723678666227272
0.46420750677923195 0.048507124335230856 -0.07580897714578327
0.5742159707744179 0.2534021408712306 -0.04549453368267109
0.5394273059007304 0.1642341501109854 -0.08058574358011583
0.4558559792406527 0.24809324490938423 -0.202695494384443
0.43538352722242735 0.1340907349261613 -0.06099448005258523
0.5127731514851348 0.18313392314718158 -0.07402799664617987
0.5753706017559068 0.13662896228689192 -0.14095565659366116
0.4949857238214719 0.14999529492635588 -0.055184275034292796
0.622033663585853 0.23311768479881323 -0.053898129961709174
0.487817273849771 0.1815940147263717 -0.06043225965873944
0.5226765639584414 0.19536079186647726 -0.11067517846633734
0.5035187839094561 0.2308403645202759 -0.04143062588003943
0.516721076853301 0.16594403619097875 -0.08685602758653488
0.337534640040559 0.06238965853347622 -0.14739154060649184
0.5321630242312807 0.14286545216995705 -0.17644457579145012
0.4635446573978328 0.12650145414670533 -0.11616798500605796
0.5172350575197839 0.173290478383322 -0.02755049546686905
0.49190270226475263 0.17554879005496105 -0.053875247630287504
0.5139870313836212 0.13709319201055337 -0.14341885926963016
0.5115942983049848 0.1863661652548103 -0.0683437100112343
0.4860876119511204 0.18613519929817812 -0.06980629258715965
0.4934222106194568 0.1631712153928504 -0.06395021776135934
0.5905719372817657 0.1897901241118518 -0.0859012288260601
0.45553155702774006 0.15524843555240864 -0.07960425355484801
0.43962096693421415 0.20716640250076068 -0.056291678646914534
0.5847972306437583 0.26842754569007354 -0.0603170457530382
0.59252552360023 0.23502198587053158 -0.07826400100979924
0.49090197216044373 0.23489479424358706 0.001698387744795582
1.0236032771333186 0.08243603387401777 -0.02084786331857913
0.6845932829825472 0.2925317979071451 -0.1709769438963633
0.4495497980793459 0.1540951848285772 -0.008127889784645959
0.5596775200776989 0.2161749632525698 -0.0691117750528889
0.6764074029801606 0.21760512540251398 -0.047917094463741705
0.4536896644172117 0.19456206301117618 -0.05209745561940338
0.45478895752938797 0.4891112369327999 -0.08813308442165635
0.5371831771921052 0.1482013854415669 -0.1322025492225123
0.41872421663161674 0.2157145280590953 -0.18679506029300796
0.4658494989252233 0.21187659350968602 -0.03155697951079617
0.49527105087409495 0.18238347321441495 -0.07586579907861335
0.22181567628992127 0.04647476537705586 0.06025417416833534
0.5031576803872468 0.16094240002144033 -0.12429287945523981
0.5017380122151565 0.18082182039950112 -0.10656038656634337
0.6341759011752401 0.19868139294561615 -0.12415189966834816
0.4490652838597953 0.15763905961330238 -0.09500063959070815
0.5068083020204028 0.1973918464728115 -0.0793235744588685
0.50861001265325 0.24008399117774104 -0.0305955253803063
0.5154415221038988 0.187736951467258 -0.06674319595755662
0.48343681544773176 0.2151371045288073 0.0009027799628569255
0.5617198855250507 0.2677265145990475 -0.03195830128005639
0.5147828991471073 0.17272084782726438 -0.07752084451742292
0.411215737677054 0.13548704605091189 -0.018920613109912665
0.5941112801948663 0.19151639370193152 -0.11021437644829746
0.49194504654690263 0.11460680311051874 -0.03822155469656252
0.4849337556771047 0.19358966030384295 -0.05054513639575475
0.46577203532378064 0.16959515712224515 -0.05759819060132543
0.43904390117495495 0.16363168187245947 -0.14785159412826943
0.5784158966706343 0.1936249020085654 -0.1071990811742296
0.5522924886262217 0.18747382652674105 -0.13484896538929547
0.5827206588787561 0.17591158771190862 -0.10782505357033756
0.46450810098414763 0.11744738337496585 -0.08845278660963629
0.6088109903938204 0.20332334729621948 -0.25240796908630614
0.5462531615590649 0.17211164169950166 -0.11851946046030548
0.4593756839845611 0.14259931082645494 -0.09203267052127728
1.2900099115035033 -0.019139879504592727 0.0768916462093614
0.5234956138193212 0.1857744955801337 -0.0911991136188135
0.6013585920081681 0.25069021669141023 -0.08257284403850917
0.4926242991507479 0.17364328475423463 -0.07885841970978902
0.4297754975815451 0.16725299197787535 -0.05574827726776732
0.528016006295843 0.19152157805740444 -0.1090297689156614
0.39159456523566405 0.1386050049244716 -0.048017482740874584
0.5504759806946993 0.1612282965128884 -0.03778970910425983
0.4065257457880165 0.16339319057475166 -0.026190027866562104
0.5190787519843241 0.19192930624342353 -0.05929652504750038
0.5386844057652098 0.24331663248011637 -0.12453100986304833
0.5245141801930373 0.17867755001327623 -0.07384118446742605
0.5793593697430452 0.19921634671635502 -0.06717100506413942
0.4845440039953246 0.14059068821673293 -0.07578864961857334
0.5787228438303629 0.1844599289506874 -0.13357906809818587
0.5362897930273931 0.2889290058962217 -0.0008852659241682659
0.5231059585231321 0.17901984863266307 -0.14910454517389837
0.473425577154444 0.1827369260891203 -0.0901521314325322
0.5280430377432737 0.03639057026177284 -0.10438116389745744
0.4208808148749057 0.200832925723887 -0.04794504134666511
0.4584659847355965 0.19565890789021978 -0.0674143185020597
0.4092330052447579 0.18660812335332366 -0.044685012357263076
0.5703038151497424 0.014934012018684939 -0.25194108290224904
0.45726990874412365 0.1495744040561391 -0.06289587627556159
0.5993158679233801 0.1603254406805661 -0.1432788283907911
0.5046549894365029 0.23009565232140972 -0.08482169075796264
0.6338675778187053 0.15066131344093492 -0.1143164964672394
0.5365805165818784 0.17864138377629502 -0.10001843599869176
0.5230560537752211 0.19433455025421154 -0.11664673705384132
0.4830661208772824 0.180063877832481 -0.07473702557302886
0.4376246974793361 0.12642683899726137 -0.060366317189163965
0.4891467176959168 0.16765096050954753 -0.08568247789438033
0.5114078231721066 0.11623980295918557 -0.15795571433204714
0.46872584593759825 0.2072204210941493 -0.09836104642188559
0.42645155161098103 0.17468487618756967 -0.0950041968720825
0.5253644423608819 0.1576822447950974 -0.10903670822339961
0.4985293726501112 0.1792482403041049 -0.08558885021891172
0.4372929948280557 0.1503562984289033 -0.2090699387160413
0.41545212175577717 0.08895866667275243 -0.06711386136441888
0.5737418009771602 0.2382310173605049 -0.08065603939422772
0.5007070578898976 0.1326595224313678 -0.11657856332226402
0.4883733884845043 0.17347456349418167 -0.10532582700906801
0.4673280885469495 0.16258628119679486 -0.18364572706553872
0.5148270750205057 0.17447747361808297 -0.0775061287879737
0.44291192425056636 0.20942708884679462 0.021133015966697144
0.4890089353099256 0.17472423206140775 -0.10396088296471362
0.6068176199870692 0.1741003845928617 -0.023552923548891158
0.5266447712630082 0.24844530119533204 -0.08537154857894791
0.4973456192765724 0.1608980095906105 -0.08703104555665675
0.46308355244190125 0.17313329463230787 -0.08966255131903722
0.5067734094137251 0.18320692790743465 -0.06471146526001803
0.5756405206502535 0.21756855692362365 -0.11469206066925608
0.5451096257409205 0.2143512407748176 -0.10971968992866721
0.5049143069880984 0.1461519542182259 -0.07625578646319298
0.5645099283322423 0.1397346253698828 -0.060043350934193995
0.5583774053380068 0.17396038658918656 -0.12274011985567768
0.5672701600489489 0.2054946860059772 -0.16983503606738282
0.709487015187463 0.310575963585876 0.030418663143066738
0.38937538518985093 -0.1360514657178271 0.061893680374410565
0.4200039079101572 0.17406255049039032 -0.04870576160689666
0.5316686981040135 0.1500323528289158 -0.12091540631580244
0.493701960517015 0.20576124247318717 -0.07739721673110012
0.49219734374612756 0.15008094345861878 -0.057156164901229545
0.5639463635291122 0.010412033671258314 -0.15938473668022368
0.5404195963753153 0.2408736974084036 -0.1942587214281275
0.5919228379652424 0.19857060495775158 -0.09552130783495727
0.437721679585394 0.17444698978349038 -0.060889283598953625
0.5381734687652084 0.21805132711180875 -0.06973940681355373
0.5145537564077785 0.17913174992233394 -0.07228116550005836
0.6146677554734197 0.2871130396505066 0.07642441880720696
0.423408766732436 0.17295556198287443 -0.07910901465245956
0.44251079453218267 0.1449073390647584 -0.09326559516001964
0.5660810877634646 0.20048043507091506 -0.09529702326447875
0.494171860561039 0.1560293074973913 -0.11678412675928485
6.0275035833817014 -1.6056947998031745 -11.15105489327101
0.4937817659681798 0.16747483839040456 -0.09836282387723827
0.47705930916542627 0.1900911933623206 -0.048988484464103976
0.4700439146753723 0.10729721400767289 -0.12272208338508506
0.5018636583809979 0.1876537863380463 -0.08861554334708899
0.481212479188585 0.1998170354267188 -0.07821784216079664
0.5647283476721014 0.1673451325398645 -0.11764911585086679
0.46528006664590293 0.17083926390986903 0.027809514241397437
0.4132770164683848 0.1347056284496233 -0.055621569395967185
0.45051887164157733 0.12276223691219457 -0.08939099066630263
0.5148934174553972 0.17703058853430775 -0.08541287445923729
0.4549647577868825 0.233058662652752 -0.04809738219248061
0.4397147021218757 0.17304264876514708 -0.03205717057171853
0.5583549254163387 0.1530719859116232 -0.15017660380749476
0.5049193285366584 0.20653079628401372 -0.07679652403707848
0.38134037518830155 0.11207546609135477 -0.12680193278421825
0.4946975328525127 0.19884943479723916 -0.029450707764752337
0.32398882064148893 0.05462708672629901 -0.1143392163419037
0.5244068308966803 0.18232549329982817 -0.10388047619400709
0.5233837171919333 0.17382710114995348 -0.09450118266980212
0.502800110359388 0.18800106621411317 -0.05240591233919645
0.4929746744969634 0.19504459507960803 0.05803242521979257
0.6224388408914763 0.2657662520805957 -0.04267416870732177
0.6418848992885131 0.2747357873929275 0.05267249890418668
0.5365290737220505 0.20784497379281675 -0.10869434944756051
0.48809620761078065 0.2069636055370836 -0.09151847449928141
0.5162034076758459 0.21020396048027123 -0.04596023126160276
0.5891543491308084 0.16789408693524877 -0.10469756729922608
0.4350060085748595 -0.0037072837220932797 -0.11010857756164683
0.6129688876279289 0.18056629034165894 -0.09144291424499329
0.5115632095691183 0.18471259773728832 -0.09133325060062703
0.5736626628951456 0.1993115562970047 -0.043680336731071634
0.547980124199114 0.17143438185925675 -0.1309754174251907
0.5033644067312082 0.1464130580394567 -0.13918493088104356
0.4338922005600523 0.1779290403217999 -0.0569725198062514
0.48792339929696027 0.20634329846744492 -0.05943803545547155
0.4044887780866304 -0.05898917040398999 0.34144169061711693
0.4740647964251252 0.1782764599231541 -0.03506899521586604
0.49155414433832334 0.1886671508459017 -0.015194046097889213
0.5316827089846043 0.1510776743247959 -0.10924163919335683
0.5281667612108691 0.1410290066484663 -0.15270064127517458
0.530406024747748 0.19924122379961773 -0.05407479566396489
0.49356126096640196 0.17163081376862976 -0.07581801174622171
0.5359213628151878 0.20662523579582626 -0.07991679425165898
0.5247553503823639 0.17949991773309648 -0.07906462988762541
0.5091719180148857 0.17336033599534062 -0.11968514218413873
0.47536997852904506 0.15846306076815608 -0.16168221076794964
0.5505309228536248 0.11771150452506163 -0.1653761805313394
0.5023033911491268 0.13538213838010904 -0.09802537358297059
0.5104889823624177 0.1374832446040699 0.017395247455255003
0.44801537851390094 0.17100003107179873 -0.07760376677660474
0.538858575613034 0.2547778384194288 -0.05003039952794097
0.5055352804231319 0.15034944224822766 -0.1477853976130632
0.5482252255110183 0.22313390384329068 -0.011572281972505039
0.489478316544961 0.18750045992183573 -0.07298649989974137
0.4956479460611547 0.16376423292916797 -0.10190162614516396
0.452326873808758 0.13668376047250774 -0.06607443609897246
0.5524351382718606 0.10510036513977639 -0.16188171752195046
0.5243553678183019 0.18276820136327387 -0.08304052421367203
0.6367904780913705 0.17078330015330323 -0.17097660199404174
0.7310655195466325 0.10406787245317162 -0.09806430948690092
0.5936010872499651 0.1871066711018159 -0.11452327994558686
0.6405649246808593 0.22951597107075372 0.023078538610747046
0.6697672538372359 0.17332548737215348 -0.16838181100904137
0.4558272409925479 0.18590886787487193 -0.03998615161542318
0.4389827121700023 0.14445605877443768 -0.088945386179347
0.47210645864190326 0.15793690482064449 -0.06707379540341663
0.4417999251560758 0.22801804686054084 -0.050212058593231745
0.47035525755966034 0.1434913392280066 -0.0756693972325877
0.7464320985199748 0.23543183605279694 0.03212741054494472
0.6357593012242688 0.22173190921606079 -0.18901076003359663
0.5300549423940026 0.16872138480370324 -0.11081977431018686
0.7229040872132657 -0.17233995680516045 -0.27787203210966993
0.46324475882212823 0.14373441635851236 -0.15036826967489958
0.647253702382713 0.21117570120460982 -0.0735428581074018
0.3669519462617501 0.1618214161248943 -0.029939478108971684
0.5274612096411744 0.1878927929186034 -0.10030733989107432
0.5084670825681599 0.20128581628199527 -0.06961020251094396
0.44766468014211114 0.15314343165242406 0.015571576043640789
0.5541401208625558 0.17215964595942523 -0.2009455121378494
0.4612345100344868 0.10360539113034406 -0.12511285014457485
0.6466938578950163 0.11404642067677173 -0.2044372502514733
0.4773803463133106 0.16874773431131018 -0.08995075656841323
0.44234683626569904 -0.0004092438776126528 -0.025834112707499912
0.5731768143898535 0.22906670500364612 -0.07155725410279956
0.4845089420503115 0.218091243462311 -0.06880856626676746
0.5356092968919199 0.16132547868980396 -0.09919054471700406
0.44709601687374345 0.22809813573178417 0.012946767665809489
0.5173287113031648 0.19347217374036063 -0.06842877933031843
0.5687260364611149 0.1834493730344775 -0.16202888005408056
0.5343625639105909 0.19000365934057584 -0.08751303146570422
0.5293996593295134 0.18743837122123352 -0.10989105763499651
0.45412627804125805 0.24169153927923048 -0.023137208725728442
0.4523369480828876 0.1871909412843138 -0.05871012157186328
0.5075997244822901 0.09179938154133538 -0.13147147528073333
0.46183209051332597 0.18707585367221213 -0.127697088220998
0.5015400661391283 0.19170758893562834 -0.08603474752632678
0.5219097685765348 0.11427525419662743 -0.17343717304324002
0.4527313998753755 0.15764607499431804 -0.09170433841549652
0.5314288382915748 0.21674237287029996 -0.036749567822184304
0.35158583674115107 0.02585723439685239 -0.3837506795666883
0.505066074565363 0.1706873765556054 -0.07727968049057665
0.5088134625884777 0.19624127674867964 -0.06447840796057847
0.35196391408661043 0.20100651520455415 -0.07719912837042386
0.5996362988075816 0.22640847370740858 -0.2578316786775048
0.6273054545773249 0.11757119384191128 -0.0784471172833463
0.4866937310090691 0.16140906107114006 -0.11839366974422205
0.5067237817816732 0.17400372368382477 -0.09073577112026499
0.5365144625529723 0.14995376934125204 -0.0669377630614747
0.5735082870837545 0.1087906714925424 -0.1411038195776939
0.4950585981703597 0.1609651759430193 -0.032680191846466755
0.5196296075406366 0.17490500884358084 -0.108995582315913
0.4687040297279168 0.186041913926843 -0.0984455120990333
0.5643110633940296 0.14237708725345044 -0.21997807192630603
0.5438689832339634 0.20902985563650134 -0.09357450688321478
0.5255171241535521 0.16857414703996199 -0.09641637945274795
0.5127139055368275 0.1935420180212759 -0.11446435243898634
0.5577118753261772 0.11964609935853332 -0.17311911921730427
0.3437293603771252 0.23880640454255797 -0.1861272931660949
0.3640768083541559 0.13167274605326895 -0.0748581906895538
0.48627305688756906 0.17748110909994352 -0.09424808165744025
0.8112015658368108 0.3173687467818809 -0.09891508569846508
0.6163010745901687 0.2217905822686248 -0.17853849450418124
0.5370870212579888 0.19770337260391102 -0.052505938503642824
0.5947259863802259 0.19736791264239173 -0.03825211661531114
0.5653522129500317 0.12945584365215268 -0.22258623821984713
0.5139620908614688 0.18419929605008178 -0.03335134800305184
0.5046610452328082 0.16025146956302194 -0.10877474416768962
0.2265249523347137 0.09256680511815318 0.24727053720891945
0.48932001848905315 0.252094418706136 0.03543360760511405
0.5258097487007376 0.09679554780535682 -0.16119971260417287
0.48374092540876745 0.1368750465431674 -0.13650635785636211
0.500666874573966 0.21101968634894774 -0.0373877699187517
0.4823301142047427 0.24650376660498807 0.008167302443808921
0.49715827176734706 0.1895447710456324 -0.07601967100031004
0.41588199762793465 0.182395043231665 -0.03929489009541953
0.5308085006306271 0.23837599819759703 -0.043861301676486164
0.6289549417463718 0.2590775632637303 -0.02052520429344895
0.5820840021032438 0.20347244420082689 -0.0564315039697334
0.4683417599793671 0.19268966603291915 -0.029185413418900907
0.5787645241543942 0.19113074157502297 -0.07782079767838468
0.433984032266892 0.1438121125474936 -0.0944289839840593
0.5759187935886274 0.17021884257438558 -0.14468379781074248
0.5381132065616043 0.21829601205377003 -0.10894266786053208
0.524100527904551 0.17243070054064447 -0.09619327887428142
0.5533669922431841 0.19376807180830724 -0.09618884043280218
0.29716937969658375 0.35239737612050703 0.06638698133320986
0.4709097966565281 0.17973244459685134 -0.07987880887178278
0.5144415939405462 0.17871790833720524 -0.07797352334387142
0.4613461399923011 0.16498365349323763 -0.15042162431537065
0.4922935768546495 0.18351777732524965 -0.0790454314137321
0.5210605544735216 0.1423673508978709 -0.08327132485152333
0.5916354000957114 0.19023576820767119 -0.1421011652251707
0.49235427598232206 0.15379857762140148 -0.07317343803875076
0.5410481650051508 0.1324363901703407 -0.12850108358726686
0.5516935507183973 0.18826892876093382 -0.09512875481867411
0.4135324929496704 0.18693146733406252 -0.0385860478156701
0.40698483274130126 0.12217200764402492 -0.04747736830897509
0.6079031134242854 0.203496293271769 -0.047586202329256366
0.5126376893713456 0.2259297438448158 -0.06050069624122045
0.6324011944287946 0.2243211282377331 -0.11228398781105398
0.4533711726062535 0.16481202814284757 -0.013006610699278554
0.530674159991321 0.22735038700382404 -0.30351884215407665
0.5610782818330478 0.19909347832398794 -0.10704161683061386
0.5156102724512976 0.178136208219982 -0.1506933115521747
0.5604758168399258 0.19403736305946495 -0.21713809343374635
0.5758379031130829 0.17472184052273576 -0.1398383606840241
0.46031829830752713 0.09200945034237407 -0.15662921448262068
0.49724697722461997 0.2317658461689689 -0.1932130541431576
0.4972280456546656 0.171214286446002 -0.08892258605472136
0.5763902135940242 0.17236113754265148 -0.1543740410376273
0.6577113086537878 0.17727400190693743 -0.08775712709920924
0.45979697905829653 0.23466735756868218 -0.14015526019004199
0.4638864304452426 0.2050241555717207 -0.02825120336987652
0.3395157740625905 0.07595416408594247 -0.2657400737884359
0.5465669350676023 0.16213047001312475 -0.12068205228706574
0.6501620703126179 0.14111469443517421 -0.21998507140696688
0.5830672813399786 0.2456461998304178 -0.04116410372168389
0.52013427180637 0.18713530574680703 -0.07971925505337651
0.43391100859180654 0.15217894703197032 -0.021197180395276405
0.4941329040801179 0.18918165648216245 -0.03411920206814045
0.5457662367888076 0.18659548790841995 -0.08489561127461798
0.45709544844625327 0.16775273357120568 -0.0660928377512704
0.5177706606308448 0.15502749212382128 -0.1120214611805892
0.49334234145496225 0.2062886057651525 0.0011190921049148983
0.4194685966513134 0.1263599707297658 -0.0899917144409983
0.46328151161895903 0.191867815606372 -0.07475183909859595
0.4595685364449338 0.23104271100083906 -0.05626614821727571
0.46483817434375396 0.1573623242734925 -0.09621393546937895
0.5431880436692609 0.1976025666726855 -0.1887279606721819
0.5530998679902837 0.17553328740737584 -0.15959285327178918
0.4665645599580728 0.1560868906875328 -0.014900965382182108
0.6410840365825976 0.19861277709944147 -0.0039212807548807405
0.5359771091683712 0.19144888660019888 -0.10831332917705083
0.5122575203580766 0.17737815797292455 -0.09384458150975661
0.5586857440946886 0.155359577871792 -0.1451025342925618
0.4614494727742482 0.0845807159118408 -0.08849352531370869
0.425421387430319 0.12623387860840296 -0.1359182152136924
0.7565858144416211 0.2586821815193616 -0.13535171004986069
0.5128344978670896 0.09838373871924944 -0.0943630935865798
0.5486063852675187 0.2049689636635037 -0.05098793924275924
0.5100926918678255 0.16128608936277544 -0.09133981637540955
0.4803177317508158 0.18079499893248396 -0.07700882611625559
0.5338145907964389 0.16463496708186653 -0.16037549935830953
0.5542684958947319 0.22824492185958434 -0.1133909329702476
0.5152929700499556 0.17279054646738246 -0.09518715213090445
0.5386411853244795 0.18442889450088273 -0.08668813914263751
0.5176482392283077 0.18268873135326658 -0.06929944353815642
0.46582307115976107 0.11416556167299063 -0.10352613618924522
0.5414580552075421 0.20704015077902227 -0.08399894994802537
0.5868227366469227 0.20565744970525657 -0.06533212856467685
0.47558761179058706 0.12887353801841073 -0.08662080858691468
0.5329474332973234 0.1669813220380547 -0.14648018628095372
0.6759992395695349 0.22770156697626476 -0.09973701284471304
0.48900705414429524 0.14686111843010963 -0.07657494814951349
0.5706023627380432 0.1721523450727318 -0.1542884806185043
0.6226220898412009 0.22508911933944376 -0.14023640439333462
0.6705213766581011 0.4706231496353155 0.018394544164436866
0.502316190071241 0.17583799310227732 -0.09059081112198442
0.5362505248193941 0.18781955798021954 -0.08405875502948845
0.5857115451896391 0.1144106665898903 -0.14497066632739575
0.5322377281224959 0.18750830046161582 -0.09697279456997876
0.5483499413619484 0.22558764229893313 -0.17735035520176723
0.503826541412451 0.20049211334796269 -0.08352017562157243
0.6034790312288294 0.1786932064049438 -0.16480664428934233
0.5880102899354824 0.19903917700821694 -0.13728698804024475
0.5103618328982833 0.12698796235962106 -0.151881320422234
0.47721959827552496 0.19442333939210243 -0.07474220090253425
0.48725361243054977 0.1626119306653493 -0.10732272082755401
0.5686652602778821 0.14133275425142244 -0.15625926099728815
0.49580880954650297 0.15323123277912032 -0.07155210914714871
1.104182245113961 0.021310761588409832 -0.157566009307871
0.5129577374100762 0.19718978176209134 -0.07934441129189906
0.6359926820051669 0.3848007588007505 0.08200673632171629
0.5544121033396721 0.20054519631467826 -0.07585400027176092
0.4808748505263907 0.19743434068749366 -0.03050618923666093
0.5334909580008116 0.13953356432580222 -0.12576669880652958
0.4118357501861425 0.13513954632711034 -0.07448898363360001
0.49519811324223895 0.17743962276071557 -0.08552776634780912
0.5174621590120125 0.1640600672897108 -0.007572102572467543
0.5031781584246175 0.1773382464054123 -0.07401646781721638
0.5270473458631812 0.2017517324989342 -0.07881054295664569
0.4496643949240422 0.12906317681452606 -0.10372989728318771
0.6092416493625166 0.17260111361784425 -0.177775155784488
0.5102022577356564 0.25839253595486866 -0.02422165782196828
0.5207490560714376 0.18456128727697774 -0.069796284862079
0.67349341344935 0.1264091122037314 -0.18732234232341227
0.4912288891060541 0.17641026609433652 -0.0807279532615155
0.5594705068176751 0.20646244195648933 -0.13838677712638514
0.5588105346913608 0.23906936316674887 -0.07240030174048684
0.5055096028038406 0.15997581741933686 -0.08413399490473239
0.4919847036455707 0.15153635224680784 -0.09781065394405175
0.3843812821014865 0.15015609432357735 -0.06620964479571967
0.5491962617423525 0.20131924277376356 -0.09816585765216246
0.4548836631712163 0.15453673522817724 -0.027004578274571145
0.6518913510893043 0.1742170988988505 -0.18575368240789203
0.5438999116082215 0.21830136649870724 -0.1469596769328234
0.4424929378793365 0.10786148222155134 -0.03146177746380374
0.4969775315672962 0.1813317971507331 -0.11735327303658494
0.5342521995860068 0.3066881442932754 0.0910883365009596
0.4272595232765042 0.08511097973511994 -0.11342926310143753
0.4426913303052231 0.12008323491249939 -0.08155837188670034
0.4240862940296495 0.09602896766136837 -0.09669958209254048
0.4843697799885831 0.18251165789297374 -0.04808783453418641
0.6091598778016447 0.32641133789562105 -0.030607259901088923
0.5087476802116129 0.16200223322653073 -0.0829333388749518
0.4859625162088008 0.20471905484782837 -0.029629563452914454
0.47888093340550597 0.16468847211550042 -0.08876315255513134
0.6074361127206487 0.23744982436870998 0.009494058869307764
0.5888217583922142 0.18163293432556316 -0.16708173482092548
0.9355975725537604 0.07127121225573774 0.14227576981537027
0.5489032960119289 0.16604379808345016 -0.15808355507508054
0.46069477076102316 0.16013854393946758 -0.08065971165511598
0.5629877344926655 0.22772185381191434 -0.04085963630035394
0.4643745077592456 0.14055428021873695 -0.2106721083027452
0.5200640583601626 0.10747946007535347 -0.147091072831401
0.48242500488368023 0.12414768213017169 -0.12502653843746714
