# .PCD v0.7 - Point Cloud Data file format
VERSION .7
FIELDS x y z
SIZE 4 4 4 
TYPE F F F 
COUNT 1 1 1 
WIDTH 801
HEIGHT 1 
VIEWPOINT 0 0 0 1 0 0 0 
POINTS 801
DATA ascii 
0.5157232051181779 0.16452267834554846 -0.0957629098177506
0.5163864171796035 0.17428791298701185 -0.09591688238877794
0.561392714255561 0.11211447057185353 -0.1199670503838064
0.4803219342892646 0.14700745885041044 -0.07011758585993277
0.6727038800054004 0.20215695949640633 -0.07554631817750135
0.5820744495653116 0.25759450061998734 -0.09043370784793581
0.5907179652719208 0.19112881569370188 -0.09766438160525581
0.508063644881247 0.16850227200961854 -0.11751508618007733
0.5405762039397359 0.19519265757838866 -0.07001687592527617
0.4635624421847808 0.13978224122573124 -0.05281097995749917
0.5361083303269822 0.24776142048573035 0.004110524218802425
0.5447283945679828 0.18248051000401233 -0.10526184087206047
0.6109053936616817 0.2493020490121296 -0.10183219069108418
0.5695295049095535 0.16319384489619893 -0.14941822544800232
0.5821871372333476 0.23446808814220788 -0.08433182704271758
0.5355077956689058 0.2766308586372048 -0.08905609469077547
0.4267406651697172 0.1674168648763441 -0.060884794470268844
0.5436865444426076 0.16083371131882984 -0.09135822604589805
0.42114657661491606 0.18559025591176237 -0.04481443648010952
0.4795515695710435 0.21268736159184698 -0.09010450013052207
0.4479160377952667 0.19873735179638174 -0.06207225825173168
0.44775644452994356 0.13798607906863936 -0.07975533630090581
0.6740156236861878 0.26038936731346496 -0.057994355554910726
0.5756309361451031 0.19147183187547512 -0.07048584925172463
0.46377783173207376 -0.009551495594706694 -0.11677932901662302
0.543459730331989 0.04667084707115521 -0.21882691458827708
0.5007475254489577 0.14588114749375336 -0.09630402621330347
0.5127397704963244 0.1721315506820673 -0.07647024031449234
0.46081921464750053 0.17946641663800733 -0.01031660046452032
0.5008400400765254 0.22912209421087937 -0.028429632637369195
0.48966620176085485 0.13458576585171045 -0.1063153631888838
0.5197214997252786 0.15360457355542678 -0.09435337546383948
0.5679282095635187 0.19711710430991047 0.008181804544221905
0.5235603635811117 0.16657365511312605 -0.05814156434780671
0.47501869216182513 0.19633956577644085 -0.04995815703415474
0.6034802082277224 0.16408209664814422 -0.1209903352449686
0.5349504309058943 0.18225341238900228 -0.0809495208789599
0.5577081012121141 0.22556220702080054 -0.11665455926213042
0.43468427083990946 0.15580651701196757 -0.06578360610777167
0.5665127807935733 0.21878147726312136 -0.10787404588053562
0.5614559890706232 0.1832148959585993 -0.07752076672819896
0.38857194657489913 0.22633794192283574 -0.0466506978217609
0.46893263799944407 0.21354534606365405 -0.050970636482745135
0.5618731972554656 0.21121598270205766 -0.11506595711695411
0.5235421356888139 0.12040222379053489 -0.16068895508253433
0.5362602573417519 0.2112668378455851 -0.061645947155611225
0.4853954902083615 0.2802933505772671 -0.16816285272783205
0.4133471825524282 0.11484401787576815 -0.08258731697061705
0.4454646567439795 0.12703264140037618 -0.1121676671739067
0.5560252645968831 0.3196067866195591 -0.07731911550466464
0.5322633245876602 0.1427690701929123 -0.13494879090205814
0.5442923630308201 0.25853865612035065 -0.043437691497203446
0.5000899364611939 0.17324040677684138 -0.06449085680773692
0.503253152971098 0.21207083791037462 -0.010758792478270607
0.6371648672056835 0.2282468102714006 -0.1373376277787628
0.5719291811516314 0.24632238066094203 -0.030473762673011606
0.5737271180364303 0.1794359593251329 -0.12576348105750412
0.5071651136190951 0.11682223576153206 -0.18525887880986147
0.5393320208900718 0.22894919801152014 -0.19011205024617084
0.6114010743744984 0.19201888434224657 -0.11296380407050322
0.5655047511471025 0.17450390940481952 -0.11831995493194825
0.4835218999998858 0.19781750678713195 -0.049952802726210166
0.5912483560567523 0.11881653745508913 -0.29869661610810283
0.5031591876593495 0.16605808361876484 -0.05928038059572316
0.5010608598424824 0.07271589226778019 -0.2903009931846583
0.512714011830667 0.18792845505888067 -0.06341898904845777
0.5049186288291025 0.13947861421090124 -0.17708509526420357
0.5584416147060836 0.1742984747854166 -0.11225144347254457
0.42290263327114985 0.11809690555546126 -0.12178609887990888
0.5059609444919886 0.15863012772689444 -0.11055219790537762
0.5448065860786926 0.16041476356767248 -0.1349994131250014
0.6052410495478853 0.09102844339568605 -0.22667331008709368
0.49134634898283025 0.12326553090537118 -0.10803808097250567
0.5540609799965068 0.2113949983225183 -0.10918210664924288
0.445707557677963 0.16999421935430803 -0.07191228982733833
0.4868577069453579 0.2618843488175031 -0.04253220838819516
0.5069735364177177 0.19545230244045797 -0.07422503297391359
0.5420081199605136 0.15081789124312195 -0.13395674705800786
0.4874572576185585 0.14356725172048357 -0.09947015637601453
0.51048699859723 -0.522828269395518 0.12376425387493839
0.46223000355041677 0.14476800161102688 0.06021324481139345
0.5660878487677223 0.20077099600388237 -0.08254296800404859
0.5950330423471542 0.16332380090332776 -0.1413409503601173
0.5325095099479427 0.2251056420528812 -0.05465551900076093
0.5070808931713486 0.18177355544838747 -0.12141345911572898
0.5133677966964569 0.16457806582181433 -0.07124860562319668
0.5240406309159766 0.1754304623502776 -0.07720317654803921
0.4933439251669256 0.1751970927937947 -0.06757428768992213
0.45318516413988164 0.10091996096863909 -0.015921252977591394
0.488990775758225 0.21170602101673808 -0.14537433865554306
0.4752385199085154 0.20794242492854664 -0.031097532203148148
0.5296206974868767 0.28074574045405143 -0.07097133782319531
0.5300283137457313 0.19141896446522821 -0.051525659832179826
0.5216836887812235 0.16736585476887456 -0.11092542929090143
0.5006955063747114 0.16617010819415157 -0.08912197014804235
0.5528488846867958 0.17237864840828365 -0.08910127559529712
0.5842318216399462 0.19003122655087168 -0.09640629488612262
0.45670728433876207 0.17133278085481152 -0.07851841260875858
0.4696499049421732 0.127759697043075 -0.1506838463326261
0.5062385919640917 0.1997901169215197 -0.047663307573074576
0.5640283101783155 0.23572750228956352 -0.08048450933192441
0.5164270512763949 0.17409536356824162 -0.1084155055637126
0.540667701216961 0.20457544309138598 -0.02645250778425634
0.5586713540717483 0.17648022264336305 -0.10491097456625198
0.539338616451829 0.14415320153720756 -0.11781351800233608
0.48112883383461735 0.14300468837777203 -0.0587202119284882
0.4980521807875675 0.12155924026546927 -0.13919268659836348
0.4660695956106622 0.15405267669123646 -0.0643787414698096
0.4937820075131185 0.1760695401289496 -0.07960974426370626
0.5384068780902851 0.15352235770805578 -0.13965346475877993
0.4689825764440343 0.20136643697658485 0.013517282835792344
0.4705259942546718 0.17638500850924288 -0.05589210941077738
0.5461790906403508 0.1749991136059066 -0.09023926602498022
0.317292458242207 0.20353206576552907 0.4418719040442056
0.5624446190870458 0.18523683324916362 -0.04453089658159115
0.42620263491448895 0.21962904481623013 0.007766950809923401
0.5588510177634873 0.1693736803947843 -0.09255297938229035
0.5756970344183117 0.2100055566134813 -0.15361859203953543
0.6330406274359177 0.139668587283154 -0.1343008992707979
0.5507979335170319 0.196914908554092 -0.061295029581657445
0.5398135672791966 0.18017684740621576 -0.09557954103472355
0.5670615580119431 0.17994912520489947 -0.0932339208608397
0.3741354438728024 0.14269158521680936 -0.06835911985533016
0.5587851894655955 0.1710170652967804 -0.09267580489596128
0.5097759790413079 0.1871033608124435 -0.07472128590733007
0.4738557929771332 0.16230032409669093 -0.024725739583828954
0.46936589724808186 0.15218987141207663 -0.05514092988981645
0.6316048120332596 0.2177987599717568 -0.10052114951322721
0.1739818427817852 0.4414519674597557 0.07452234467767482
0.506298453133752 0.12955468204694398 -0.1122941487080027
0.5060409776623658 0.200383798044399 -0.038331836229929195
0.5320546944538762 0.1988954873646378 -0.03403247568630263
0.5639045444488602 0.18771389422389007 -0.09455055218936081
0.5331885535761387 0.16339399381442377 -0.08047870168415727
0.48255211853020796 0.14851953561735343 -0.07319746515373993
0.4813605433134853 0.17498854984151535 -0.07842409235230718
0.5745697526706408 0.17421076514580136 -0.10277800076271149
0.40733193477612417 0.15768429368813486 -0.017916316947236055
0.4716812548444409 0.16636725776717753 -0.10814206329457932
0.5740701030833577 0.27741206286802367 -0.011519190216930042
0.5232822298339102 0.19111467929087667 -0.04464401544781538
0.5295308589382444 0.15758050931930256 -0.0748956781245056
0.49981754066368467 0.17659600434480183 -0.05775822171966638
0.4729740280097303 0.1332332991014482 -0.136637795665564
0.5038241731724611 0.18229907387848243 -0.04545146616551676
0.49744956929299633 0.15810342319363713 -0.08143425955171324
0.5481987855567922 -0.03568959610697675 -0.12882249158973025
0.5428435644044498 0.20571257331273785 -0.006738811208350626
0.5776534014189281 0.12153387175220587 -0.19414186137512957
0.45779722975436243 0.16066279922364402 -0.04130271503912297
0.47149492555467987 0.10333735542073441 -0.1697742124893722
0.5184312643816895 0.1549423438339943 -0.1462468430299424
0.48902730857329857 0.14834003460677536 -0.10668416834788275
0.49016579614666966 0.16646064411557404 -0.08077376203164022
0.35606840900365455 0.11497245049264393 -0.023769170010680796
0.49019022381671107 0.17162782937066368 -0.07393271797484147
0.4713911242811264 0.20424068999152212 0.042792113991097835
0.4580412759261492 0.12702025707108078 -0.045351548764287486
0.5401589240713349 0.17242439308003554 -0.08737844406425666
0.610979282590165 0.1884827414163226 -0.09566539179307654
0.5151784610658581 0.16103171900081747 -0.08794924694633721
0.5132854145641659 0.20369005112608818 -0.06103413350909648
0.46828589680654886 0.15507960450963765 -0.05448007182815218
0.5805985027285203 0.05271773691198689 -0.17143707839628064
0.5970903569058237 0.22915624594853057 -0.11547610190203272
0.47588222630449195 0.13875772144834286 -0.06782350559899442
0.5047256669107014 0.15767676077723536 -0.12005815813162712
0.45578015039006914 0.16001968030536773 -0.087118414295702
0.5738306256055807 0.17817387729061807 -0.1514055420910836
0.4995312126091562 0.15755201981266964 -0.10296344943613178
0.5040195458776395 0.23299480363363045 -0.023138101596856586
0.46203183477686594 0.12649749087798057 -0.05646395942221716
0.5428863243820956 0.21150910218011632 -0.06720727152834627
0.501656805166391 0.17151666647617958 -0.07772863652694184
0.5748623209398147 0.13151340306751536 -0.13205319962693807
0.4959829023273983 0.14873528739997255 0.030692478039085813
0.573201699076094 0.18913917481704345 -0.09997888563029278
0.5470073679198322 0.21348975081251353 -0.08377482997750008
0.4726471902222613 0.23141290952786164 -0.03882656778250748
0.511350912375292 0.17160518765020072 -0.08071261491906512
0.5734822485290465 0.1869391250870791 -0.11632326647777802
0.5530537185869946 0.21372552997281957 -0.1627034528328437
0.5410954494844873 0.14590437478818785 -0.09436205932256314
0.519931963327366 0.20708351732707797 -0.05845960741487488
0.45006317116136074 0.14853198577509374 -0.03032697272185203
0.46307357354768897 0.20390783788414524 -0.015258133078333458
0.4185912046644944 0.20774114253129028 -0.09637957456142487
0.38162872279528415 0.16111706017454708 -0.15272933872947192
0.485360081105199 0.1813414383056795 -0.0614560779462181
0.3990076341663098 0.1990306514313005 -0.023658930314226723
0.5112174535885572 0.15597459072075992 -0.03731778775423322
0.5654879625344336 0.147955598505618 -0.15173513729092747
0.3794217597657905 0.48654196514868886 -0.1304109601454968
0.4951355750996811 0.2174694390207037 -0.03193707332695794
0.538774663500817 0.1570466297666826 -0.1395065538361564
0.4994455445746553 0.1560880844304222 -0.07415927539811662
0.6127773766614553 0.2637939660859132 -0.06756386297446682
0.49679879700917695 0.1459198543954301 -0.08106537473106812
0.5700492901425207 0.18205988571013165 -0.09510902714627889
0.5283571787491042 0.18599667087784155 -0.08517976146737283
0.4496355207967895 0.1289195569780759 -0.09826257332500177
0.5009196172343593 0.13616131418588395 -0.1022213632630411
0.48381808214710986 0.19512027943937937 -0.0674965542844177
0.7203339294777606 0.3540125415912172 0.1330208658139611
0.5513725525333371 0.2311527377842708 -0.05073714910072624
1.0029458284691941 0.12879145859017171 -0.21363899373996276
0.5405195113536934 0.09814577011692904 -0.15594730269286572
0.4354525735976722 0.1132486223660436 -0.14892407380884265
0.5176978368037624 0.2061711087556546 -0.04564399438574185
0.5223319570252443 0.1690858772977606 -0.08726103658548823
0.4862461479744695 0.19171961747565547 -0.08614034015732841
0.4013200180745855 0.3129203862203127 -0.14004698462677823
0.5277123837030899 0.1791840915815328 -0.042057275142411754
0.500614233926882 0.2138640027002623 -0.028214189596965866
0.5446674429618668 0.14055405489835948 -0.12101569181282912
0.608238018210443 0.21958942709301255 -0.0921994915907618
0.5720668947059551 0.20758591802575665 -0.07860145307711264
0.577022353988383 0.1729924976682753 -0.12586694418757816
0.4960624825226603 0.13279565598435283 -0.09599147709364786
0.5183652497381672 0.20063899133222662 -0.06462967335019698
0.6384269513787899 0.16829058526867868 -0.13749544523994928
0.5233383577645725 0.2438155593603284 0.0007898774587005164
0.5262152974112837 0.1740276906150484 -0.114963373402162
0.548363422947574 0.16997039584491347 -0.08863981542283739
0.5491457858820468 0.10336667675990441 -0.17795379703991898
0.46597060359314924 0.1640534392118127 -0.057771445301867175
0.5207981556044956 0.17092340306301423 -0.05073600628448105
0.43995747623000625 0.0488265796336691 0.19922004286846118
0.5303599168340725 0.19432069265860719 -0.09482868072865358
0.5706019935028337 0.18962603883835527 -0.1086866401345219
0.6093285748966366 0.15640118782174284 -0.10608510251987013
0.5510686122291304 0.19720617239761395 -0.04800624267700471
0.5289070412549677 0.11203488284041896 -0.19095565239882717
0.5515458538794746 0.21077653004775243 -0.05618394660974957
0.5509767917301929 0.21210700532063242 -0.0344342211731572
0.5174402416811006 0.12975701042827836 -0.09907754987015949
0.4845406321508108 0.21784647181785033 -0.009226766867641345
0.6190730943314406 0.19390459302501029 -0.11230751495794777
0.5700454618393849 0.21738557255127944 -0.04682477876869484
0.5290418962179047 0.1922824364215785 -0.09125810945695889
0.5072387597295744 0.10772078574490251 -0.12845984565241508
0.5162761767839186 0.19068710215142914 -0.06751051624488014
0.48821791129702774 0.12858555074456035 -0.08975405231217337
0.5791425740498539 -0.2030781652584892 -0.3323298323244188
0.5219270729277525 0.1803077071725454 -0.10630518935533928
0.5809052501974747 0.1447474084608018 -0.1907379159970759
0.5807906975477408 0.20366151164526514 -0.10543297748498048
0.5162817023592936 0.17123648040330863 -0.10035721609268933
0.49126409369947055 0.10699185148510537 -0.15358330891024252
0.5739491426728023 0.20526349305453095 -0.08640276791194879
0.49967536692307135 0.15742986584807284 -0.07201340889616858
0.4806710034895332 0.15630401160525764 -0.08153971584874853
0.418869955408411 0.15696707079894168 -0.09704247931168197
0.4549364310157671 0.11943496131169695 -0.1093979609845519
0.5375886515712125 0.17609292942992738 -0.10274450879859387
0.48248484937852254 0.12113610865517899 -0.15800643469199827
0.5229524108731312 0.1669806103552105 -0.14497671291373138
0.459858570760332 0.11936302385922204 -0.12221024340817621
0.5407316381101168 0.16257674786933762 -0.10795475894313711
0.5146011153898087 0.2486383258611511 -0.04741047203191329
0.48331025628681346 0.16945852739686984 -0.062390811254928735
0.5337397319464685 0.19361978744655062 -0.07401052322191504
0.6143167833567986 0.199519593983581 -0.1155581495208935
0.5963290496185039 -0.08945404202964369 -0.072539739435868
0.5384737680317926 0.13615618681367891 -0.13044898944922068
0.48393543104899095 0.09897557240580568 -0.10836996788077613
0.47532473355232696 0.158000098765541 -0.10295018423650504
0.5316840733725883 0.18137606735083978 -0.06331207602330835
0.4619246456931023 0.11320075864060186 -0.13778796860071907
0.46741620738208667 0.0882958842466337 -0.1165219504430155
0.5401085387456988 0.13618902499510455 -0.14592600953729118
0.613222832455449 0.2404529464984364 -0.07122335985431505
0.5086756178102121 0.10956888761538153 -0.015897210918865312
0.5169617646571965 0.14852838326730478 -0.1258308336597338
0.43624645312451094 0.1454982881353999 -0.052173307761592014
0.5416571436358879 0.16777024487515746 -0.10320757485251875
0.5877652747240347 0.20130027548495377 -0.11850715946837909
0.46328939932274693 0.22186527280511825 -0.052125122274773616
0.5187585883147108 0.16861677505957573 -0.10440387978405852
0.5380488121829501 0.14047667696532073 -0.0690286073240145
0.42590754592714575 0.11878811932822941 -0.07439589284871317
0.4643949562021419 0.09010563974726438 -0.13312311816144984
0.5719485571820826 0.09470773241849884 -0.32837225073227216
0.5274878315067042 0.220389142226594 -0.09336480685887238
0.6310164898728488 0.12040673338793795 -0.047943330716179844
0.5464709047708993 0.176229077491314 -0.10060075784593892
0.5663022586205386 0.22527384502515702 -0.0762361701390688
0.4689039595551492 0.24844619164890958 0.035762380779530645
0.23302053445513593 -0.22420292272948927 -0.24533709791127478
0.50649044373057 0.18936706189441566 -0.07614724166560904
0.48589341277235576 0.1443907286889896 -0.08610513938545239
0.5150501818440034 0.17451901899553945 -0.07365963197612757
0.5301285012232313 0.1115339035309546 -0.0841275955300489
0.5071282525473464 0.25568692051243147 -0.06727507476091432
0.534879731762345 0.2040179221342413 -0.06944255607116645
0.5887126063850587 0.218254803239887 -0.05741097188246158
0.5295849926140193 0.1713631249794645 -0.13200493723083184
0.589919095516052 0.22917080964799652 -0.07774781476392434
0.5275217598840527 0.1270012234818978 -0.18052399285419085
0.5003868680549317 0.1225129181588045 -0.11239561190021163
0.4008526053562491 0.14741755966096548 -0.019744834293604185
0.4614944223721409 0.14670954085278254 -0.09482176060622294
0.27115306629417546 0.19614880799434786 -0.1913129704769574
-1.0922496302880234 -0.18795437084391153 -1.1881621897512105
0.5284842756275054 0.10699025842903609 -0.13656569725334577
0.49410834946155546 0.2030602404270212 -0.05366021550676692
0.524014586923073 0.171266349999172 -0.048917120051882534
0.5072288287686035 0.12863774672231898 -0.16729542271700382
0.49653082666893056 0.2249281957747229 0.05642314718762975
0.42675927192308905 0.06819946718803749 -0.04564654730069151
0.4699070883739864 0.15757165142308338 -0.02784993085272447
0.5295679174179782 0.18793268408647634 -0.11108193640639286
0.534150707786381 0.1635614995598189 -0.13761448262232534
0.4069463107159095 0.1031510193384122 -0.0669313203426043
0.5327464221850846 0.18767199483363584 -0.10624063622911706
0.41098272868640606 0.11689465349533634 -0.07844600969272619
0.49204480658386274 0.3448126369284239 0.10681910751111445
0.47456161236604544 0.31468470815221394 1.957023400223079e-06
0.483212716005994 0.08910517072570201 -0.12554596964332632
0.5522974345234388 0.18691839480706562 -0.08037444101660185
0.48269917642448945 0.157412991858223 -0.13868689510771048
0.5221720333859139 0.2294960222498048 -0.12784036139404975
0.6178596519443431 0.15102443531264953 -0.1226949102020285
0.6000388928969187 0.2903896872229552 -0.006817188774860483
0.4823637590647252 0.17804778662980425 -0.07335786225576157
0.5276135037599943 0.2325069063133185 -0.020468415772270987
0.5930729904107466 0.16917276773287426 -0.12145224161031365
0.5747842591616745 0.2167788236722572 -0.11114000393833123
0.4600270053805957 0.1270116791944247 -0.11908861943445004
0.5397258479871141 0.27394776799977194 0.009586962580144132
0.5236325140005818 0.16099614079131186 -0.09897698951124312
0.5236359753857869 0.2687297301683884 -0.022220927424342563
0.5304143370261443 0.13398826940252206 -0.12010607744736035
0.6746547357194856 0.16654879730278083 -0.14089749393785667
0.5493159126192779 0.11535060541022801 -0.14763809703816833
0.48157439485783016 0.1564035108510211 -0.09827422958709064
0.5082272537261474 0.1437609764804222 -0.11378591343722633
0.4857721355107003 0.1283608489156336 -0.1296578600163656
0.47324143075806546 0.1658536662217216 -0.06773038494799266
0.38975625833384697 0.14881597613208442 -0.06900666282707846
0.5080127243937795 0.21627033126020478 -0.07459408362342401
0.5941923136447542 0.20866302289044825 -0.10510869845356297
0.4330728157709416 0.11764828477099343 -0.07882531084237598
0.43877447531014013 0.1306605161599066 -0.14351975653248417
0.5581268660361616 0.011559794590510819 -0.16584433844330704
0.3705508741634276 0.1584733917201646 -0.04035180327730359
0.47434180745781873 0.08974069182289668 0.013988285429903158
0.5174812264023387 0.1584149110067017 -0.0942286077286667
0.5076607907622588 0.12731810055478832 -0.13646567423141676
0.4797859671555784 0.18265395537378026 -0.046616244639196225
0.5942020597735223 0.23023250322654576 -0.14204189917870735
0.5459451835750428 0.17638391243002616 -0.09512819134403117
0.5891285663774681 0.2041941881748528 -0.24134375345563797
0.526724058481193 0.24466353123557383 -0.052413780380192065
0.5930144810813545 0.32471578499078646 -0.0692236647399227
0.4960918706512416 0.10163734676297054 -0.15706203589934375
0.5072301977220661 0.21625540534992638 -0.048199702365749886
0.5481256113778272 0.17126911644891152 -0.1479944775897195
0.5231744668143108 0.20051537693422006 -0.039124620552058786
0.49336810787355034 0.17035061788240569 -0.16323382679463805
0.5886618672971622 0.17785273611227126 -0.09942013805572003
0.4960971381218542 0.15341214176997653 -0.0918009838803755
0.4283504444148889 0.08816373107470099 -0.10493804116823924
0.5502766918381496 0.18526100903267206 -0.18625279617755552
0.5389373707777168 0.14995182773701288 -0.10289343640693005
0.5234544124745923 0.1482918383985634 -0.07797800331375981
0.5392650434546908 0.1788930805115001 -0.07476299639604633
0.4404233809185598 0.15867585668272 -0.12759872936807426
0.6091806323288722 0.2050870889129328 -0.08817043895930965
0.5164819373688374 0.16251027101898785 -0.12224630412761428
0.48836547236788874 0.09523516041670632 -0.11120082963397238
0.62120664965164 0.21852104849112663 -0.06897660475890177
0.5441382327818474 0.14093538314756415 -0.13571456146989647
0.5092027686457072 0.18617924427479693 0.0008076207735143726
0.47206074749723825 0.1224687285477728 -0.09477836028105457
0.29974340084254436 0.21692094203507395 -0.08329328776467548
0.45629014970569415 0.11725808716292363 -0.03330111698106464
0.34022186507729657 0.24656066045594116 -0.27574430804085637
0.4840656489845401 0.1499693904943058 -0.10509478732143407
0.5807258134440758 0.1830127804615529 -0.08793135716331335
0.592350289723214 0.1391099239804845 -0.04584607674860308
0.516011903316155 0.17974684063885604 -0.1015195101959705
0.4348818097539038 0.1589603902466763 -0.15204085380220533
0.5227909683516145 0.2248792815050109 -0.06108870548480638
0.5835611083335266 0.16208629066390756 -0.17038615668434431
0.15167444522893447 -1.419017723502634 0.11209301288354823
0.449492962578546 0.12765397682059643 -0.08475854351193846
0.5132409194092133 0.17032251123058018 -0.08894710450448429
0.5214681267868286 0.20277118752990475 -0.025036006666667276
0.6880235585963419 0.0012517826634592666 -0.15592072902384757
0.6459511242510985 0.21014902494644616 -0.16616820076311
0.4862290069052335 0.12181342023060893 -0.1202216477404221
0.5108191364559218 0.12790091475176268 -0.05193972777802003
0.5271063321991107 0.12765502900526826 -0.22003197063475
0.4682155550199809 0.12043194903699828 -0.09900257271716839
0.5125982408670211 0.2029749971322019 -0.034024036667062774
0.5014369862715284 0.18340372020212214 -0.07635963881797636
0.4848455277982566 0.2973370339746282 -0.7188039055264142
0.5109936840541991 0.2539445176280566 -0.07724698860977242
0.356593170169873 0.2704113190166595 -0.13166875267317835
0.37248298023058624 0.17284617287546666 -0.09329481952144647
0.48062296759746914 0.1943152237154493 0.0963230796492951
0.43274126518699063 0.18328444433171853 -0.053966713963475854
0.5118044356193252 0.17063227616185372 -0.08656341121219668
0.2827474415138056 0.30482983648403206 0.7920493403393749
0.3083697064546129 0.1705825745874563 0.05846265023396313
0.4327915822269972 0.16268052721724757 -0.06387559631568251
0.5290696726808619 0.14852582981208684 -0.09376637031765256
0.5181287158636962 0.1862925231912982 -0.11247330483163864
0.5113474924752666 0.18314086104278715 -0.1566439686969261
0.6086598834315851 0.17659319045759503 -0.15658556604608975
0.5371148436250053 0.20673755247688064 -0.03706464033182044
0.5346822731766281 0.25807388266892417 0.03246021127414167
0.49889330663438614 0.14756267917388755 -0.04623917357284313
0.6022054450983205 0.1767566766172166 -0.16862768244529036
0.5402775940653157 0.1602719000224937 -0.0792692600191458
0.543965129438277 0.1671824989465307 -0.12795552701219037
0.5743008994943182 0.19895311385479886 -0.06561813430080576
0.5306034962279682 0.20369024666479163 -0.030494648200374286
0.5221218654595532 0.222246351906648 -0.03603494193181689
0.5492302311469359 0.20472642550262776 -0.15549381594138367
0.5808908693628894 0.22828210365263146 -0.08030509632204996
0.5037780139359995 0.16917569810195232 -0.14829598825889434
0.5003739141930907 0.3108679118302007 0.014798941735946869
0.6117022697165453 0.12289173296755962 -0.14252598194077848
0.4918525458299996 0.15097516366247987 -0.10120846757372703
0.44757041038667467 0.16274217959360726 -0.001875329051671315
0.5258332932220924 0.15024561299372863 -0.07735821440529378
0.6446295396992525 0.1666070305994367 -0.10315931012111434
0.47338500956763596 0.16367027671303447 -0.05225079534176302
0.5401582266736114 0.1167710176722494 -0.17054177391715086
0.5474691203150144 0.206484584789564 -0.036023925419371494
0.5364422911405882 0.19053396577396597 -0.06375539908648875
0.5482420133224082 0.16373194925063217 -0.10651457864403824
0.4645691048052356 0.14658423032292944 -0.07001322690288703
0.5242165173195872 0.22845367711529718 -0.06099024266619324
0.5113283871646388 0.17684452970551945 -0.07328725071168662
0.5357996278186192 0.1966861673374467 -0.09937206282381794
0.49742380456495994 0.1501946410549806 -0.11759804932989937
0.48037216848831576 0.12906907304353865 -0.09676313462026087
0.48879833712635445 0.17461151591027146 -0.021580753514086837
0.48304828698240954 0.1743448712506961 -0.08903650827573983
0.5400998458975437 0.17972416062838192 -0.09750978665918808
0.5154407726697627 0.22337162390752496 -0.04882019504351831
0.468182527379156 0.1754309027413825 -0.0690453088215861
0.4929896275912711 0.19548534592462374 -0.07454331179648932
0.46618414259833685 0.16303984117877235 -0.09372458219840496
0.440075871565881 0.15104376413509613 -0.04761984274904307
0.5177434233387146 0.12387438284896746 -0.16266553775118098
0.5374276093020569 0.21051682687050288 -0.02359259919560941
0.38325969870172116 0.3947460132189349 0.10918500184304492
0.5073513960939806 0.1808887240064081 -0.0654173522767536
0.4569598319948227 0.12463731064116246 -0.11662661009437159
0.5947728559501684 0.2081125667541528 -0.14765105166533488
0.35770744498222484 0.10882596535651601 -0.04522301848922439
0.7109260564575379 0.21204344223643545 -0.04072180478496534
0.5999713825252968 0.17588666991004231 -0.16748971191461237
0.5186502251660556 0.22089508797623125 -0.020002703009694756
0.7405371994768473 0.11550881177271322 -0.01953620694692404
0.5864998125034333 0.2035228640052651 -0.10800612850798075
0.4190253024543722 0.14874572551315168 -0.08889647766750386
0.5294389433205424 0.22403506000439677 -0.057828424181181504
0.5182992362441325 0.11358425664840865 -0.20340536385099028
0.5284539345550741 0.15240292104977016 -0.16583279318983557
0.5758609135097572 0.22935755033816463 -0.040862748958574
0.3841200050690361 0.18309375627697477 -0.010765838170698316
0.44980498579604955 0.13418427753947526 -0.04968404040812402
0.633921464869502 0.2178596231902361 -0.10859439090842216
0.5570634106589978 0.2208027952616476 -0.06799160696458273
0.5476603953637778 0.19267323147769844 -0.08881621479955015
0.7320138342942357 0.18699623191142223 -0.16960505210427357
0.5228630812775918 0.16544249724566384 -0.09983869343034257
0.5296446100733192 0.1890959707380091 -0.08653487067940091
0.5151437445493912 0.11263505843498933 -0.12644018092908027
0.48306829743518165 0.15903765862003638 -0.09180885045317666
0.5328663743458435 0.18945091196263775 -0.07941901516363714
0.4515785368643037 0.18222327932963367 -0.06776045576542344
0.48509206715689857 0.14890871295634156 -0.01970489285537269
0.5256944829160375 0.17402327637944381 -0.07503921896805821
0.568923035352924 0.1923400615659574 -0.02902453832007268
0.5430316810666795 0.15703928232025532 -0.11654789441402613
0.629088764448511 0.23981733484220058 -0.11567721818943255
0.47064901984782637 0.1641321051393163 -0.07035772812143648
0.4852641131971893 0.15072513494436635 -0.09831017809219134
0.5664743627692701 0.13840759118542678 -0.1695372976715106
0.5503029409650253 0.18835924350449318 -0.06015559740355059
0.5189277424290424 0.09458580569997821 -0.13292001283230093
0.48967283656276095 0.12365095066670051 -0.12229156989651813
0.5265788424184166 0.21353560668022453 -0.0491235386679989
0.522651331879473 0.16962249532450357 -0.10724548424565228
0.4812685574156319 0.15559668523361836 -0.03949499328430761
0.5004991331629753 0.21904692265104586 -0.03886824310148995
0.516364373795227 0.18112910251352332 -0.08877200590164591
0.5688813638544161 0.12684623664839023 -0.12214484477655674
0.447212557942521 0.2120074135124952 -0.09059808796706648
0.49512820986365114 0.3522216798791078 -0.25363141191432703
0.5179078418566974 0.18478460884975334 -0.08029068433683051
0.6591116165769506 -0.8969338024405715 0.08116724319955892
0.45954007654972884 0.14018356364968554 -0.09922890989611233
0.5073726314985549 0.2182360749327188 -0.06906226197384058
0.5206340801974534 0.18092207858903464 -0.08696792949311316
0.5843085039023208 0.060982425133516927 -0.1273144927519354
0.5413736697279603 0.1782237497486392 -0.09516727452400175
0.5359098543102903 0.16447372411388983 -0.09173289311368649
0.5672033000456054 0.024206436160795874 -0.16237433789177658
0.5838180566372557 0.21318221800672177 -0.09078232759853222
0.6236774738231929 0.17920988560504725 -0.19098769392846293
0.5069657724578178 0.18171052262582066 -0.11902058991344688
0.5338578428882954 0.21314238426768384 -0.05043563751198121
0.4880051991777634 0.18421046025696342 -0.07458357751575306
0.5338613070528595 0.1801097501854656 -0.10340269583178952
0.3385880906551222 0.3025681205789965 0.2608677364124503
0.3565305679003359 0.07934695601505837 -0.06639884042704125
0.45859587894150877 -0.7905499084194503 0.07439899774129799
0.5280707086449183 0.21967909908377692 -0.08132827724573133
0.47933780626618727 0.17261740989600582 0.05178166689874786
0.4445617868184968 0.22089464738222375 -0.04681425097625436
0.45394781732076694 0.09956800249813114 -0.1580472052032036
1.0800950901965223 0.0039438711292660855 -0.46931795431410706
0.48406489755947746 0.16608367850072625 -0.07132416828197563
0.5241740970261048 0.18219598924198976 -0.08599609706105582
0.5195047474780381 0.23278444806351217 -0.09053596811413911
0.5569009068927357 0.16856396106814486 -0.09800273348412247
0.4290513253101551 0.16461709216284248 -0.05275402628629422
0.44063681738578 0.13360732365578087 0.008079075628913301
0.22428305832306705 0.1275250952562601 -0.1815567281607997
0.5949280813076996 0.19952928171343842 -0.10986206026473155
0.4616003316347417 0.17440029032718485 -0.0748125685272214
0.6093215820392288 0.19571141274116144 -0.050285484119655166
0.540729480747558 0.16324391885565603 -0.12885588733944076
0.5206204081856356 0.16369469136333237 -0.11678687576409175
0.47199346572054424 0.15286698511863506 -0.0961671280568055
0.5032036136466616 0.1921428804934351 -0.06820295536412857
0.5096601115974124 0.172068207330085 -0.09315013098618863
0.5790931141348494 0.1989324931738139 -0.13084367707008937
0.4573968729731064 0.15243683010150733 -0.0796683998692913
0.5488436988590877 0.15704616555797202 -0.10100045545266312
0.4364109177844284 0.18134749121975346 -0.030769701159329088
0.5174771345881766 0.17001000288382784 -0.07828719424010444
0.47017738156407063 0.17062598146691244 -0.06578590505674242
0.5209488776779096 0.12205336413626355 -0.113589778156026
0.5912085343771025 0.2489884983190933 -0.12807382668626133
0.5216416524109775 0.1811317465429454 -0.05765730727085838
0.5014802694132641 0.18709274454849378 -0.10856917113284226
0.543267065422242 0.2065466348925611 -0.059677522231766034
0.603118585104454 0.1474062673528067 -0.08746003438510286
0.5984336860038866 0.2303819653709951 -0.11913991280346181
0.5118284710347041 0.14923102025957746 -0.10264139500196734
0.5230868359720091 0.18460331117861983 -0.1001331349260397
0.5687049312177237 0.15474733025749288 -0.07451214471728917
0.5373325536499465 0.17678645484446065 -0.08184318605356111
0.6258059560600486 0.19870226408158942 -0.1252293541813998
0.5577737195937118 0.1791876877438625 -0.11337354895739793
0.47644926195422954 0.22160478394012273 -0.06300313404103974
0.5452148202947171 0.18460859614317826 -0.08236753298977817
0.5793838876577979 0.13636296761185918 -0.1836884122498077
0.44034055387584203 0.13477034960783385 -0.25780307980436135
0.48112250906555687 0.15062760196559566 -0.09436686386386839
0.570927194297866 0.15165281863308167 -0.08142338039506569
0.5215906041087806 0.16583632694423045 -0.12971468125731178
0.45415255784598685 0.12562873708705524 -0.06258866457510237
0.46105874676831604 0.1534687929114682 -0.04566576634955766
0.52941078396546 0.17387004443084209 -0.12064553058071681
0.5903478619748626 0.17675881862916754 -0.09817008811219807
0.5358937432252162 0.1654869053576533 -0.10547210515071015
0.5171658136202666 0.17742970085222964 -0.081159630026292
0.5518543495053052 0.1626524940582783 -0.07803486806724891
0.444453961444907 0.18291901630553298 -0.026752897912999174
0.5113598509851727 0.18545229398455376 -0.07333393587452974
0.4865649129772862 0.18505373146683723 -0.06009512543771223
0.5095671069322236 0.19877629003687503 -0.0613679237605993
0.48354318861177603 0.1062833013908886 -0.11553411708609929
0.5319357153818771 0.18961701021017063 -0.07830440137369976
0.5005786770568079 0.20361291855095942 -0.06528267206283545
0.39174081985510156 0.20379129303606192 0.04773673271260748
0.5170481457226401 0.18384431612710728 -0.10898778244477114
0.4456536741774926 0.1976240215029037 -0.08704176013340259
0.46591215422716914 0.17654972693875948 -0.08767361451637612
0.46915526435788024 0.15072301503165875 -0.06443061215459522
0.5666536805117346 0.14415704949171015 -0.14196190806787
0.519263308581003 0.14717295270725117 -0.11434669001857856
0.6910325272395994 0.3912012314722517 -0.202336301240706
0.513554834453231 0.12719269103584452 -0.16075211094945985
0.5412957109417391 0.16633604000469404 -0.1661539388804698
0.49342875791603547 0.2356757604474211 -0.02749489533913163
0.5672134698354228 0.1815080393333659 -0.028033224179282
0.5057064993285962 0.15796371443819623 -0.11189122575359534
0.5552601498660579 0.155553577282177 -0.12066831588637683
0.5125360816078341 0.16899064454975132 -0.04026692806093024
0.47049652806450126 0.16748445207517193 -0.08547531058708557
-0.059970659688559635 0.26447746590774557 -0.4568196647271634
0.5006120906223828 0.2661844917685414 -0.0054979770432055375
0.549468424207987 0.20872506938073343 0.007713368546944821
0.5364258080686 0.17205255111659312 -0.12488683885612772
0.44354244416075517 0.14122620807471264 -0.0641265704585976
0.44958069647009324 0.13317487584193088 -0.047785494349639634
0.46450959488137755 0.1586213143903592 -0.08727788797743585
0.5650799109671993 0.19565638790803064 -0.04992082988003688
0.4601365021194681 0.15881693589960832 -0.08172149523446137
0.5325498999874299 0.1943937879443638 -0.06335355832179346
0.46138317134466433 0.12967655872461137 -0.1283453952171527
0.5377002274491645 0.10652883543427549 -0.18320200516764373
0.535316110667992 0.1823098561469294 -0.08318319781000127
0.5176616185584919 0.19798838778140748 -0.06256961076525158
0.5443415698776448 0.16699136249161484 -0.1003750896073683
0.5262560552791342 0.10681340954712937 -0.1757747245314789
0.5947858598191829 0.15963429781496075 -0.14045892875432742
0.48318523798445767 0.21606451731872767 -0.03503406996523495
0.5427342302427576 0.10397023994110555 -0.07375569969069318
0.5354356253425863 0.13146554035242275 -0.061687037853900506
0.4379786341803822 0.12280484163713368 -0.08572128954553193
0.5900899296412092 0.2239557515426327 -0.08714756874316265
0.49257318738045797 0.19699816334122033 -0.051312780403137026
0.5216293852346325 0.20865820447002648 -0.0692694595563097
0.5985453984879427 0.21475073627502184 -0.05723204542880467
0.6229055082789614 0.18272124064264972 -0.07898832714852233
0.4999533586103553 0.1360529321211743 -0.1395190831465385
0.5803395338835173 0.18052488050916793 -0.07071918399881838
0.5220403003961565 0.29263227305193595 0.01166249939380748
0.5343971114661201 0.19143502817117053 -0.06671061318913019
0.551375572818614 0.18049446938985625 -0.10315422901895488
0.4581709286044884 0.14796657278168368 -0.029550862539736045
0.4504376076906169 0.2724826290750002 0.11438822961507356
0.5248453429769313 0.17620863234523654 -0.10890998982905842
0.512310607567855 0.12743394186219348 -0.10625192897936131
0.4118444977019351 0.1418404299680418 -0.13058038944909356
0.4437893118452507 0.20326603865689208 -0.07656590194079627
0.5551157712719998 0.16398934018999967 -0.1405420846617318
0.5187079432422763 0.1539743747958653 -0.07921420964409265
0.6268229278163062 0.2891535748594265 -0.2755781079211914
0.5129681881535362 0.1966631925299538 -0.07325099040743055
0.5504110617894185 0.18060348854456265 -0.09722899218827763
0.48916576908180787 0.15613659561836357 -0.09325692628605964
0.6120547861254977 0.2214921497423461 -0.140228591111196
0.519582313040786 0.26073310405325856 0.0002707172704106142
0.5036704789650628 0.1916549818734552 -0.1367978863531789
0.520929245787471 0.14682968899654725 -0.11499098180725298
0.49377228285732144 0.21571898985244786 -0.008000397505895762
0.5231048918951444 0.09147285205271771 -0.17405767583593956
0.5421972017460064 0.2164716494170591 -0.10986011934340922
0.4710959921847859 0.2329724371692805 0.024373058807654502
0.6099049752252768 0.1663460639695984 -0.08180326444586683
0.4761472849865527 0.15756208299305285 -0.22727956169289598
0.5264364579851701 0.180504009432795 -0.10062185790778244
0.512104307254873 0.15260681482996574 -0.12816907226492447
0.5228088083452747 0.16511676298591738 -0.09918739833133827
0.5059117628330512 0.20773377955438832 -0.048207500735102826
0.4941042522201542 0.16824357097880238 -0.05213542726173159
0.4964663614223923 0.22078348391534064 -0.0391502587001753
0.48502373164237156 0.19199073376731235 -0.037099136220149376
0.49515854655587077 0.15342262203238022 -0.10997934634983153
0.5545720120870783 0.2241211730891166 -0.056008333533412724
0.37891854998312624 0.1432476645635461 0.005744593122500419
0.4922813408197442 0.2002526875793933 0.05979444953864288
0.4591655538326336 0.14718830185832132 -0.0961603016958037
0.5854518897143635 0.22274740687953454 -0.10275557780003908
0.5563716887281203 0.17171010896693417 -0.09686588742124513
0.46399792519258654 0.17408426875704208 -0.028139735184012693
0.4314427774193632 0.2217255707216168 0.04987947611243726
0.5662598205266818 0.21356109672615275 -0.08409830709543087
0.48705731665137364 0.18928776510023226 -0.08735979406955607
0.47916666757816984 0.23809705014673455 0.051349828899091676
0.5499149316986234 0.21383628923041442 -0.06059716337507837
0.4964344138471404 0.1276571522918033 -0.11804053365474942
0.6275134528093531 0.15653017709777828 -0.5448101630613564
0.507371166472609 0.18121441920197867 -0.09008909840848389
0.4570469936269035 0.172386832928197 -0.16873227932937596
0.41239531980465927 0.12363925932879738 -0.054987650184926906
0.48440890054931174 0.10214514566906985 -0.0911736488887982
0.4989220714343787 0.16926330693650016 -0.10127886053049906
0.5656896234889928 0.12373635559555396 -0.15925974365673312
0.5007568290530173 0.1606514666365939 -0.06961035461597476
0.3843614044586161 0.18596179327201412 -0.10288550356435167
0.4284553900160688 0.17709360763194582 -0.035113503204371455
0.5990138673276988 0.20130221268735227 -0.0351292218487913
0.5142267101251718 0.13666502534385927 -0.09836860450779739
0.5837871517635733 0.21886144665121776 -0.07140898123392958
0.5237032405400157 0.16323310596440876 -0.08165984295638395
0.5585438448486002 0.24689578289758174 -0.057849654819847274
0.5533901104521703 0.15451248279691754 -0.1071255847059831
0.4045183031786621 0.14251172919887267 -0.09026514938909713
0.490652626053361 0.1328247230799917 -0.15544553849463227
0.5061295690141776 0.19501768332001745 -0.050765273038578584
0.5265980696027839 0.231287346676055 0.0004613455652702214
0.4039414734857303 0.24037990886279204 -0.004705343936478812
0.5015998199712044 0.09156434323530505 -0.1509546274283622
0.5277962164231553 0.15618090140493734 -0.0937959650066773
0.49412279802496073 0.13115525425919827 -0.03736316891604474
0.4245110706457922 0.1384584504056221 -0.11285283021796033
0.5043047177867948 -0.05492679196299832 -0.0763595805282904
0.5174298722554909 0.20247736607424827 -0.07354906533511496
0.47935851832306753 0.1283231926859827 -0.10198119755985147
0.48082188477218324 0.19579040068214226 -0.04701992904901431
0.5122591339829228 0.19374296543428216 -0.08470733602938196
0.5344062927933919 0.14769643595045068 -0.11928943602478626
0.603747417160605 0.14735220604816845 -0.16111598796520354
0.568898676278593 0.1908436246806673 -0.09026435907834696
0.539855983073636 0.15124850996866712 -0.08175512494739223
0.61714138708885 0.2069024503563952 -0.11819455223626107
0.5076633377796895 0.19239081630510668 -0.03586199801911505
0.5177466876925791 0.20798575439138745 -0.0818998576968255
0.5355359376055162 0.14814744645150313 -0.15112753486832275
0.5516504457123972 0.17804593441368866 -0.09960236169375491
0.5921691103334865 0.1566674047741543 -0.13648853699470465
0.5245832832630128 0.1403136446809441 -0.10225921056671439
0.49854717044237873 0.17187313887234268 -0.06612919282667917
0.5130261451774913 0.16268316732254107 -0.08303369601537725
0.5365956061898487 0.19644632137361384 -0.04603483676079634
0.5212155653699426 0.17214475161503628 -0.095524077501139
0.48122109745781927 0.12326327924601799 -0.11228810499289921
0.49077137041288665 0.15328069103252062 -0.08020487170514912
0.5135740607867376 0.13269017901497193 -0.1349014419025849
0.6239900298476471 0.166729011044481 -0.09351079941718865
0.49734424168894975 0.20780688360034105 -0.011390325416925862
0.5084933548370714 0.174371561357475 -0.0488895384072805
0.4574177718988892 0.16503822194148654 -0.019167107971725272
0.4703437252242395 0.140159066985305 -0.11895671094690385
0.3397092917271891 0.29668634844296093 0.060683080248495
0.492964284243925 0.20708934227819498 -0.0482723071718425
0.5430112746088867 0.22884654872802912 -0.16511749136356002
0.5193975800715123 0.19992817170771104 -0.07586549924748454
0.49833282570918414 0.19792586505676013 -0.07790646459895356
0.5563525434916698 0.19620754724149947 -0.13062160265009481
0.4469854917387863 0.15337676731886063 -0.13660116667951172
0.5470515020784603 0.23908692609919058 -0.12258378184142771
0.558880385971662 0.18697058470075945 -0.11977090789574163
0.5050452818522047 0.191800315656792 -0.06334068649748303
0.5255624511321173 0.12812132436712886 -0.09229330123072543
0.6183968779101008 0.2658362933077001 -0.06280756910366847
0.44462461922313423 0.15405110507617792 -0.08822633148048453
0.4832897076591678 0.17465040493681272 -0.08036058528682588
0.497711663626319 0.21775415261777198 -0.03417226882710622
0.5081968706058149 0.1851848697022831 -0.07445137568413429
0.5309920267335144 0.21248005995607855 -0.09946233523025683
0.49906078470689863 0.15872612170511502 -0.03264002367907892
0.5240436399781458 0.18027312258085715 -0.07414256250807227
0.4558629384383721 0.17374975695165062 -0.022676580133037305
0.44182466030986234 0.12544193447479302 -0.09834333438726617
0.49075042671515234 0.17936117009151076 -0.04039612463400033
0.5072200853856828 0.23374172450999708 0.002485498914339246
0.4481257012954245 0.23767702393733714 0.09254470515502078
0.5640553250245262 0.16228948467397686 -0.10093387822408317
0.49325468952818596 0.18116228375157561 -0.0906395260387427
0.5232037418673201 0.13967174889603484 -0.12453237326626265
0.6479873840203823 0.2263393131577942 -0.10664087268582989
0.4428943662268807 0.14481065063118592 -0.1497932977396772
0.5280619294896098 0.22450928222014 -0.061780438105998314
0.45243681251503176 0.13533702276930626 -0.149427912204942
0.5796114954075335 0.1529373532905538 0.011063600840358845
0.43007947915981504 0.1279766931103552 -0.10190146178923953
0.5222906243339196 0.18335930818136603 -0.05694178277120443
0.5975812339156334 0.23686307063684353 -0.08002449153804037
0.4953389560529047 0.10609388609188386 -0.11028268772035688
0.46028597349567235 0.08369636326557384 -0.012370179583143681
0.6948824558608919 -0.032043490344193515 0.2211093867490348
0.5336747827261661 0.19902873418742217 -0.10393610384547003
0.3140396186388159 0.15859227600731174 -0.31082765450781835
0.5033659312187808 0.06644713961000548 -0.14324179521889846
0.4801266080280584 0.1676683182634804 -0.03832126902128152
0.5082370666591771 0.2011536134472891 -0.0968970648837768
0.48919296572262283 0.1120875395810117 -0.05002886852084032
0.537432308975724 0.1815713115555866 -0.08760298795348831
0.5387486254289797 0.1849883548928517 -0.05820757410663191
0.49797315367104034 0.16959677692869946 -0.04774805090301015
0.4599154082900725 0.08503617725443746 -0.10082164106201219
0.5618032936105521 0.2078746436362735 -0.04513703321356388
0.5260553896749229 0.12644796439158767 -0.12002985954872258
0.4672653329467096 0.1442365477095109 -0.0401185647572504
0.5788361717894475 0.19761598682697468 -0.0784464083283467
0.5701934378024873 0.18112975304632073 -0.1239906086909599
0.46523340679007674 0.1575859012955334 -0.10831888306533699
0.5203261139623407 0.17669526244648637 -0.10585782280169553
0.5541838242776862 0.14926998798426894 -0.11938555300619669
0.49487025988116784 0.18932567690652036 0.08813197220763413
0.5294406118025279 0.17134469334379787 -0.07323790323468415
0.5577701862798108 0.176353981687555 -0.10977457766091447
0.5446325667070369 0.21013965997684636 -0.0670774891808179
1.0946353736680408 -1.2747054394217514 0.2815598391312051
0.5568653042464575 0.15890205920982226 -0.1160044753936944
0.5430110382767452 0.169451558816192 -0.10224491074158948
0.5159201183844004 0.1834044514238542 -0.0942465893560751
0.5357227346629259 0.1867557649465823 -0.07309116970201046
0.49166164911790133 0.0968578319908886 -0.10857080610767866
0.5895228454507162 0.19631265153550714 -0.12328223836586005
0.5197654234861773 0.17762554810433073 -0.09691115037850295
0.475504117176655 0.1630676267907205 -0.09805282676155969
0.5133110592581147 0.10926894236607154 -0.08307738509810747
0.6703785187786195 0.16408084245469468 -0.13510902827478333
0.5953513821931722 0.10365987144788846 -0.19102496674288716
0.5218374412587821 0.12809916599914573 -0.14618628430470437
0.6190404263741698 0.14523187355898415 -0.28958594889094513
0.5547381964983913 0.1409994098725349 -0.12909242104993268
0.5696983885374038 0.2111248282581073 -0.13774088153279251
9.559143299599214 -4.9879086556518075 9.183297796432157
0.4974125259409732 0.13531999704676423 -0.06554760652828406
0.5564889216719848 0.18316837915480733 -0.11330516352411735
0.48707441405287 0.12824579000340464 -0.13782620714559357
0.4538927972196518 0.1183213171694888 -0.12275655140219044
0.5512496433287026 0.17641362556510387 -0.09915171659392286
0.4451387678641652 0.13828351222723256 -0.09297821811276208
0.5873805936146255 0.1959459940847239 -0.1097675072729345
