# .PCD v0.7 - Point Cloud Data file format
VERSION .7
FIELDS x y z
SIZE 4 4 4 
TYPE F F F 
COUNT 1 1 1 
WIDTH 802
HEIGHT 1 
VIEWPOINT 0 0 0 1 0 0 0 
POINTS 802
DATA ascii 
0.3941448510828707 0.13333650817013165 -0.01409043691326417
0.4874245539030255 0.14946677788029206 0.057328373188084925
0.5206460376502378 0.17540172869667003 -0.08299202819614493
0.4711006806247724 0.17418038305314099 -0.024352272263058694
0.5280126640387834 0.1226405273479827 -0.10743957675047966
0.5615585303319506 0.1572967296123693 -0.07297239369316344
0.5371673342544341 0.16172371219036563 -0.1044691919044709
0.504259473839312 0.17923692703735128 -0.10189296966147765
0.5172662586534216 0.16398575215023925 -0.07591618791296639
0.5006130170181393 0.1729914773713972 -0.06446776935663934
0.46808340754031974 0.09258861052609291 -0.14265102160882748
0.4386006728388736 0.19114130024951237 -0.0015922547183038205
0.5733607009879336 0.17354035022967196 -0.12269973829612013
0.5452526503189006 0.15590788611308426 -0.05591452999576063
0.5617373358372788 0.19288317449476722 -0.09214302852815592
0.41085237199587255 0.12303787197325278 -0.10783774550523617
0.539443228307988 0.15135085598120668 -0.10628554336236107
0.4670583884634141 0.10296721368951012 -0.19114466292977284
0.5325439141477375 0.1671201310748529 -0.02447371377208185
0.5545894325030645 0.16016102993265235 -0.12838979085145752
0.4595247166772367 0.15141899278489745 -0.05858167776756318
0.5159716275116466 0.22366921840300336 -0.0031203824950409853
0.5780610816571539 0.19381693273504652 -0.09804511312491115
0.46394745907448964 0.1460505337630451 -0.11040836084617922
0.509010779182006 0.18070742827586628 -0.07565784127885422
0.48788592217380256 0.13086208263221977 -0.0938362136487143
0.44646198147651717 0.20411065877431156 -0.018090729519300908
0.4845720142519383 0.17400051212312917 -0.10454857871526713
0.5976391932563558 0.08222499022016905 -0.22430066483494215
0.5018557254769291 0.15376596825126398 -0.1397804799415212
0.5116307844844812 0.2511720795031067 -0.0683371150450256
0.5527915637644298 0.1704950109677128 -0.07143313743918611
0.4975957679382077 0.2206712602581149 -0.10093405550807688
0.8527383234581407 0.48304907373444905 0.12041826796807698
0.5616363372667763 0.09436843137741846 -0.2099176417433739
0.48881136464612496 0.1516604515676363 -0.07160702703961874
0.5041018368171422 0.12616451470910306 -0.1330773278516375
0.47319349783913367 0.21910507922603983 -0.10750843522306752
0.5616492994865325 0.15943655029644788 -0.07974919376914613
0.3687877217863331 0.08025038835270948 0.09559147125368384
0.542067666906263 0.12392046268388412 -0.10931096849529354
0.5212329141874079 0.09733895039315144 -0.14614852554812785
0.5696396281456089 0.15626061794290536 -0.09677159589240603
0.4738357353790832 0.26997916880037565 -0.020186734389298522
0.5397900728354728 0.20115872286422132 -0.07350129545400819
0.5160098939233251 0.1572569823781862 -0.09598551433170144
0.5505297797967899 0.14366250169807415 -0.1281482304669055
0.5338044983255372 0.16073034534912267 -0.10557009985137711
0.5167743788028645 0.15663986948311504 -0.08621002226789187
0.52843102818494 0.19471885669332778 -0.06012418001137121
0.40090764478597407 0.05545703705459459 -0.19240817450132397
0.5192635625727178 0.14186441977977893 -0.09371750922227307
0.48490237274469905 0.22532398524000996 -0.04821693471235733
0.5336121716093203 0.1506743259984944 -0.1483605859350945
0.458235569580836 0.159578258749832 -0.0116581184757365
0.44022661477390557 0.12792214299444993 -0.12589129907544816
0.7173490199022581 0.4065641789528627 -0.01562065652628064
0.5539396951857043 0.1826686351409279 -0.06555069079168163
0.5728747181572373 0.15436636559363137 -0.11885797491717653
0.51418645248188 0.16541575990203228 -0.06360445227880973
0.5243874138862168 0.1877354489591596 -0.06392078457444939
0.5642439187837454 0.17947975325301968 -0.10659225331055211
0.5052825339312221 0.14625411257064513 -0.09120804482073197
0.5015873249209903 0.17230173410891325 -0.0738040669860851
0.5370951622743974 0.16199261609202154 -0.17437945968219992
0.5135535025669355 0.16771908825616322 -0.08923245562648674
0.5441541044109215 0.23162784087645605 -0.007291681717063625
0.49352583867090516 0.1856811917825496 -0.03609768640873767
0.5286565272402868 0.13298829919133937 -0.06624567331414255
0.4536564514693282 0.1435029316495786 -0.07968845516251122
0.5280262929698267 0.17967650033375548 -0.09474372086043559
0.5978163193709065 0.10420323799490916 -0.1629946437890908
0.5095256788772247 0.18153195761223628 -0.021077661588321916
0.5584435872936524 0.181977473402668 -0.07565973010356686
0.5057500799132413 0.18825515352483535 -0.014595437579941972
0.49929896697776144 0.1863747497857844 -0.06489838959717531
0.5339629125529086 0.2585445380101561 -0.07082524884725672
0.5173828890735308 0.20461661755973637 -0.013907244101687866
0.4912423991079322 0.1433184272155188 -0.1669971721448178
0.48561434517290536 0.09295467372601252 -0.2096574865165053
0.45675685980404523 0.15495392411256148 -0.08384265035492433
0.5903274772598479 0.19574092642770324 -0.07053209783862258
0.4842556510921838 0.23012245522448893 -0.0025118726630495303
0.5203009801961969 0.17951075396570104 -0.09902825715089136
0.523390189366296 0.1602550028498655 -0.10439165059432298
0.4852727342559717 0.11362031448913967 -0.1402369173230511
0.5511272987980931 0.24392838282182083 -0.03070271548686776
0.5098763003861677 0.18168218903832667 -0.10123166022364671
0.5549667589629053 0.20903483323724004 -0.10736590431073978
0.5214885178082227 0.08800899877992663 -0.0728264156698657
0.29150031206552285 0.06618288375418047 -0.09981791946707119
0.5172998954037666 0.11451167257567363 -0.1717097038445985
0.47899126328022135 0.13248011883453614 -0.09978476391597724
0.5373708774269232 0.16182054719078565 -0.13192529164255973
0.522875586776081 0.15074128550267574 -0.15756832917709573
0.5414067420348374 0.17224257214994054 -0.09383416505902176
0.5841115143391846 0.2392566429761871 -0.006893003728634994
0.5467600862244524 0.1508276756733835 -0.10188582072889574
0.5702114195272543 0.20217945692112949 -0.12228215313714941
0.42172272612282313 0.15500406233320518 -0.13118218403336357
0.1971726056480918 -0.06671859734208851 -0.356279154823099
0.5217651076916923 0.14438354527601405 -0.09725196849271356
0.52765492593619 0.20807814456635754 -0.05310617144307628
0.6104320849585747 0.16977860425012636 -0.14849317152780372
0.5352918117397962 0.1397187236271975 -0.13976545924327866
0.5073985068355853 0.19209696958782274 -0.08046547752380206
0.5227266198218672 0.18494308827678196 -0.010338129932918605
0.6017838038943353 0.21627458219703044 -0.11354905433320539
0.5858009772568948 0.20229667189025236 -0.17131861892168843
0.5613879186388147 0.14725124053347827 -0.08773479453897437
0.5153278972589419 0.15871591146117225 -0.09643075629419684
0.524437987034645 0.2153144243689269 -0.10542361920936116
0.5660317321574269 0.2188117071843294 -0.09571005848513892
0.5017555051902605 0.1633088367305362 -0.08029315045004637
0.5735955572355067 0.21280091645201082 -0.11555879190808582
0.48554773071870727 0.1849894399290406 -0.06510545970853343
0.44822104091704773 0.3236157744282764 0.02552153426985626
0.5840585759432599 0.1376479740351897 -0.1861247972359621
0.6459672138840915 0.12851923668961263 -0.19160634777115604
0.49510258510517247 0.1779121909970769 -0.09791231042221682
0.5194020296029009 0.15593414776043346 -0.11725554703355101
0.5541915234980195 0.12894148010332174 -0.1592404453019327
0.5867925318967764 0.16620487960611285 -0.11464268593461213
0.449850110055138 0.14506270734170812 -0.03519532469414344
0.5159600330331671 0.14903586639933053 -0.14778667555961533
0.5868557722594119 0.2155127548313942 -0.09307376068908013
0.44768413276341334 0.24500568422405422 0.09911665159566496
0.5845134834750354 0.21448581443746662 -0.10471454191328178
0.565485957787871 0.20181262442767434 -0.08566563559311646
0.5139617798039353 0.16253905255484824 -0.09285683530410438
0.4874459197243368 0.11416693780140008 -0.1316419607837105
0.5421721336347787 0.2101510317046973 -0.08984203959306569
0.5565572915838857 0.14599297761880337 -0.13855174070617693
0.5341891384151722 0.14909734245166817 -0.11043017656292875
0.43099902381877087 0.17713883986637313 0.022668669963152865
0.5479290244196307 0.258041525033434 -0.05408518935270479
0.5102187837233885 0.1803293535748196 -0.07204031398255495
0.5236211670640216 0.13681088301490263 -0.14306186205089944
0.4969919579473867 0.1643355303010594 -0.09253697919355375
0.6103754831580659 0.16619081408674674 -0.13515854471643252
0.5872215959217613 0.17456096020629275 -0.1416805687616005
0.5082501676301092 0.1797319640975843 -0.04603370664442252
0.45824941849392076 0.16599189017480853 -0.03649359563630128
0.53547823612044 0.1559212922995954 -0.12447034785461142
0.5968773212863141 0.2062517033239999 -0.08181366566739712
0.6071755913759489 0.17215470357254503 -0.13935226247319576
0.5446225383771264 0.11333721169023647 -0.13399874385666521
0.49031020400465763 0.16008512961997212 -0.08488973876389139
0.49199871061634326 0.13489973395873278 -0.15543053188154943
0.5554784554780099 0.2803028669547416 -0.028009838398844522
0.5046953018257909 0.222961317248334 -0.1156398247998709
0.4831537667684813 0.16777011653411478 -0.06903348865415637
0.5804985018679645 0.20504620368831183 -0.11673788539881969
0.5243778044780072 0.1253283679406394 -0.1353737386811531
0.5152886383018824 0.19666801134732737 -0.09202849925499379
0.7265681975267171 -0.012828584700102397 -0.16205788782792752
0.5127317844850836 0.19616406660745156 -0.04751273703587344
1.0972332295741012 -0.36090425557216577 0.2374638253116501
0.4788113116298405 0.05117696651478809 -0.174602749645544
0.4710226873146439 0.17930399471353553 -0.029725052339372837
0.5578485021567872 0.13735568950718857 -0.1389062210378853
0.5596942579221036 0.15674757431833086 -0.12808616852154842
0.5401134165668964 0.2276367379151054 -0.08231864281810886
0.49807474443775845 0.19236354407354384 -0.046066645711334786
0.4985189118618507 0.1785650605339555 -0.06922575518620988
0.5320252059543407 0.22324286752092348 -0.05149405976574428
0.5507765015892403 0.24502249906058182 -0.06693221342007405
0.5104959392806734 0.16929578823368274 -0.0865714465534495
0.5960903556631081 0.1925534749682356 -0.19838210952538304
0.5376462152208887 0.08808528388001946 -0.195666373542295
0.4864588690622327 0.15289705529825426 -0.05791402923091482
0.4771311242606089 0.1774184545591595 -0.05803979358530853
0.5349734443695695 0.3261791851853957 0.008821758140726388
0.5478346953213418 0.22864408311929196 -0.07856084261437957
0.48482374594775024 0.14552207835129138 -0.1375250429781545
0.4929452524843043 0.2004075718873679 -0.039760960031273385
0.5348789053655025 0.13821104853826682 -0.22856677034111783
0.6201950963331058 0.1508267901481588 -0.1774731110637049
0.47997897981491633 0.2107690952729797 -0.02291218707816256
0.4989677919597568 0.22094339189803236 -0.04170311804062976
0.5535533201705789 0.09544955582788361 -0.17360520521935996
0.5841549781923447 0.1344084632091409 -0.14978033197917284
0.5455914948167333 0.17383970881908795 -0.13298061670379013
0.4891220469475286 0.15880229632159626 -0.0991164951700938
0.5659199619798869 0.1243898847543079 -0.09744588399671272
0.5530195642248543 0.17163299005429167 -0.08713744793064393
0.6051476259284811 0.15404676796458716 -0.1346435718594421
0.30690199446340216 -0.06911740835518287 -0.39868210500148393
0.5028110240305352 0.1708875769376732 -0.13379031928238305
0.3844586271806918 0.21897363512502466 0.019299701359415167
0.446656278268847 0.19937506228592383 -0.02487307286996554
0.06436081700306318 0.44322614323290566 -0.17035908368788455
0.5581862801460602 0.17096188593538386 -0.12890368922745665
0.5896097796458264 0.18607543405241245 -0.14260052808261037
0.5200843348300168 0.1247787999197385 -0.1423926449994326
0.536737995789764 0.09258161064371961 -0.1756390911891259
0.6627137179503961 0.1956556123332973 -0.11012565466633362
0.5507919474609366 0.1569006662908663 -0.06325267702908377
0.5177110604501536 0.152761080713276 -0.0958483419830003
0.5251063642465681 0.19896538989675605 0.04147281178408946
0.48023389109647496 0.17449530045439587 -0.04224227821588045
0.5446426186078952 0.14626121130960712 -0.20790341546899072
0.5644638271760698 0.21543836756781332 -0.09931103224498372
0.527226313874678 0.15405228923070524 -0.1582546755885943
0.5546179581662045 0.2982635573058019 -0.11147729733194467
0.4769541668884756 0.10124084954361479 -0.0103802661579806
0.5425737110475382 0.23315907472377262 -0.0321150584296106
0.47753010410735897 0.14742555368161447 -0.09979712325421985
0.5838632286921097 0.24644412455407405 -0.07238285518599241
0.6460445912261719 0.22345588837109176 -0.19682357789562843
0.5090055205894259 0.19463259563002566 -0.04925281262886472
0.506166126239151 0.16608035516847508 -0.10663101686938603
0.4652153791897149 0.13180752666195872 -0.04607784684549188
0.5897726313366434 0.1322967599742242 -0.1205951061316739
0.5135020254741107 0.1321045539398824 -0.17699994264596342
0.5096166734728627 0.1659547885569168 -0.09808702599367791
0.49467739391693044 0.11982879684042302 -0.1898770765382949
0.46604541333530847 0.1565044479194455 -0.011836203357319164
0.5673720842023329 0.21147330858408964 -0.0697233301421818
0.6472582830398892 0.04551921779558654 -0.25024963657334354
0.6000264059927929 0.1672937651178188 -0.1121360179644455
0.6180344392058714 0.2174106169456138 -0.18216875829611467
0.5341706268650057 0.19377517600740646 -0.09733096928023599
0.6269554958126662 0.2654134812785429 -0.07859834911943153
0.5195909125425544 0.1468203446066525 -0.1394712974391723
0.49045230142604623 0.14204963764703393 -0.055519366031248296
0.5116609090780173 0.1643928468246827 -0.1015502384037319
0.5584884479381458 0.2207502085159092 0.07525559055420672
0.5252547701765309 0.16551745297957154 -0.06868932853885212
0.5105736845239619 0.19161377429728077 -0.06748270994275174
0.5157478536721385 0.1635181400698258 -0.10459076595680017
0.48088552511038074 0.16923436592502128 -0.06890235487901464
0.5200565105596411 0.24635059773802936 -0.006511324739491897
0.46852613425954814 0.1899824951226492 -0.060091718772156355
0.5333270827938179 0.2640575846849629 -0.030362514129436136
0.49682483404410505 0.06350976234790551 -0.20308027576041354
0.5021292658349523 0.17211290490413944 -0.0861046336644904
0.6177627103014629 0.180461061847339 -0.1799191667220299
0.5345092514850194 0.1646952629275802 -0.026713441741023303
0.5213704247724706 0.17675822861818347 -0.10933053736678744
0.5311632286956467 0.16934813286344763 -0.1119360020452973
0.5365571619539367 0.17826957304072266 -0.10950593426142063
0.5362839646354871 0.17776063327754343 -0.10310417207620048
0.9260914145022809 0.4224494485313812 -0.6140953495364698
0.5135208428871749 0.16637921158425684 -0.09720564161766276
0.5168027965170552 0.17064848809883415 -0.1090731347682663
0.6538655150488921 0.13967150685877527 -0.1013548075615347
0.5165205063449037 0.1175880527716231 -0.15499008364143663
0.22453093688844206 0.17397857563331343 0.11835249152646554
0.5568650130955177 0.16694128152872167 -0.1422984980014803
0.5317708432738186 0.21472857772840825 -0.019048805603148367
0.5303277221491385 0.10622525123011428 -0.09967880119133099
0.520640698083298 0.19953901896968773 -0.053612981322132214
0.42951067427992484 0.12809324021407065 -0.09819070202212288
0.5321705257447604 0.17307555229507443 -0.09316585501839825
0.48447525540348124 0.1542255666234098 -0.10335686817340672
0.5831999432426187 0.1610535710088783 -0.11840652382994676
0.5533204803341505 0.20429926679071286 -0.0710747386551418
0.4710235944361898 0.12944302789597373 -0.12470271734670746
0.5074990981165399 0.16922299904693716 -0.10305239308347325
0.7810178523611455 0.4463755693633118 -0.02035668100285193
0.444447137676633 0.11794361440924206 -0.043568971633817455
0.5021635620751681 0.173609433322099 -0.1645845325467974
0.42867000100699215 0.1831648290410044 -0.09517311287351049
0.5460052082432583 0.1345867464288233 -0.17054445187683598
0.464834803342967 0.0782975031013109 -0.16386692525145463
0.5447913965561213 0.08217273619374055 -0.1881084741988701
0.5673291576630959 0.20057968916523805 -0.0929343440757151
0.6313679807027768 0.1782438159046933 -0.011094059096180331
0.5303543159942308 0.20998626839215717 -0.11333250873850886
0.5668690897002477 0.17586911859699228 -0.10705437079005264
0.3979229752366962 0.1789372810059433 0.005129916156946024
0.5222095402168065 0.1300463362505866 -0.12082147613813277
0.5423407122016499 0.16170935147167143 -0.12044448276220976
0.4521357791672358 0.15141052423467727 -0.05671008317405324
0.5286372101283234 0.23674263451536603 -0.04784534397870743
0.5253749134898555 0.2273215954370471 -0.06339445750998607
0.46655870103376174 0.08224504687350986 -0.13490750435629195
0.5239179882389635 0.1559031030598561 -0.10862025066930414
0.5117603543392306 0.15150694999815073 -0.10682958536231979
0.5074092232156602 0.16186895889414643 -0.09055082901900846
0.5234349586487497 0.1919174850794576 -0.07899271340617986
0.6753987105686861 0.3261098833982601 0.027179247975197995
0.5483952231355431 0.16180091920574569 -0.04590404621194466
0.5395950878316569 0.19608291021594937 -0.0774059877844735
0.5595181499932949 0.1885334846572846 -0.15338312385524944
0.4962094271931221 0.16921387040247282 -0.04702911448951852
0.6408981103046187 0.265956307002682 -0.05918029981981476
0.49945390120205957 0.1387460430936045 -0.11315963567408005
0.5036284103676678 0.15187897757333246 -0.0900599322877298
0.45472082294443794 0.16370156592900287 -0.08630065021877442
0.49452991700616167 0.17989979258838673 -0.08377056612241063
0.5383753678675305 0.18444274833041163 -0.1433631391235224
0.546973403036958 0.19519548062095282 -0.0940561677812326
0.6024353799365372 0.17726318801885554 -0.1465906892992308
0.4615344206181078 0.14757390920861724 -0.037072147999722915
0.5527575375340348 0.12166384342714309 -0.08740119451167061
0.6787135322528286 0.16081631484786385 -0.1702382523571231
0.3869462019303853 0.27420254985557335 -0.02982369774667859
0.5143137208357302 0.17138670646909304 -0.115649859062259
0.5175043667554462 0.12175534548006794 -0.1649977556756852
0.5626824656404494 0.16124989550067426 -0.13727802780211107
0.4264297107560253 0.11622311813081865 -0.08528379934907093
0.49680179407064884 0.15778733408815526 -0.1081851349459555
0.5332521646070632 0.1391544090900254 -0.14970724552216552
0.5390577696451828 0.1853868527118152 -0.08858030436267939
0.4639751248223547 0.07875742736646885 -0.22580181989525272
0.5352157352907341 0.1503773455413011 -0.11470917837664274
0.5184156715086772 0.15343749910886118 -0.0820325660746164
0.49399847096978533 0.15652228391988388 -0.07532587400073965
0.49425065843098537 0.13437695271659322 -0.049912944456892205
0.5084550363616529 0.2218088971422958 -0.05428846240137375
0.4961977097324848 0.18129996914649382 -0.07566434177532244
0.49150289931995417 0.16800059985385474 -0.1000899603756551
0.5685407569951053 0.19829862181281044 -0.0798674137138562
0.5504694370814889 0.0837468498446583 -0.16630051061113704
0.4112723352835701 0.09285752540544934 -0.12125029772758467
0.6103741587639036 0.17564760329292994 -0.13305931550385708
0.5204127124235924 0.1698256122940478 -0.09748498636601255
0.519232183119982 0.1284076719384757 -0.152646057484489
0.5145833386349636 0.10602570810007705 -0.1469716888953343
0.46645069685649787 0.2400113298601525 -0.01349356365881249
0.4745342341411458 0.03682572518083305 -0.1641080044346097
0.511104851415439 0.16300723124227545 -0.09082509558201934
0.5446211248118686 0.26712590445983153 -0.0491399063377429
0.6329886860224576 0.20605894187721674 -0.08263294325574577
0.5307847316582013 0.17690257470999882 -0.060109781453832056
0.4916103685017106 0.15050351333216838 -0.06387084594626913
0.4755725523242518 0.1676995461291142 -0.19168794534635936
0.4575932542992689 0.20048021931265225 0.007146417989631004
0.4172778983486296 0.14272381996367756 -0.047382042202855246
0.33871329027948605 0.3840208206127045 -0.3680024610621331
0.4959222377045194 0.13905503815007592 -0.12169005755433204
0.42196919609858696 0.18843219450511128 -0.06582550243723517
0.5354575851329173 0.1402881991379985 -0.11161330160636851
0.5437456644356473 0.22264265960419038 -0.04239299994215173
0.47374321872101177 0.13385693613061278 -0.09275733870553893
0.5935838810091809 0.19644777980494155 -0.10115959287278997
0.5264569477895122 0.19107542565683389 -0.11047508642239734
0.5009277208989431 0.1618490929174925 -0.09782405373155711
0.11547599567248312 0.2183415846836425 0.43599243907814866
0.5917822368269299 0.2229661782821779 -0.16631185418435734
0.5405515730160744 0.19953914260297267 -0.07711182149314766
0.658520435593573 0.2244915705276469 -0.029363572439805807
0.535983700022399 0.1737956759706094 -0.10447701923982322
0.5147935201405005 0.1538204365656668 -0.10198172215993395
0.50311350084894 0.1994149692372389 -0.10330058854827939
0.583952238916055 0.19313858965145414 -0.083313587504378
0.5091691532007587 0.1617099252937635 -0.12120734436167879
0.5427740104435088 0.2148318847507653 -0.11334603623805606
0.4817125740066217 0.15066612222761933 -0.12137833256771557
0.4690002980019301 0.1271304288817987 -0.14010383862820674
0.6364630963882973 0.1262082617487863 -0.06529664743052876
0.552431630186959 0.17145858040245798 -0.08816794577181497
0.4639393722584657 0.2233822136088861 -0.02565090889791577
0.5208230630906314 0.14833844308211042 -0.13787938258724353
0.6038429748661827 0.03634781551784272 -0.16753443406098256
0.5401580050210555 0.16673558516035314 -0.061698713345990086
0.462447529945905 0.09173416047013916 -0.16844206358520353
0.5149525282187426 0.09001162003670515 -0.1961561714955451
0.48207519735649385 0.08534406995227073 -0.1758495406775893
0.5247369700662716 0.17279892976293354 -0.09211970576481576
0.5473193917364938 0.22421868190491523 -0.0016240026252347661
0.47934243383812714 0.17124976132390657 -0.08401518752110348
0.5740074970044873 0.20018613977430277 0.009342648779366414
0.4479789303469772 0.17259619073576005 0.052658142727466384
0.5630077296486604 0.2436994638766805 -0.05151416490159022
0.47905033439010936 0.1535525806767737 -0.08078818111263786
0.5266592676337609 0.18590655889209984 -0.10800315218051537
0.49087308113175254 0.2147891563619595 0.01700926843545858
0.5078575713657756 0.17255899305027356 -0.10055022745815734
0.5059585582384329 0.20727619571789546 -0.00379211766757237
0.44282803573997853 0.13578963105349828 -0.1085694694154995
0.5102386363414269 0.19857444013914005 -0.05528264034556685
0.5755708032490077 0.1281623715499336 -0.18900397317364082
0.4848502477441059 0.14956075198790586 -0.10572351342331388
0.4930359934966475 0.14894378603636937 -0.10202585442834788
0.5029739917683287 0.14974844166476942 -0.10135664374629982
0.5638979787846381 0.1316219432150234 -0.18154731813991987
0.5639255403812626 0.25878147481054725 0.017711713546376018
0.5334328716388939 0.17266868856253836 -0.08951375426906338
0.5077951507890077 0.15840094092951063 -0.08288619271020536
0.5135579144787812 0.17977894232907943 -0.14385524444921316
0.4882655892282628 0.16468333391186718 -0.1498538641072713
0.4195098781008255 0.1829175164010053 0.022162787142292473
0.6072611908893464 0.11506928499713354 -0.19314456434815952
0.5429688515265525 0.16023892252783867 -0.08307912430883846
0.5047643561622976 0.16263353917841528 -0.08994869236663305
0.5436605567942081 0.1895450072005076 -0.12476857887381243
0.5323981538136309 0.16856403180011625 -0.006247562875131507
0.509778168040981 0.17484198086428648 -0.08261141833358465
0.4408134281895002 0.21734445540072045 -0.044220163821236724
0.504117965369403 0.15196197522033117 -0.08602826096030469
0.4963292033214657 0.13975383699175836 -0.11850655224228035
0.4850941730734917 0.13782706252226262 -0.08254064057652499
0.5832059468453394 0.1628673827918874 -0.11310678517526185
0.4920318470672669 0.22260381378343652 0.020758225055459434
0.5318407605514324 0.18856852173769312 -0.11644722763692528
0.4354772075672315 0.1533889527618726 -0.10327299592181305
0.5136978146690581 0.18135495636721544 -0.08527209418205928
0.6166449310469204 0.10627561257534524 -0.12358042651467827
0.49494342952573334 0.12560312186022315 -0.1658098277468838
0.4692109798389481 0.16074462076373663 -0.030304787549823686
0.5158936718649159 0.1558790795082814 -0.11523548763929625
0.4926270571445741 0.16724545094533028 -0.09345016397888628
0.541244188062052 0.20652450345752982 -0.04059672950242543
0.5289554438855646 0.26068467731553824 -0.015095008941742094
0.5322840221481613 0.15623129931960023 -0.09650780645351631
0.5837557939581473 0.1268220307412662 -0.1310761721371705
0.5414532749781529 0.09138283571904537 -0.14978048257711407
0.5592424663900033 0.23770937235291 -0.07027293720244643
0.5772990151762087 0.18754696173650132 -0.1027708175052311
0.49902000019662296 0.143054144962818 -0.11672510420267201
0.532444986587393 0.16817571922149455 -0.061011260604288964
0.553546279332096 0.1568002450576671 -0.10909700878708861
0.5322459811547162 0.1684502750844672 -0.09985773824679711
0.4933711437452075 0.16179505315633946 -0.14676459233727712
0.515480597675861 0.182118643872613 -0.007967864442022687
0.5209321973465251 0.1766392798578238 -0.10804047163401265
0.6269715612376388 0.246699242699691 0.04772216459173251
0.5730660316358751 0.2088587889649034 -0.07919196235627624
0.4995305948878581 0.22673666598996078 0.01618316572981371
0.5516025690770334 0.15745298354619308 -0.18647537067651854
0.46165175587191243 0.14763304169440516 -0.044910960373599096
0.4560054084261367 0.14314259134903295 -0.1019160895861404
0.5751232152140915 0.1338171098823011 -0.16356949916111319
0.4492461734487847 0.13695140406991868 -0.076334741828461
0.6537062589292759 0.1786978374144894 -0.09220694205947666
0.6064412038712987 0.30272150366975836 -0.002944944189394505
0.47641220998232825 0.15773031429102957 -0.10799184155833075
0.5252729588281966 0.1539358503120809 -0.08249447006620869
0.4800166346477397 0.08568053963017519 -0.20827043099571085
0.540954492446474 0.18579797577103818 -0.07159549603098014
0.5248211380250609 0.1992147522562675 -0.09934713397379369
0.5523726532202033 0.14283066423149648 -0.07202801977622642
0.49373092874293434 0.12712084159784354 -0.09369982880330952
0.43641297167593507 0.1356314556146856 -0.12061084847935888
0.4962574074016288 0.1655762189967902 -0.0698276153427031
0.5404702617287 0.1729139043652026 -0.10931538352174641
0.544666104927586 0.18329407808077747 -0.11958169020013543
0.45954593271932254 0.1804183157839816 -0.07195409559352584
0.4969568388654295 0.15989801779423374 -0.11300998348072255
0.49948131049640665 0.1184497039592145 -0.11851360897075836
0.5557373334584952 0.2219965301078588 -0.10812965399904328
0.3874818418811401 -0.18360599393844268 -0.7470404031492137
0.5162335595438776 0.13393213098245838 -0.15109050902267995
0.5364022919724505 0.18990486961081388 -0.13552484083410832
0.5090043504027619 0.20738125976137667 -0.05464532966854563
0.5294684864344958 0.2030678328376183 -0.12957585499178492
0.486089904171763 0.038201493384860896 -0.1868308671307659
0.609386902108696 0.2303633625134296 -0.10846840149781656
0.5121112543436936 0.15662253897727396 -0.11141440693977245
0.5258370772691308 0.08502384971401966 -0.1828885615847753
0.5908526833175927 0.04142429725655461 0.008702583321905877
0.3356647912404753 0.17862692947076653 0.054381304306772904
0.503703025758341 0.15804500988572556 -0.07835588936796967
0.5338451204132184 0.25952039024144824 0.0102450596584589
0.3471096468247765 0.1185418621449088 -0.011858261098950607
0.4191479549168946 0.14436472678181644 -0.0482944102082854
0.4767194019481451 0.17100123477422358 -0.06632185319595862
0.4863984971587456 0.1299643889331037 -0.08394842625550325
0.5305079375247033 0.16296346910367276 -0.10620220281833781
0.5085410004974449 0.1543659754832447 -0.14753063718981707
0.5373857453969606 0.25191107759013676 -0.11451739978670616
0.43841064268670493 0.19102956203067833 -0.0763661719818316
0.5624934643278721 0.14954068868428294 -0.03901503345265667
0.5864609178470062 0.19678618478738485 -0.12081295127404701
0.5286359263280644 0.15867806471152335 -0.08903224674426724
0.5354540530393024 0.2068188668910409 -0.044548061119513704
0.5604398460462789 0.2151569346174398 -0.10722832662493431
0.5244382122587012 0.1418026162955215 -0.1360755546800192
0.4732042218011543 0.1531013376757926 -0.0680688231517621
0.5280450859887083 0.13039470168968137 -0.11397571286629216
0.5371580996330465 0.16407191993982906 -0.09330404162477635
0.5242590272457335 0.09704701188852027 -0.16289004392552897
0.42812938259925204 0.24720855536105546 -0.27823089049728367
0.5595491407174507 0.127195723146869 -0.10345102728044253
0.5551648242577869 0.1776142462343131 -0.04576770849715217
0.4956124162618778 0.16618817365231564 -0.05075573670141864
0.5158351752486112 0.15670248964761413 -0.0831095600727565
0.5491495899137817 0.1822954872797311 -0.06138577781017318
0.5326598240345675 0.1691602921861488 -0.09950719480563919
0.4879579123517601 0.14453784466127217 -0.09524467628523325
0.5326730560865656 0.17765327404700315 -0.0797166298198988
0.675295256042574 0.21673402686444376 -0.04449381270110564
0.478314781828459 0.12471882641199272 -0.08641878746298914
0.5440322116582479 0.15704550788083793 -0.11185838679962501
0.4679028295497858 0.15283937357756372 -0.024093158454888908
0.49737111376839493 0.25388039228003834 -0.05797086904787818
0.5372721012907391 0.12361934695177013 -0.10793017637352875
0.5406986151131434 0.1152731527951687 -0.10212384024858068
0.512440263013076 0.2545560836733216 -0.1488063762347025
0.5214114831943846 0.22394341187577993 -0.05775439521035253
0.4995469627107525 0.1671754230363547 -0.08822720303756171
0.5291919406562897 0.18408437157476953 -0.13185851418779748
0.5520361743110413 0.17104046218409508 -0.12156926771598364
0.4873678135389241 0.12370690335140466 -0.0805705731843176
0.4581672098349827 0.15037660947331233 -0.055404821524987824
0.4343697517471128 0.1427156544798862 -0.07119473761618167
0.5378135377943067 0.12890164280109673 -0.11508515787886608
0.4365169846887227 0.11465599124730375 -0.05587583693078102
0.4758890975438135 0.1232275175953248 -0.23425890755318335
0.528986859045375 0.1639637597956778 -0.10599660602392191
0.6193443556342118 0.2258578471116266 -0.09965969928066443
0.5179627821136421 0.1864426285082459 -0.08071821143256841
0.5422904052128388 0.16976550838322169 -0.08905616816382178
0.5333611822796058 0.17246749787520343 -0.10739548350237271
0.4634083052443998 0.15376984613365607 -0.04876201283447301
0.5772248807685969 0.23481854244255373 -0.0745961839496232
0.41087292778195206 0.144479437458358 -0.021031770836671626
0.5306591650397081 0.2862425487794553 -0.05085262257928491
0.5118798852256532 0.17476886102309663 -0.0824049098070958
0.5074417101630502 0.1788189697253415 -0.08620674633935721
0.49827893117782196 0.16580980048678384 -0.08381701540889708
0.5390444152155851 0.26485051822170647 -0.13824038562006535
0.561668240510869 0.26572125751209796 -0.06423779953814801
0.5299528201647377 0.19667478084346612 -0.0440342766435009
0.5582852193995507 0.18314682774510516 -0.10437519678445994
0.5194889247943308 0.12953860161979946 -0.077634764459944
0.50089673963069 0.18053943983991871 -0.04284148333277926
0.3797845531255746 0.26910943745588156 0.0162224448287418
0.5040357538615865 0.16496789978648962 -0.0873442183090134
0.5317041338066133 0.14130346772394375 -0.10820645145327035
0.47301053143141303 0.15075041049772153 -0.057821997202438524
0.5045446030752601 0.19055245666233134 -0.044982025842543294
0.5427266325445999 0.15426998669451564 -0.168899021198456
0.5196141512368229 0.12557267274969774 -0.07244604596677107
0.6021124456454743 0.20050316355704467 -0.06175076816738567
0.5243534794438176 0.16142910047378223 -0.1222385363751215
0.4722316576132073 0.18534696703318332 -0.02719424380019575
0.6237009641291991 0.10340802313652375 -0.38895168603430363
0.5967123367953207 0.1967849844462819 -0.14897052033472846
0.5205368778868831 0.18242963927522737 -0.06497881657446669
0.4647354418596876 0.1546806054371217 -0.08664724902047283
0.5424838761368278 0.2304408824959978 -0.08492449971821259
0.5667598387052522 0.14055647566331686 -0.187150618070973
0.5977135976736747 0.1611076054251015 -0.13561522630439526
0.5547388016429124 0.2612934943890082 -0.03220218390072205
0.5252850933723039 0.15760283561166943 -0.09725333847444517
0.4278043556790294 0.10785738956511182 -0.15859807979256857
0.5158632040848943 0.16874704959576547 -0.048117737746622424
0.07402809985805447 0.1723008854604302 -0.10606587612576845
0.5159894867131811 0.18180588413494547 -0.2216333266162991
0.5931186575842844 0.15986176040730982 -0.14277448713119156
0.29005787046875753 0.4104019027325876 -0.05726067107838162
0.6831281055595753 0.15200431736366227 -0.16931601441795863
0.5306512216256749 0.13743746317615546 -0.11273862171083238
0.5972002600432234 0.19868598437523133 -0.13954046587505786
0.5581773764702405 0.08268498535531421 -0.13086967687358708
0.5307911951838378 0.2391827836558349 -0.0325064178539094
0.48163056637088175 0.30125372517034066 0.13357072924742397
0.5039139762118623 0.2515575530228773 -0.009171630812900844
0.5712839743596589 0.18059053802933533 -0.13038283055786337
0.41149197765679446 -0.08970188274038549 -0.729643346446764
0.5076264996806117 0.16394131210557816 -0.03277814259226375
0.5255821378164001 0.159497566987028 -0.0998218006494227
0.48045276973769546 0.18210782156620553 -0.0536450281868639
0.5377174139170222 0.1255994910742828 -0.10823452320485671
0.6580897595997612 0.12332338126036291 0.43306655461523746
0.5378531239701658 0.18913691277779776 -0.07496096746780267
0.5291180680517584 0.175316596554552 -0.08329387282726941
0.5375008740986118 0.15880371076706012 -0.06623522083383193
0.5380076223897277 0.19280902828216995 -0.06118879650779263
0.6197546154461122 0.09493398326958413 -0.18830762849677285
0.5184079104949433 0.15859475928617428 -0.07533311892225925
0.5402516349199402 0.1853529435703365 -0.09361283997424152
0.4692305867890809 0.15194366130256753 -0.1605073855472483
0.4595467130274926 0.14055807940064824 -0.09156098219362718
0.5476896991577576 0.11231759601741942 -0.14865252505454407
0.5376589670925398 0.19368592792392292 -0.0765507482623633
0.5346045427030788 0.17665169572603645 -0.10542498583890847
0.5230501751368593 0.13614407595977696 0.15528643042321733
0.5233882675043731 0.1692600028366371 -0.09168188857032078
0.5320907196814915 0.17094910633323934 -0.06858598115933034
0.4767114385372224 0.11496757602446905 -0.021634471852706838
0.863709920441778 0.14661556123728303 0.07759360060919107
0.529635033491985 0.18557307511198928 -0.12269554248261727
0.4679076347119917 0.13999386650195333 -0.12395606101650003
0.47664694731662394 0.10220510943361205 -0.09538215654170301
0.531420813702141 0.19235561524007494 -0.09225186040788458
0.49034341487725897 0.13337779006752726 -0.02088808029114375
0.5642451012119238 0.19315326949865153 -0.08991023352676564
0.5433665244612769 0.18605348874766037 -0.09565847105382375
0.5134287889368636 0.13705183830754208 -0.1380740223731749
0.5075244469949496 0.2096271476108882 -0.20999718620747387
0.5764241327005664 0.18845825151869633 -0.10508874002422885
0.5145377650810019 0.10571188863839609 -0.10389386035879511
0.5328489349922734 0.16024596340855624 -0.11422651947502516
0.5000827952705151 0.18331369998256264 -0.23696892440443662
0.5655596235960161 0.21879872181824567 -0.09191468316436158
0.6300070323715659 0.15644962410826224 -0.18461186004898877
0.5368925480557891 0.2401135716982452 -0.056332920912979034
0.5232527817201458 0.17026409523376174 -0.10102204277177407
0.45924627178621336 0.15539073909710055 -0.11338270175251353
0.5261134616438596 0.14825345564689485 -0.08581329969047147
0.5543807070371258 0.23016379837986278 -0.012440182114914933
0.41580255277420974 0.09551612777427465 -0.13601380477385305
0.5473296844355104 0.20013633391619123 -0.04482075353408277
0.647167704952551 0.22076302249894297 -0.13934655197367363
0.5168517143897589 0.13930779325335152 -0.12768540180890398
0.527895226946697 0.1682044886194518 -0.027184649868218003
0.5797797408057477 0.18216086424544642 -0.11929518286936514
0.47965291314832825 0.12751308825494334 -0.11032481406861905
0.5999925218796989 0.2152822973591242 -0.13659144245164612
0.5191602737831715 0.17442437916140818 -0.09536678274099586
0.5202717361927967 0.1790373671880161 -0.08873719770474509
0.7169681787014497 0.15722849583150378 -0.21036823670601734
0.5413595209592472 0.17817712620453108 -0.17192986576340274
0.4800829174137675 0.16097461581745165 -0.06427493073911705
0.549996644447134 0.1564806056355934 -0.04739175847447541
0.4503077563007025 0.21236539332987547 -0.04880419245509415
0.5085631030674165 0.1301446300491591 -0.1588526193749118
0.578226861343694 0.17233077307616895 -0.08424366397902361
0.48497590141764135 0.19557101616912576 -0.022656099957615083
0.5241433436314082 0.15153327623360724 -0.10912046239310769
0.8090739334828925 0.2492808465263323 -0.24352182099727315
0.5568346197854339 0.1275231175276872 -0.22035098449684654
0.5198901140098258 0.1608210529667815 -0.10623915861937405
0.5125604467075959 0.17191886345338503 -0.013147942118891365
0.5476510110664776 0.22237159017902286 -0.0383926768573275
0.47826495298667737 0.21391297473367388 -0.11511062962016183
0.47142764457370845 0.14589001768104026 -0.0817791679408515
0.5568487552471879 0.18718831833962213 -0.10521513065661736
0.4672201584565414 0.19302374661968713 0.037512582304216835
0.4538300285547052 0.1336881200848694 -0.07434668653837662
0.6109229167315959 0.16233176614349532 -0.07761588908688566
0.5490583215264451 0.12935486828865805 -0.17721407771875874
0.47847910962067886 0.11492812289645826 -0.15751440145673712
0.5467288617211352 0.2646141164503888 -0.058906315151546096
0.4849018494790869 0.12722518092445512 -0.11983043883383004
0.540945758067437 0.10923215947032361 -0.16216178474643073
0.4917741602201886 0.0997222945896965 -0.08332475197150302
0.5221335271003511 0.1487455701045235 -0.09506273409219546
0.5203438959582343 0.09604699029245012 -0.14949766967771438
0.5409512531194878 0.19830317633939387 -0.0210891044849717
0.605753081105405 0.10137660385919389 -0.1917739661458171
1.4794490007136005 -2.6181767114873082 2.703925622797769
0.49206468070022424 0.19751829417204192 -0.07332344060507978
0.49918172659792504 0.10080862435319204 -0.20232138430351654
0.5439845519775588 0.17324135223906012 -0.12123478070594729
0.6030654261660402 0.22641617333187014 -0.07928052033622635
0.46876445780637255 0.1646986633528229 -0.1908118006611943
0.5310264609721003 0.21114287504617835 -0.09433886770234778
0.4475376093084549 0.07733752659784443 -0.15996316790004528
0.5270695461710488 0.17880245285633123 -0.1129451373617627
0.5832488608820654 0.2027457990637913 -0.11193044392675233
0.5603610586597654 0.24117322573236777 -0.041424008427611625
0.5237239602123793 0.163798382195111 -0.11201731296294781
0.5316084217332957 0.16922074558175382 -0.06176071318651566
0.514018519011529 0.22004299007400618 -0.0654779936625971
0.6307286577473121 0.19665988354040564 -0.13242012334018227
0.4399951099447037 0.14905770623636272 -0.08931316718789617
0.6178268477651159 0.15102137286476136 -0.20158657613443154
0.5652520424256693 0.21971630686056187 -0.08192221006531497
0.6365147599614716 0.18779695155056686 -0.09547251724526973
0.5369826030697595 0.18520609417306844 -0.015484720420047893
0.5022045945762272 0.18324652961555898 -0.07827652596823498
0.579753911018031 0.18452805991125842 -0.1365949662056778
0.6110542139983579 0.1440283893170431 -0.1823722571648716
0.5416518011876121 0.16559249941778376 -0.11701875145666918
1.5752234123203834 -0.5818985652428239 -1.4828065463900657
0.6624811491885509 0.19245855042437654 -0.14469228822932223
0.4652019086906023 0.14691015251855788 -0.04266922146341301
0.5232866138262295 0.16314684941059454 -0.16158997868075176
0.5035192376723217 0.17885336234201077 -0.0884527228082419
0.4825520578880287 0.18678749281703233 -0.07260156211030733
0.55040176417819 0.16452785941660864 -0.09486812044245596
0.5347205802102906 0.18641848983212128 -0.13031825990820778
0.5212687140517289 0.13010558911993542 -0.024885523025631073
0.5821602557813605 0.21520167780516886 -0.16535198339246904
0.5336864711959777 0.16173049494403813 -0.09922753698644726
0.495096515974609 0.1666098977590167 -0.07614550093298078
0.6005393591262305 0.181125315467213 -0.20090523636372382
0.6008726616115325 0.16020083843314126 -0.16132325973788397
0.5078494970871361 0.17270389876532022 -0.08143041352865055
0.511411654245336 0.06679264349298819 -0.1776807260392559
0.5263479579398904 0.18120967206803584 -0.08120810308282955
0.5177075920838092 0.23521174393428623 0.006154441038589198
0.5080377245024579 0.16927940978055744 -0.06749837785308443
0.4439295285959304 0.11505921159337618 -0.08295257014603408
0.5471663234459925 0.18902691889636003 -0.024267271181997785
0.5310806103074128 0.22248152297630952 -0.03915854006484665
0.5097747525282443 0.16606416199408613 -0.12769622533349434
0.34070798647377387 0.2700479690066686 -0.2145424931583051
0.5229476984364965 0.24050706937273958 0.05477350278233928
0.5834491047139068 0.1856203661033078 -0.13598727870690652
0.5462951539493872 0.17241160124920896 -0.10227328731417629
0.5489592648228836 0.2312677820972766 -0.030340676789819554
0.586818905723618 0.2552683681675063 -0.08227836863866855
0.5182351803669292 0.17968272492066717 -0.06470663891217043
0.578684179792134 0.18236896429466753 -0.0984735793710172
0.6428245640762213 0.25288271498205006 -0.021236389923416255
0.4612548353901502 0.13431641321614052 -0.0681968017299397
0.5192900741302253 0.17161285552619177 -0.09035887024261058
0.5237575256349771 0.15401436569828775 -0.11506765911610728
0.49866854446784714 0.07169322700846692 -0.12431563692040015
0.5087218673516531 0.19366134797689938 -0.08941621249651632
0.5555958991180034 0.19424138646425604 -0.09893575472707994
0.5349887672155944 0.10288409981603763 -0.1612379616965427
0.5086635400648731 0.19359191800214148 -0.08169891967278886
0.5165168324118099 0.1408128346763533 -0.13189494583390626
0.5024349468491778 0.08912278092068959 -0.28551196757202035
0.511093263885499 0.18292141389079575 -0.06826709158595179
0.41206792851164664 0.17166635748013448 -0.03218767533266487
0.5193796073645558 0.14650665867162616 -0.12464817524929117
0.5628808543319508 0.2356478387842884 -0.045726840084242326
0.549587890777218 0.14919108489826272 -0.11291315562064597
0.49647332635871066 0.15414621450463528 -0.08842387779090188
0.4700863188671178 0.1573106294374611 -0.10564966051205715
0.5136214537177466 0.09227827227113039 -0.08570924998171847
0.3222705657973961 0.10008647936756176 -0.2629817187651895
0.5336020899089249 0.1615955726297642 -0.09914484853035788
0.5294207892914926 0.17982023461067342 -0.15695236722005745
0.5148137791723855 0.206124956978897 -0.06590954677353977
0.582179226249707 0.23416986144999896 -0.06204679165932703
0.5168006065592294 0.20240389945517734 -0.07438322225053184
0.48709587617898364 0.07074740709057892 -0.15792821009711133
0.5052252387808664 0.226345218366788 -0.03633853543495036
0.5343909758855432 0.11404010510419482 -0.06855602324695553
0.5350878896851441 0.21414632582741433 -0.04516261028464896
0.5368056699907129 0.16618336564772562 -0.11962481448664164
0.5475659668700814 0.14620953055842278 -0.21512360206709502
0.520812736944805 0.14978986260180704 -0.10536574292527234
0.4886115332229224 0.17156342838140404 -0.05804289894965109
0.4991248267657795 0.15592887120570254 -0.07874821580162461
0.4965885682576925 0.08002323192324923 -0.18629306437735238
0.5107733306027455 0.11751654392134014 -0.1404205437726347
0.438421993104555 0.14508587267515338 -0.06386518860698231
0.5249393230566852 0.14366969103187444 -0.1322581214098335
0.41868668145650645 0.21295281870177973 0.03112308911187256
0.5286709042288749 0.14855628402075638 -0.0871070184920626
0.5062189202478748 0.1678054580653594 -0.1243361390877169
0.5433341318908447 0.2592362878999097 -0.028003620104470883
0.47978431004847266 0.12580785410570172 -0.11973103253426132
0.5082053591414706 0.205788053668158 -0.1011103075816493
0.49462811103111903 0.12482582042343893 -0.15996788637781378
0.619867635242457 0.2230854663247186 -0.12252702337887911
0.48415216673240025 0.154649159678101 -0.05968570597718781
0.48308238372021606 0.1753840391938013 -0.05272018228295394
0.4251375269663811 0.14253256413516624 -0.06386714059635779
0.5190243379222466 0.13455148282147888 -0.16067237449233573
0.5659532913112741 0.1682740789689774 -0.19192124434488278
0.5954048611586984 0.22383676738724034 -0.16857870173549827
0.4683604694299959 0.19867863532442698 -0.007375336002311883
0.40937563613863404 0.19733686942245754 -0.07640568888126609
0.5166746784919098 0.23929641791715994 -0.02402880763155224
0.49848767765840307 0.18762737389440076 -0.055589210471964634
0.5146232658925953 0.16058239595867008 -0.08660545494882399
0.5234695586719909 0.1779908837880555 -0.06325025694238207
0.5737066182781234 0.16999616575282062 -0.11613630895479332
0.45741414571509154 0.12718136132042446 -0.11975203682054314
0.5571270015224457 0.18608794541236762 -0.11122611888822576
0.4193312449874895 0.14710653413254704 0.012087852195563187
0.4947297847755294 0.16774917904217546 -0.010058675042046161
0.5526398045998633 0.17612427901076444 -0.10070016266854509
0.5361861273700868 0.17977811984124514 -0.09559897194957045
0.585892905872754 0.24032149143964432 -0.12853083733433834
0.45244108349791645 0.2137301666929261 -0.033936970577698844
0.49468312169872775 0.1619575017902548 -0.08665585437879031
0.45401818057692367 0.14040069903478525 -0.04697998995715125
0.4775886516973742 0.17443418208210915 -0.046598128688657425
0.4979295665043537 0.1821495418333825 -0.06765401797751736
0.44507900365047703 0.14314170974787999 -0.09068130587446888
0.49008823233120324 0.1945085517248515 -0.039783645355910835
0.46214270505728905 0.15635781680782657 -0.09069195176472533
0.5205125881799972 0.16376119871281958 -0.08684778025687478
0.44354554304217686 0.13023803657804933 -0.048733646190541435
0.45929082576225255 0.10937865959526505 -0.143532988590664
0.5658043835894659 0.14596919746192327 -0.14681630746382268
0.48239601465735404 0.1747702834356204 -0.0664396467263515
0.40158711622086685 0.12485127611745384 -0.07098195840116261
0.5155740486965499 0.1786913263535297 -0.08779265121386004
0.6131562674679287 0.24253649324290905 -0.06917672718057588
0.5228000478482784 0.17136781145813984 -0.09345909153721266
0.5216991029934093 0.18328223231917207 -0.07722579282713582
0.4970077810190219 0.14633458512551556 -0.07971685087008495
0.5419226495147882 0.09688037158909424 -0.1777482406856734
0.44461854067554896 0.16816475116871743 -0.011264526884005477
0.5306784187957305 0.2351632123385201 -0.03276153589926878
0.5497413405204554 0.126292156246393 -0.08404117511091158
0.5319810795491264 0.19491469146583995 -0.0434133806680137
0.5443509364560839 0.1626026405680534 -0.11251851032558591
0.541871114156578 0.14502504936396576 -0.12953999271066152
0.4745947410061717 0.16761761880238168 -0.18455568676748157
0.4553783185730822 0.2800063774004542 -0.1497395164424944
0.578218933016359 0.16717806049706496 -0.21562586179490495
0.5283827617506347 0.21154213564329893 -0.04370588932420105
0.5259937383577267 0.20381994671679138 -0.07838112943032627
0.5842693089193745 0.11505225378823525 -0.11753182648638472
0.4924868815479613 0.13767581422311537 -0.06440049109785662
0.3804272152974306 0.1703786094073223 -0.07026803848773966
0.5190046682695311 0.23513854199927664 -0.13980363543002738
0.5204137753440818 0.15455103665118486 -0.0930013966566321
0.6143161830579515 0.2101428883093206 -0.08728719984712541
0.4657606677392039 0.1661559337735241 -0.04646702039710249
0.5183520049978085 0.13054791455363102 -0.16321516835971295
0.5265639005061757 0.18716252913520748 -0.059561297389478796
0.5852935595637803 0.16235283710551585 -0.1590977455326481
0.5199815714690033 0.1734029247886042 -0.09043997617030186
0.4938785025492507 0.22991296729742317 -0.04286475930346967
0.5914858191502788 0.11152084673952345 -0.21285981184580294
0.49788147578334474 0.15129629847459114 -0.06836038816000212
