# .PCD v0.7 - Point Cloud Data file format
VERSION .7
FIELDS x y z
SIZE 4 4 4 
TYPE F F F 
COUNT 1 1 1 
WIDTH 800
HEIGHT 1 
VIEWPOINT 0 0 0 1 0 0 0 
POINTS 800
DATA ascii 
0.5624789278372191 0.17743395315338262 -0.09325145479105856
0.5180366632458089 0.14368633714272505 -0.12515441340370614
0.4621250004222759 0.19182707406980626 -0.046037788046731976
0.533650997615382 0.1335108660533848 -0.14194952632138325
0.5432145458162978 0.18159324376992458 -0.07961717304436888
0.5055057493082273 0.0059561613859102636 -0.21734033370262296
0.5141565483873336 0.14752313747868584 -0.10948765850812947
0.6139727465764651 0.198315744439455 -0.11301620166835846
0.541346816095853 0.1372971128538154 -0.13129045093623404
0.5194081230809218 0.16103619423367377 -0.10835176131168112
0.6277556625150851 0.24124359553583474 -0.12542727680354915
0.5351806140086381 0.15304796203326987 -0.11255408205155959
0.5565322279011298 0.1619905798456216 -0.21551235104088562
0.5070095445313427 0.15034657974881327 -0.10880799728261081
0.6031226193578334 0.18086922722186216 -0.06175388293273443
0.5120864553867932 0.18616994547419097 -0.04931904818234045
0.5178788467131881 0.17596019209317149 -0.07175977902001307
0.5321520013171153 0.1565327051293508 -0.07041271533455529
0.5364352566493835 0.23053386834965295 -0.027797511187813484
0.42804154856716536 0.07063732201329742 -0.2624769549552184
0.5509830353602183 -0.018358384709955544 -0.10394504509240221
0.5647500443036222 0.18079074267062367 -0.14350909829529712
0.541471041261957 -0.12520467801616064 -0.16140155534253608
0.5334654030064456 0.18124824979020104 -0.11212487526117343
0.5586313768758799 0.19878849945547472 -0.011023190706765718
0.5161447117549187 0.18991229490467276 -0.10832251961167572
0.5419585268044216 0.1920486345662482 -0.079768944251839
0.5012190581255709 0.1848379700131204 -0.07008597976496844
0.41700427898236114 0.2957558875598494 -0.05133926380504761
0.492172668520098 0.21472302062866788 -0.014565443182675608
0.5339894076244747 0.16813917053843852 -0.09074691558544146
0.4678257326608133 0.1337972172643589 -0.07700090369120005
0.5361740886036728 0.18699815143585852 -0.05715954684413305
0.5071251635617813 0.18860699420308435 -0.05369264454803613
0.49108154058730236 0.20263378498580664 -0.011606690281837473
0.5580602343797807 0.1841758022099782 -0.10926507378184169
0.4971760919255672 0.128173484702927 -0.10787442791816204
0.5209167858281774 0.1997807622123986 -0.04465314051601865
0.4612597275996251 0.07646290448894888 -0.22032928529549167
0.5271269442851718 0.15878894324048076 -0.06470146531259502
0.5361761603651161 0.1545536797188447 -0.1017975696955915
0.4441762185485487 0.09122352892573815 -0.09706443170847479
0.5356405468029379 0.0947312858662741 -0.19883834575497872
0.537641607805611 0.2017754850241147 -0.11313779533546153
0.5455842047376791 0.16321131852556903 -0.05708074414685882
0.545619722559934 0.19590281694429734 -0.09936841584011802
0.5568395671681827 0.21251417258093852 -0.07954247615556653
0.49431183874123974 0.13860034816961786 -0.13397746610768024
0.5273968992752316 0.19589951022156527 -0.07915767717292965
0.5109876972722844 0.170389685927546 -0.05842330636112081
0.5002982227132264 0.13266577980404293 -0.09827376781765906
0.5082912658566272 0.15072300977927 -0.1445402993373932
0.5092733412262191 0.13343821099300612 -0.12739106410103318
0.5489301833351163 0.20630694206573708 -0.02690299704164545
0.5046856061871665 0.09838809118988934 -0.21445502305036257
0.5569329186731977 0.22006912281921132 -0.10307274173342762
0.40821971803696044 0.10405603189475698 -0.15035399105272518
0.5077540765198165 0.13477026430827266 -0.1343120777882234
0.5700367960649402 0.21575876002891903 -0.035840869777644
0.5148819113927914 0.1761097115764727 -0.1027546621912876
0.5907893728297466 0.17542154786241326 -0.11263771787960764
0.5540423764120561 0.19754852703304948 -0.1316669925673608
0.46254396358493466 0.15244123151613564 -0.05444540939036813
0.5055078728559579 0.1731250996164988 -0.06581957010571671
0.47081389182022804 0.16370410148621772 -0.06065903099329262
0.5043982283523576 0.20700050406462367 -0.018417277751851202
0.520760764054728 0.1328503959728664 -0.009840935483481417
0.5745972142523499 0.1818763806348045 -0.07477845466314648
0.5707796308335418 0.18851622460185524 -0.07591184498397752
0.515942936750065 0.16323421646279712 -0.0708636601010113
0.5223483217221627 0.17308850549660804 -0.10174950350189249
0.5169365678249562 0.15777214727883404 -0.10117825039102968
0.4625199552182977 0.13316477784654523 -0.1540957367859903
0.5472110293042789 0.1811405480139996 -0.11927609475885959
0.592164110643381 0.18118319591367538 -0.1035699842293667
0.4955337538731044 0.19344569883288898 -0.07127102491617165
0.487538716333745 0.0975610429020719 -0.1505701650685296
0.49698629726199783 0.20388677200173788 -0.038252664883273724
0.5434725491953998 0.1546614543025555 -0.11787509341243663
0.5650371649250872 0.20684842216489585 -0.1000949539213849
0.5875525942520881 0.13187216209190922 -0.17940086293903335
0.4928992224284201 0.1601694706677108 -0.08727581965074194
0.4802162752450272 0.1570647465984507 -0.08735968687432205
0.52270633735057 0.14376976449452172 -0.17030832462288004
0.592647681244415 0.1951151679310641 -0.12971841883172885
0.6154714522768074 0.14119344170029535 -0.14383685463414508
0.5734349613951082 0.18954301063661205 -0.14059803439184293
0.5276615252769972 0.18801932938761468 -0.09578300101668447
0.5259342673320759 0.1462360815152124 -0.07885589048930797
0.5789799334104799 0.20044093669105223 -0.11215502138938405
0.5142170034262676 0.18010639061628808 -0.07153283432046464
0.5186870836162427 0.1910510269941028 -0.08138486113470833
0.5157689416929259 0.09874097998823572 -0.09850047066481693
0.5332557683860557 0.176106850225068 -0.11307478408495797
0.36418489483007477 0.13595821025182886 0.027591250318508287
0.5160270260048918 0.2594879414447462 0.023524176936092545
0.5550935229187672 0.15496753013256637 -0.026105633086729085
0.5110086245884702 0.17141576867676633 -0.1398782160408274
0.4649712893891689 0.09118580267393384 -0.11963332860693754
0.5525018468445495 0.17254745333478638 -0.12769720651571959
0.5429804704195931 0.1498498031199631 -0.09145752660604956
0.46310556466512764 0.03927320241798782 -0.22111643121401414
0.5344065884029305 0.18609428371962622 -0.16619916320443906
0.3038866338996655 0.30746430796440904 -0.634040227706862
0.4494674224772268 0.1419179135085642 -0.09377397327237702
0.5082637886095682 0.15090075600004127 -0.10088594973646536
0.5236462901880543 0.15507738528238235 -0.08415533144363962
0.4452545435514139 0.14045506329067337 -0.04920176739945248
0.4622331391849741 0.16726898918281563 -0.05202241465995883
0.5968456135358196 0.14443008289632076 -0.23602422270482748
0.4933509819807398 0.18982540476393694 -0.06986202043208323
0.5243569086290165 0.14544483587249601 -0.062249896273286254
0.5186396666586575 0.16548493585332835 -0.09295905856696152
0.4963910989075089 0.11596207112150125 -0.13163666696324583
0.6880097587665261 0.2679058101490597 -0.018727373806981973
0.612666704751291 0.21880830889877245 -0.15429855810810977
0.5919220856314524 0.19575634670144382 -0.14381987505925053
0.5614102818595086 0.12396078207382288 -0.19475546625218954
0.4655786501091512 0.1334039184379634 -0.08034968219273253
0.49663697945189256 0.13621418539250385 -0.13250395445447793
0.2314343698221819 -0.24920854840475215 -0.3194274046005887
0.5318777122602683 0.17438807187745908 -0.09307526367784646
0.4608211385566108 0.1371649127479202 -0.08645598363182216
0.5032518217890214 0.18783011457037446 -0.11104261295695039
0.5114643518152917 0.14847462191413285 -0.12391951604364237
0.479082989781233 0.1548289772331657 -0.08762977452022369
0.5174213658584677 0.13486893881628248 -0.10278255517840762
0.44280205877686285 0.1921943811832847 0.006128290686916671
0.4953870855340341 0.144853146142907 -0.07186472970207092
0.5092524179586064 0.19973387159944878 -0.058184431786457935
0.5118979745458034 0.17575192827483477 -0.07634043195352547
0.4924882983024048 0.06466099534409864 -0.12917076525351945
0.5705580286309129 0.15614733716650164 -0.15538230755534244
0.8887250985857094 0.34116347195976005 0.15588696794357304
0.5736430525753065 0.10793300448753484 -0.18352434306264342
0.525739514554104 0.17772506073028183 -0.10145423563409395
0.5377618356611009 0.1869644453527286 -0.044534596307642005
0.46094307412698754 0.13971339297010843 -0.05807013705882014
0.52415807932897 0.19105711747273801 -0.08505607527008863
0.49824380692245995 0.1585270995856689 -0.05950924116817191
0.5174343162005215 0.1809849372261283 -0.08806216944475409
0.5291287229231045 0.16625857479883166 -0.09430839468318197
0.5836238625170154 0.18927885193241423 -0.12877016398341823
0.5445343486230314 0.16684741625029176 -0.060294328670678965
0.563701153450765 0.1964692048428418 -0.1214549201165056
0.5123064903597054 0.1362260299625575 -0.11597230138606562
0.4680864378312606 0.14863071233845915 -0.0680686327190898
0.5274773219937003 0.16434931263695773 -0.11214346307019696
0.49455928941894456 0.12021722760393061 -0.14007478002186247
0.5527198725529274 0.13109661413251672 -0.12587173780735839
0.4708099021187735 0.17431907336433028 -0.057403394649725215
0.4893703788136179 0.16420531198671995 -0.08438424435713898
0.5152399521866613 0.1457716684713546 -0.08996657473778669
0.46736970913912046 0.13532444326807536 -0.0818522566601132
0.5992310266949943 0.18579335439096667 -0.10170154420052313
0.4153115421272986 0.18984795804607302 -0.015853064229744973
0.4933699584002227 0.1680172044357704 -0.038654583326746206
0.5251048533154403 0.17452741539884187 -0.10387382392970324
0.5592211157599962 0.2659954405275755 -0.07154373301584371
0.6414822311200368 0.20940632868338582 -0.20911504081716714
0.5309091490445326 0.1882350821239953 -0.05059128485922315
0.4369746498068423 0.09386484465076705 -0.10915510163069087
0.5376839704204031 0.23318250071427826 -0.06719319630184373
0.5715873472418025 0.20687558507205495 -0.11815864541914323
0.586189651409029 0.16074647264412079 -0.19154769242143743
0.46726815258132604 0.2089302136461555 0.03221945013346783
0.8999603560301495 0.47610427648102416 0.06074662906814865
0.5318128283426091 0.18138753936040075 -0.08954522738228832
0.500156935154692 0.09020794059534865 -0.1320253541785945
0.4732722628592114 0.12957474414758963 -0.1499408755555578
0.5332949143953982 0.22552708280366573 -0.038430338539228615
0.5071724077713498 0.19434246476821215 -0.08716561541675105
0.5182091429372946 0.09225753802324732 -0.11537246917143307
0.5589353930264309 0.25664468405757646 -0.0903275893516593
0.487044428786092 0.17358706100004895 0.001980010591495329
0.5444970124164428 0.1781244480091999 -0.08444548154636777
0.48048699779607773 0.10004895717264617 -0.19410283319196253
0.4903617588213365 0.1398865024278706 -0.12583721172028106
0.463945258877402 0.1395876638514011 -0.1339878424703329
0.5560771398129134 0.11432044906196381 -0.11363221589890315
0.5048922510916896 0.14636878806298625 -0.12389412191153326
0.49947665860455004 0.1818773748107816 0.009153152406241816
0.4976540963977101 0.20674875728153097 -0.05597269219545353
0.45199595913096857 0.1371332149984994 -0.028109492983517725
0.6604321201220102 0.2521316544376333 -0.028873641398206473
0.5317188685040151 0.17209340106649051 -0.083056716539474
0.5753071717941936 0.19397610946286648 -0.09387252922419975
0.5118650201799255 0.19445022073922757 -0.05965325304225644
0.4990095966390413 0.11848374561377284 -0.1622010053433911
0.48900530025912303 0.19019121589455779 -0.015740417075804203
0.49865363761610126 0.12872894238874721 -0.11034686588284615
0.4734823429745063 0.18565099890567183 -0.03849314232664369
0.5523927568386426 0.17686799395356445 -0.10627337688687533
0.5021435847983895 0.14400017329015213 -0.10351052272694972
0.6344735341738215 0.24315088673749585 -0.0984712900942526
0.5533862374865635 0.20823566438011198 -0.0690696732987135
0.540239448219964 0.1692349621262963 -0.11659784879827839
0.5766545280245055 0.18751582420800617 -0.12696603027842457
0.5396898319211942 0.18620677552691234 -0.09694112502432972
0.5231471829105914 0.15282106898769143 -0.03461287853714623
0.4869433546584929 0.09810035887967672 -0.13853578485729656
0.5153981516662753 0.14143831425508324 -0.11142353802715377
0.4818709987646912 0.1384107337384819 -0.09477204870538003
0.35668957825953385 0.22835654546480555 0.05459379008757992
0.4565401505999489 0.11955815768590128 -0.1087636923394939
0.3183666765971367 0.2273643416862683 -0.10500256025503063
0.5102326665409578 0.17183101948131707 -0.10938676765277933
0.7795310346269417 0.09722665358609106 -0.2673209737134812
0.4332111163495682 0.11435060009496567 -0.0929905701676006
0.5141256939532042 0.18326451596786342 -0.09452843442083747
0.5443577658595871 0.145648977691053 -0.08842358064877942
0.5126835512115377 0.14226429205983493 -0.07469431812438643
0.5413715543734838 0.13334610222172216 -0.10165178828734156
0.542621023578505 0.18383260123708567 -0.07599497322344462
0.6614757515455523 0.21099044812774537 -0.08529923662726446
0.5380687856484627 0.19258678166370657 -0.10466969234856549
0.49434000354848706 0.1970597712675186 -0.03777309025055331
0.440271470070968 0.06369410204085568 -0.122097781009046
0.5663470516165745 0.03343671525732361 0.1552993870762691
0.5483267606380906 0.24828937445761312 -0.050227321945911285
0.5864780025183904 0.16850792398912517 -0.14612929012425013
0.47842588707835887 0.12335668295918367 -0.12902095059136798
0.5676728592487592 0.13944349643738008 -0.29515711904616637
0.577435639804392 0.12349909752435906 0.009267901196466255
0.4872862576783348 0.15405967031607304 -0.13798922513254297
0.4895322994106692 0.21832916743160524 -0.035092344564105815
0.5496042078041938 0.48091410734058115 0.22190182813123727
0.5374235058578165 0.13245629138009463 -0.12867676367771708
0.5469175724079633 0.15276787010228077 -0.10607243006727174
0.43560289007993447 0.2131314312785122 0.09059605613073529
0.5202456916481708 0.18696299604458488 -0.0784196620241886
0.4083792229632053 0.14762578123253434 0.061160069228805014
0.5036697364478044 0.2004835063714978 -0.017908584767852176
0.5756104108333631 0.11036218455961944 -0.18505602104788466
0.48586572429668706 0.17662137405930878 -0.13360040717461175
0.5182849201418236 0.19530148983524498 -0.07404730026388506
0.558724199200114 0.16538941477681135 -0.14200572488614682
0.46157134630053065 0.1749980220740497 0.08714492890170789
0.5042081506227163 0.15608859597931257 -0.09849497407202534
0.5633900126767344 0.19362062123977353 -0.07675670982388283
0.6278790677743302 0.05673080010409137 -0.23453673392008056
0.43311865048868015 0.1536216656182603 -0.08980768173354647
0.3354162189997254 -0.012372025797120045 0.007949195491491423
0.523400775690078 0.13606814271020085 -0.14540408119464132
0.5070804935288322 0.16984399473322753 -0.009045614867716267
0.5324762343124689 0.17014811077896752 -0.08253711066883795
0.4784319709799547 0.10557369223437263 -0.11286143887477351
0.5551200371803446 0.1982103065036398 -0.07835803307466449
1.8702525557731207 -0.3808169070534717 0.4403550501775584
0.495172738718864 0.11122728764588885 -0.06260174714607558
0.5986757323263419 0.18638748973896213 -0.12952370455487028
0.5676200613972071 0.19528879124884213 -0.12062720292495044
0.5600334468833807 0.1465146046450343 -0.16368939673996863
0.4433522253434461 0.18337051016483485 -0.04625121607188021
0.5383581737386294 0.19273357759301746 -0.1077883883766475
0.5632027636497412 0.14049670123708324 -0.11172966575216492
0.5604094409267901 0.15485077849116635 -0.1484787218681447
0.5536222731863916 0.17902468187358522 -0.11812136794405603
0.48547131166429836 0.16074330701110284 -0.03892386999309849
0.4795183367318714 0.11835247411246996 -0.1317080141235465
0.3411054691505768 0.09530209217280117 -0.16739701532156914
0.5214841628365008 0.24234330307274377 -0.00781675733307452
0.41507082548299934 0.0777655170154361 0.03978539338820042
0.598205720154283 0.206590582493547 -0.09976854284489889
0.5874725581055031 0.21847703243517458 -0.05404962617646447
0.49094734861417066 0.16490902924648765 -0.04499297955149473
0.512218878741038 0.17404571234897048 -0.06531244594100372
0.5369768593846942 0.18985026499916557 -0.08487837815127364
0.3895093027728507 0.15971310271979178 -0.04252750344694789
0.5379941192519624 0.20415318025995077 -0.06783754126711017
0.5278281184441624 0.16406240679549455 -0.09347502329363522
0.4953589589409262 0.1953775715922319 -0.02305350280308005
0.6023020072587144 -0.23098883576932394 -0.2556684084228067
0.4810827020917401 0.14252311884933988 -0.0768108547701587
0.4669208179914932 0.17545703696548287 -0.03863685454703614
0.5446225937960776 0.16768836842265955 -0.10376103016167804
0.6098779009484616 0.23015042047411782 -0.06471470917000488
0.5328334231740399 0.18575955082010864 -0.1131135307935125
0.5477551328435624 0.16429318697031192 -0.1048123612952736
0.5816281912669723 0.1571482404046236 -0.14537050133721152
0.4625973724254777 0.1391548101188249 -0.14775795256487356
0.42236431144205255 0.1608897548781414 0.022398993207673357
0.49608610149738297 0.18778172553594175 -0.10849150553740117
0.474984631307251 0.17459543663747468 -0.09218100657207629
0.47427844239552996 0.1234380392265848 -0.15786617130109448
0.5173769064357288 0.21721681166769713 -0.060648028213478256
0.47170292491465204 0.17575002376723603 0.06820081164981673
0.5387160403026172 0.17511659687696124 -0.08802513423498226
0.37989980085927755 0.22753979461430163 -0.03424771013960992
0.468409369104549 0.2692686116808005 -0.006308501899354724
0.5459177672335187 0.164470787915306 -0.10951360912432051
0.5493110900306135 0.22141172977050871 -0.05485190352597158
0.4927716126344137 0.11834449644807421 -0.13645110086800116
0.49081395934311445 0.14055823109774224 -0.0930853081402887
0.5090467611308753 0.15640754836748272 -0.10296218355746589
0.4644192268811054 0.13487187673770507 -0.05486919568804183
0.5887126039304178 0.01799539655668525 -0.12683449775494182
0.5646464442611148 0.18756131049732971 -0.11226364707258085
0.5354144089033923 0.10242082519303608 -0.17763215510400698
0.539880247753004 0.19823405847429854 -0.11287138004338715
0.5996703028983177 0.1948667378017177 -0.12370769753712807
0.5554533994398412 0.1931730861704608 -0.09831016591790842
0.5405417559431527 0.1815016669817453 -0.22531425227990098
0.5064591254491404 0.17152278360090634 -0.10458747011810487
0.5318782665434725 0.17780967410467952 -0.10205900076347518
0.464808241131891 0.1257130547518983 -0.012852990443491308
0.5406355949157842 0.13130420646267282 -0.12962968532276875
0.5318831083427824 0.21458254443142266 -0.022868559423187662
0.5058644113733379 0.15468171407231068 -0.12774516685200865
0.48826769157633976 0.2826711808514233 0.023715337687676197
0.49023601653377114 0.1367166841585572 -0.09403205207921417
0.49395647824341893 0.14171773784073594 -0.0594862738239641
0.5017045379017304 0.10353044334441108 -0.0520965413908101
0.5615848063978603 0.18816789664215605 -0.09596960297973567
0.5444761333375538 -0.519609677827475 -0.48186061516800294
0.6116548550381964 0.16195169530179498 -0.09369655930102283
0.5880524105975411 0.2378289637553621 -0.0389573741931315
0.5982475691326243 0.2258047959922891 -0.12945452889310616
0.5922851699983056 0.19489039381704742 -0.11569431336174318
0.6087979942311108 0.217188702413182 -0.11074810270601176
0.5036412801413661 0.17232418391296278 -0.0848679195851787
0.6100130471728846 0.14059279200156993 -0.1801809208220959
0.4934253701381124 0.18543263952045663 -0.017658798958819943
0.5779008216682797 0.16404325735595648 -0.18127682960655989
0.5550555430940136 0.20705384503310142 -0.11062162363927541
0.5644939074218343 0.13608653260337178 -0.27974466708704426
0.5476133551766509 0.15278667987334416 -0.12825481645674586
0.5889885893632965 0.16161692109437809 -0.11269143069455367
0.5078481507704566 0.15470380658742044 -0.14723852303563945
0.4889210340645178 0.23896861801348734 0.063589605833414
0.45626321132219516 0.07708960920741958 0.022539134032058428
0.4702299810665238 0.11168644653957926 -0.11645137688407203
0.4258629387177706 0.11054291784222414 -0.1623898696215207
0.5066219829807466 0.1507092460684305 -0.12932240788251192
0.5007744818401676 0.14800558841415068 -0.08131091053608941
0.5373371480975067 0.21863769702001434 -0.03068318970093742
0.5340637919685065 0.15180544213113478 -0.09457142382237294
0.5190174243071652 0.18050179647805464 -0.09694478841623777
0.4684898075721833 0.12713164535001908 -0.12035926986266077
0.4855550923513192 0.19847570212246524 -0.019499739734882837
0.5114052717696183 0.15691955628534515 -0.10324765796130464
0.5374973133181413 0.15761891694205588 -0.10018856711963053
0.5129338840563662 0.2179015060683298 0.002471476069345613
0.45983431589445445 0.16311430278847183 -0.048195073601633
0.5535195104392301 0.18549512175343352 -0.09825553650829022
0.46782938523062967 0.10007933354150111 -0.14530312653833732
0.645809949905285 0.21585977045157279 -0.050398287681957754
0.4758600914178004 0.16509392021718838 -0.05133871455723238
0.5072874849575584 0.12684588635208627 -0.06729632213831849
0.529641788475459 0.15684395482988123 -0.11463690879840271
0.477008342675731 0.0839900854547011 -0.17009837264700423
0.5131270776406041 0.1395524572949256 -0.09112380420387467
1.7289064911931575 3.467639592753301 0.45167945141237453
0.5109011114362971 0.19496909883397961 -0.111621515751267
0.5271228953580192 0.15904191386634636 -0.14931794871222337
0.5132058126896055 0.1721490407651487 -0.09011035857909633
0.5986436933161912 0.11115925265038129 -0.1523054924750653
0.5213766880504522 0.2748588923409727 -0.02417126759654309
0.5360690096700012 0.18950428354375504 -0.10772184490785719
0.5318888670298065 0.25291643752252924 -0.032130567639086394
0.5228639778031692 0.15995514124185206 -0.11301944677877884
0.47850731804871316 0.1316758137707552 -0.11656311992435064
0.4972578056168828 0.22468187638600057 0.06031038060645244
0.5690966960420241 0.15935863534528494 -0.12497984816147323
0.5171900191090515 0.16048086102428272 -0.1006710008132643
0.5257896461737204 0.15274885775751557 -0.12786996470947543
0.44792219982041104 0.13494095441544118 -0.049219637793825655
0.48229071759664066 0.18824750184352013 -0.05276433314294593
0.481831006213568 0.15687751888947332 -0.06682523706690802
0.48362095601189026 0.14272309911422099 -0.12691684689644944
0.5407039465050332 0.15729849266585916 -0.10367525662395849
0.5609308950589025 0.19160106269589505 -0.07628339972757203
0.4945937713428634 0.18220415151166947 -0.16473061389616817
0.5008611458910082 0.2443976736874589 0.014279699419901704
0.5632213301638558 0.16317277435256017 -0.10390522655656298
0.5496151360759569 0.11742122458318249 -0.06674064226598375
0.5513642498132469 0.18708537837881067 -0.06424931460252026
0.40235427494320675 0.14969536282059437 0.024262659807234854
0.5512779908379315 0.1735939782281264 -0.11652331760086554
0.5027974278182512 0.19578865104827514 -0.0725667450900147
0.5237633333390761 0.1672403885710878 -0.10122406482101098
0.6006893680670231 0.2807533740093078 -0.07880140452408568
0.5751355894630876 0.18601440718173023 -0.12223807196239989
0.508268292389829 0.18869353089125696 -0.011250267504237854
0.5855169021079831 0.13723314709673673 -0.0892272735365367
0.5831531497117055 0.16804480127927945 -0.13333618458410967
0.5019198215058367 0.1915800890774193 -0.09723092334851913
0.5526085656053823 0.23357649914534306 -0.03650186427387325
0.4583187317835211 0.18446495936578344 -0.009949525296079287
0.5784404456727543 0.09284330187760759 -0.08909443514681925
0.5200504689370291 0.037633907671590805 -0.3570584780645021
0.5499395785450929 0.1933887206829752 -0.07621897964141056
0.4793575221438289 0.17167221940157162 -0.11835784413085548
0.40034680622851226 0.13758693348226814 -0.010432904966151568
0.4911880299929976 0.05600124531082429 -0.20066136808010526
0.5082151879441312 0.1997588192786992 -0.005647674752239595
0.6209548723346927 0.2939676692144815 -0.0702628974485151
0.5876028761521326 0.1010984312007821 -0.16457078822172377
0.5381665029865843 0.18281764710044968 -0.07484286507698812
0.5218548715903495 0.13354645740402304 -0.14111699192493177
0.4664509632438012 0.15281502827400573 -0.04423940888123923
0.5960790764476798 0.4619594412209693 -0.17270805010454637
0.5319792832900134 0.178457920140076 -0.035776799310013985
0.44511186364422883 0.1005579900560889 -0.07903308772807804
0.5324881074962349 0.15826906154399012 -0.12436997824282514
0.6181774546143686 0.21983869017013546 -0.040361597458542064
0.46983790496230426 0.1625605467279314 -0.1802504377411367
0.29720196460878867 0.17674769321776296 -0.0017770813495872062
0.5799141248678836 0.19579902457714127 -0.06368717447966787
0.544651937555102 0.21640763333171265 -0.057179126513091205
0.4614566737458432 0.11963518855492339 -0.11393307619975701
0.5144590808879457 0.17876266810154107 -0.04897867567653691
0.5341666538329406 0.18098806278833024 -0.09742824287926055
0.5375647688257317 0.1803210840434133 -0.09792850112435758
0.5606584158903445 0.15335868315958123 -0.06158868532229178
0.5809292063833311 0.22288819352313283 0.006551753994472165
0.4934279210541348 0.1563235409049497 -0.015540187651950532
0.5095234812650347 0.12175324224675421 -0.1550351370073173
0.49949243333475124 0.20286293322921267 -0.056180639809255695
0.4678288651950311 0.1737514378769731 0.03160782437325338
0.16752712040302242 0.8253503877534598 -0.03681085092831893
0.5250405055896863 0.14638049548143783 -0.12780984543817908
0.5110234319776481 0.1794378341659666 -0.09101898069357617
0.49900907321527654 0.191500234982783 -0.009172965345044304
0.5826334123993036 0.1746092321903916 -0.09239958779863855
0.5738872881718606 0.18858321280272605 -0.10601092684025559
0.5333813747556064 0.19320982874090475 -0.05189999382137955
0.583187671855967 0.19292603100686279 -0.07335493375325086
0.5416821801825336 0.1734286737510473 -0.06910363360653093
0.2934178229412794 0.5871170129487666 -0.15610725432004813
0.5546005223499435 0.17648912487540258 -0.11259841756360345
0.33430170355950395 0.17881949748903025 0.08734425758754583
0.5082217036155896 0.1587318729422833 -0.10053814566646224
0.5343056223399003 0.18558904481230343 -0.05286773725417504
0.5901867590969232 0.05274431200103891 -0.14923189784583712
0.5115526135566171 0.08432132626167288 -0.0964521603576145
0.4832168939214796 0.19383587421239667 0.000980738775766099
0.5309603311519169 0.18881975832182718 -0.09133829495318935
0.4576201544940659 0.1734944958514859 -0.039706887498027754
0.6123318678894236 0.14881114773341153 -0.1140540093854554
0.5253944652093452 0.1953709809283879 -0.08687690878284116
0.5476469786993903 0.16563972895228574 -0.08331151178212792
0.5130185719725802 0.16624820016217257 -0.06838781458998255
0.41897869861037407 0.16532882002425708 0.001781720634610906
0.5079573909617352 0.16489566651519283 -0.07334123764097455
0.4351865613201511 0.07198171092012728 -0.13979489349019047
0.5834381988805859 0.14263713587983773 -0.15782432369192634
0.5246232083265312 0.15506376625816642 -0.11513621935618801
0.5153827689826045 0.14506071469511994 -0.12623164019974809
0.5183087733651774 0.16941517836814057 -0.0897971980655825
0.6036210033143732 0.30513596513679886 -0.01448045114523211
0.511335720933701 0.1550783846564343 -0.10637756890095318
0.5433643404698358 0.178838142930843 0.0006903207343498252
0.508126052395113 0.16679019472181267 -0.05019083945116165
0.5572812386205044 0.1617971992117333 -0.09259725850839118
0.5007309096543224 0.1072660033720183 -0.14817462687194904
0.5763143207129815 0.281432417779655 -0.004165344409344129
0.629309592345848 0.23520840709042545 -0.04029383777125872
0.3807486410065479 0.30430008575565637 0.09085008911010561
0.6051062842172286 0.21357176728687932 -0.05974520933366989
0.5143324652009511 0.16735791501399433 -0.08855021947077546
0.3934961176875902 0.1778879801190385 0.008992744492971383
0.48525450846153717 0.18476598208513906 -0.028471462230882594
0.48158475858002703 0.10966080583521887 -0.12602768143497656
0.522508622517762 0.18390468834216733 -0.016764069711783236
0.5019714754711941 0.18445902707686912 -0.11763763760082213
0.5412294617969309 0.19693321184091417 -0.08754183540170857
0.5958540117742217 0.24449460763895559 -0.02493003766473123
-0.011036752767068947 0.3625889752788254 -0.17741278159387264
0.4605009634965995 0.18801949875657442 -0.02450737289049698
0.6406462117425065 0.18907954343409017 -0.025867523856831554
0.4316544615876836 0.13472781103165232 -0.059086051943822326
0.5217369563784757 0.14553260477413232 -0.10154048685112116
0.5268438419518588 0.13473870160019885 -0.10481564645509422
0.4571671282256915 0.22391692056599766 0.11313997466660908
0.7044791675599242 0.16867424760023653 -0.10611472021970769
0.5636094941743437 0.20855986130945325 -0.0759072949898183
0.5752425520495592 0.20463714043820858 -0.11092321781900694
0.49318814092384855 0.1789127575585212 -0.066129301712607
0.8172493798386427 0.14015696124971555 -0.13314149465087155
0.5969875467743435 0.27555502489279604 0.017621320918493666
0.5045634423342023 0.06648005760557396 -0.12631097143220416
0.5495800999340474 0.17047534931560904 -0.10110755142191863
0.44157478212528645 0.28236509694060885 -0.15556630962278462
0.5268452945957733 0.19121616856618573 -0.05763401552329128
0.4652274848883451 0.1395421896803981 -0.10104121354602569
0.4994301209674177 0.13773448608857564 -0.09706418763509816
0.559622668413013 0.17626341289309266 -0.13053279578018362
0.413085229430763 0.03210376798030268 -0.20648400887419882
0.5246658532360016 0.17094975726647021 -0.11319394975610919
0.5380728769934109 0.16969073319495465 -0.0752138008709835
0.4546074717491706 0.15644798112070646 -0.12653441137574362
0.5884621545081359 0.21760393024609925 -0.08963048725384226
0.5489988174581697 0.21497503565289833 -0.06650076952598738
0.43938915638592846 0.19187905368262648 -0.0019495657713548553
0.5034780531574512 0.14113751778474182 -0.12479071976297007
0.5004120306801383 0.24495389367021403 -0.06184469746105492
0.47936115238454136 0.1274030862015394 -0.07693753402274695
0.4894926525065415 0.0887455141743203 -0.10434195012155101
0.5914069853925525 0.2807749458077353 -0.040352537937764055
0.5083321355609911 0.16954579694373706 -0.06925675807616472
0.5561306571930231 0.14112296522327483 -0.0693454819849535
0.5002596454166905 0.17896611284686514 -0.03974862652123079
0.5092906622027442 0.16304811543106723 -0.08577148179254834
0.5732983287510365 0.22921618814631017 -0.07812217767460083
0.39281296852348646 0.1391521915387699 -0.09425128245739245
0.5742551443927226 0.1722634245469834 -0.10671955174267111
0.4908525878533254 0.11637320913914095 -0.07956015097305169
0.48489635231175043 0.04558893545109299 -0.09612556450353793
0.5404079383778253 0.2274860021167342 -0.031202908000054208
0.5505522642483669 0.20340645745332608 -0.058768388122643955
0.40530094095628044 0.12908511494896402 -0.020241729161071476
0.5204601718135251 0.13083795856729807 -0.16381336983288008
0.5069248232004782 0.1818107484673277 -0.09882072231908978
0.4095332237781264 0.16070564866788573 -0.3655738666205366
0.5530884389194313 0.19742724443409543 -0.1007743153995051
0.4961297154547992 0.15301391544272747 -0.13186179798495345
0.5033612696204841 0.18701101395068065 -0.03238456045875182
0.530073111095561 0.2080760366689276 -0.023807667363413998
0.5463931222806764 0.20690381593234974 -0.04445607001322571
0.46426285456281846 0.12015064360998906 -0.09505149032726479
0.5062742776826781 0.1798207397880276 -0.08273082536045706
0.5196550757577683 0.16424847437387768 -0.0773602548180321
0.45193193487919814 0.17854897725656826 0.06769836480515323
0.6383258514251935 0.19788187734712892 -0.11720254071278191
0.5305380765676659 0.16837002517247868 -0.10778184063958918
0.5681398712905548 0.11176327187780544 -0.179739111437911
0.5354908911971421 0.14020519261191566 -0.11860595865363166
0.5272557364872483 0.19214643298460032 -0.06539285815740925
0.48763061943222397 0.09149745607952298 -0.18195994348671718
0.6153507687823065 0.1458828933189551 -0.10323247715113837
0.5080099935564988 0.21164862215164248 -0.0074170312377361824
0.5121529496295665 0.12348233884851822 -0.11838265316679042
0.5224229253653334 0.17488073486698852 -0.09977906379683077
0.5361260242908514 0.18136409835616973 -0.07577301092238997
0.5701211614014028 0.21623857594536844 -0.11464849675715527
0.47894053236693424 0.07822787630472305 -0.1573622250573692
0.487784156858865 0.1760394026852481 -0.040709189081766795
0.5664135318713477 0.17309642269766812 -0.11816892722951877
1.8761509765586055 0.4105619692243039 0.9710187988702756
0.530457419810233 0.16215722785143782 -0.09922514179602615
0.5339665576377257 0.16445387736837347 -0.07753254034454926
0.5999249060322853 0.2497750474579874 -0.014611330811135304
0.563614450770956 0.1936970203490489 -0.10767695420000223
0.5186016537013529 0.16090671877033458 -0.10123124769707204
0.597576737049863 0.25069318445710564 -0.06617958839291305
0.5063846614746268 0.10687904109296653 -0.20417819950819194
0.5324896618014208 0.13833411972460397 -0.10831345637808454
0.5407909084233182 0.17724133129425468 -0.1344342525636648
0.528895071152931 0.15732461785461282 -0.09980762900480045
0.5286895661549522 0.1713096967934007 -0.08750276163222281
0.5973036979395943 0.24049313580421483 -0.09282924091327516
0.501213176634522 0.1557252011498207 -0.004814207279551397
0.5474835823759037 0.20779784687879044 -0.08430268996001189
0.8313295536322869 -0.2765950184639365 -0.42835229141699926
0.5332092140941427 0.20510839049480012 -0.07959828434891847
0.6471327574885066 0.41400867808603437 -0.25806891051674086
0.5680755791014462 0.11299314192238796 -0.1613065797510842
0.4492338426573781 0.16613748002696127 -0.07149823037374858
0.4687307108382299 0.22016508782483868 -0.060685829108152234
0.49595947658005457 0.1922464397459578 -0.05551760517457183
0.5346622290068836 0.1787403404750023 0.03073983055168128
0.5291112901426374 0.18532164847567856 -0.08800374041653924
0.5087756000388026 0.19766972045570697 -0.04592781290648418
0.5000396960751772 0.16529388705005488 -0.07644490749801491
0.4827567996918134 0.1165649080139417 -0.061225159347685576
0.55870542855601 0.17177641073769223 -0.08843828443150414
0.5026425274931086 0.19517706291405545 -0.06754057724323559
0.572219549195168 0.17793506702915352 -0.1100333058734293
0.5961714368452533 0.19762911470995448 -0.10169832860491113
0.5579458027365405 0.1387585770381321 -0.11032891355432639
0.4834100520099156 0.15722789135364224 -0.09473124109686637
0.5086282419644732 0.15648747753976977 -0.1283205865390329
0.45730541494648946 0.16305252502823464 -0.06710870151701442
0.5196024724438075 0.20129059103778957 -0.10516331185110062
1.305160213711659 0.1913615856882842 -0.7457548407384138
0.5152074498433024 0.1738527014776423 -0.09483890050985622
0.5329092530049593 0.15150387245898855 -0.12234548761530561
0.5465462805819072 0.10120313511309575 -0.14205336858105966
0.5015691115507224 0.18566968076765988 -0.0760367641152726
0.48573571544767447 0.19826635067030907 -0.009913799640330012
0.5340645979216418 0.10468133722031325 -0.1335725709380995
0.5530616507589627 0.1837120478194123 -0.16811892183226007
0.45951186939817035 0.18051399396028955 -0.04174351486730643
0.3935731784748384 0.10749701205391204 -0.019050742620720484
0.48750870265622837 0.17482149629115895 -0.006171552832526572
0.556547329364804 0.1981515422252329 -0.10359406131119897
0.5761974902684557 0.16977152700644638 -0.13228841194127483
0.3143370110658026 0.2037621194427146 -0.06828955845485041
0.46141986345242003 0.17173621275952655 -0.07951950305702837
0.5899742438597428 0.18284427962389316 -0.11589893935595796
0.524476626772767 0.15363995074687864 -0.11247624051475213
0.5284451852915879 0.14284460375317565 -0.07946034444502459
0.5177184511014303 0.15977575260912147 -0.09487614972454139
0.4438245625851778 0.17110410218516847 -0.036698998745706035
0.5895071193331631 0.21673023228218824 -0.08426520184758601
0.4938402748879014 0.17056454613704375 -0.036251978950161856
0.4716387863364844 0.10930114579296912 -0.16400549937480946
0.5434870964027141 0.1291944461998753 -0.08112566433855761
0.4414028213918755 0.26080564154732144 0.10625568821366471
0.5356679254809364 0.19733883956564569 -0.06119563434749864
0.5472475586832246 0.22540255473123239 0.0017259023891398328
0.627725185631391 0.1522212357969579 -0.1215890423312942
0.5421320838525787 0.18953641155125922 -0.031600074092935415
0.5761554119806362 0.19241774225379515 -0.10404329951401792
0.581229160782982 0.1852332763367741 -0.13748117562823836
0.4946256789026364 0.18809229276354245 -0.07329177204907467
0.42984204914689883 0.1651906310401614 -0.0388621764180499
0.5799490774297595 0.21014960124421123 -0.05063028271700887
0.5366726199780203 0.16703390414197372 -0.12150148121040161
0.4242866556492402 0.02624138188831182 -0.15196325235947938
0.5054162677652556 0.13775024299799554 -0.14176804943951993
0.48680851406443537 0.17732661342188294 -0.06009621508313501
0.5149779584440921 0.10527817437821341 -0.12026265633662092
0.5010270264841239 0.12576404169421096 -0.06859370691027777
0.4519222331029624 0.16087832573002459 -0.04134894883353013
0.6286220491460881 0.2002205669245427 -0.11404955633010161
0.5757820872288022 0.08507574102893045 -0.13986385782757793
0.5592755786324233 0.20394292406612635 -0.021174745670691664
0.42922723198047663 0.16064058077444088 -0.02939053961785021
0.5081496991464576 0.1812650202318764 -0.05532938289610456
0.33520013307924046 0.25479388812092907 -0.075417556020696
0.6212671491955177 0.15147970794269838 -0.20242406140143032
0.5285985563531597 0.20448845689560358 -0.04752118931480709
0.5682665087883692 0.21118989129122667 -0.08834369330332947
0.5254494461470642 0.1662240170779654 -0.10440570193220822
0.5228027549419352 0.17643943314558896 -0.023396926258939743
0.5307133545552887 0.15672665888172332 -0.09283741656523148
0.4660329613298444 0.09214352135171566 -0.16749869708608855
0.5623344151932628 0.17683161232125144 -0.10812600842048425
0.48852154839957507 0.10868825168871865 -0.11361009346465778
0.5098802757606506 0.21650360639240773 -0.03226474167738047
0.514717581171368 0.1708117150026709 -0.027045118548500113
0.544367391071674 0.14173350704994903 -0.166950019557504
0.5333867358332327 0.160974341617532 -0.11651582850724651
0.5214542361382399 0.22628165071175488 -0.08450674498381261
0.5263354858564071 0.10672197982944454 -0.08794406438944691
0.5211149729666431 0.08137931234584528 -0.2616887181394816
0.4528875629388409 0.15353704676829238 -0.005615244488069493
0.38841120706381105 0.36086319432845926 0.04021427192968474
0.4993567419492422 0.11844647089614568 -0.10934390589144982
0.5109650742063678 0.13496119575343357 -0.11349469409600488
0.5273602534234385 0.15305091257462777 -0.10077149347563363
0.2747558874836358 0.2667207244693799 -0.1647562520020074
0.5504800089914141 0.22593081876870258 -0.07592530382898133
0.5873739733454499 0.13371988133711454 -0.09121547369542782
0.48383023381354917 0.17417537822230145 -0.06268061268178826
0.5785541776124035 0.22300362515885297 0.02209660817156589
0.3409732238346379 0.1223935772871414 0.06022252821787788
0.4841084239958491 0.183788853383831 -0.014779188721050218
0.4045342763232611 0.10269951615119055 -0.12267699106608632
0.3980400004677449 0.12796120772674158 -0.06200231277354362
0.4626180960017052 0.18080314466000402 0.058102353104800386
0.5463260993183638 0.20092576397249218 -0.0866536202838546
0.4907240582105601 0.15944753954042312 -0.06534341223319018
0.5550589758076967 0.18304740361077165 -0.06025990867581754
0.47622602906714917 0.19011714100088284 -0.04102900203579907
0.5039719277550176 0.08600695783565016 -0.157396449752099
0.4737361752110161 0.15018190827959188 -0.08935134281691148
0.5079219818281331 0.15151526627916212 -0.06202323147122968
0.5208452262808123 0.17426720342778879 -0.08078784137784112
0.48637751944445995 0.1849814415807316 -0.05165735326680476
0.6305308268572958 0.14628030746690968 -0.10888084173106449
0.5436889351795884 0.10564147829359172 -0.21136500464118058
0.5271502899555713 0.16309435152358276 -0.0970714771089547
0.5842351162635566 0.16578771565750117 -0.11424926849727512
0.512449460384417 0.16000146270810944 -0.10817285144486277
0.5416287160112603 0.17663707727017197 -0.09581361402580058
0.4957427232696858 0.14296838655776867 -0.16570937020196652
0.5507423779109502 0.20591791137144355 -0.07660703930271495
-0.05788891738970392 -0.12106997478853998 -0.46634659275819956
0.5676054654215363 0.17384025550659032 -0.13167371051737575
0.4760044918652824 0.15186594176117296 -0.027493021196775658
0.49089137405758265 0.19276650940966533 -0.056240494603201796
0.5363647251015919 0.1555663396229221 -0.12183171698444539
0.47524774940188763 0.14623772249642286 -0.05207214220719436
0.5528333938224534 0.22920906290568155 -0.07932695213024488
0.5093913962618899 0.12247751175974031 -0.17417932286407733
0.4274317863978041 0.21534157171060997 -0.03463615483778426
0.4550053330019921 0.12219376796171844 -0.03527247219328444
0.5887029495147829 0.1851941100528336 -0.10535665227899926
0.5477809663140647 0.1857027078006439 -0.08429025660527145
0.5471668111214996 0.20651227570631647 -0.05028566132847345
0.5254703276166595 0.18556735454734508 -0.09580129126611325
0.5312026790018081 0.10321869327626132 -0.16232826884971985
0.3517333896136705 0.38211268806327325 0.08508293259096433
0.506259592526419 0.07784066646377141 -0.40716502401589594
0.5758258633770339 0.2056729503024286 -0.2095483919570995
0.49921985187010876 0.15066311995668968 -0.11283830383797522
0.5732302837654686 0.2151884803945876 -0.04614890929968851
0.5762304361616088 0.20629077710097476 -0.18161111186689993
0.5559368284919373 0.16431366923994517 -0.09262670738922907
0.5560824383765919 0.12372340827907635 -0.16589328301787987
0.5009145508948336 0.189502771769682 -0.04709832173719519
0.50846069489873 0.18124508333387723 -0.11625339647967792
0.47445964351251746 0.05597380202827651 -0.7719663345240662
0.4934337200119927 0.13428498901436114 -0.07027992502858638
0.5027786498422131 0.09636411837625758 -0.17356174766416643
0.5345124564938573 0.19542298785478351 -0.08549092325047525
0.5303280459984023 0.18312527515604415 -0.08421802102805032
0.584992395062045 0.1829271972328428 -0.0751445972871494
0.5318405134294437 0.2009788846357594 -0.0819791913684611
0.5069968821186421 0.08848119406511046 -0.21840970891769018
0.4712444078782738 0.09167625984125038 -0.022089316300892392
0.5074447140635812 0.13575473756367273 -0.15227772478260704
0.6357028591699105 0.10774046819993544 -0.19160935419543534
0.5343906555952316 0.12183160450966568 -0.167343942978448
0.39266880506789903 0.08657486087518862 -0.08543314033120453
0.5160232660525992 0.200959277072144 0.05855840147128788
0.5068914915271989 0.2701125628203158 -0.06665261749213869
0.39437031171939907 0.14345964721036353 0.0027495537827491034
0.4259895088449781 0.16813997877673614 -0.008846882420655788
0.4876495891130901 0.16336072537582425 -0.07537708747217664
0.6616510260618611 0.26068832348529725 -0.18263074262573298
0.5534297554046077 0.24489988547418307 -0.047657527166208524
0.5444374390799993 0.19161051962959164 -0.09375936080824943
0.5616427131484727 0.1996504420544909 -0.11080256155938173
0.5580606729981383 0.2139601561281239 -0.0569551999254827
0.6435771120359419 0.2287992540137509 -0.10783235160766935
0.5593105238239673 0.1779114122642369 -0.14507450017960366
0.559889509912324 0.18542345041659303 -0.1167563482884475
0.5037554438018503 0.17746789241880379 -0.10053148990824923
0.5381257298409139 0.15657900571180505 -0.13041793395404966
0.5520962434266323 0.15890336516952175 -0.08163123213333279
0.54254866589784 0.17094398424690382 -0.08219319955324522
0.5724388989624458 0.17372760748600058 -0.1340379713068387
0.5318305245075408 0.18760589629583535 -0.14382723130880493
0.5073788371502417 0.1773777554960958 -0.09778650412305012
0.4162029609419591 0.1842230710546744 -0.20155980004049923
0.5763102348795286 0.10942546349296833 -0.2060266301869973
0.5721734592009398 0.14763372495134774 -0.17842451622018984
0.5732233144129282 0.23252999129577745 -0.11023002932785175
0.5303491004090262 0.16993898866739698 -0.07989859956160217
0.4845673616894288 0.173724096178546 -0.04019369803830841
0.5288099188816773 0.17837654304986472 -0.08910437538243343
0.495111995607715 0.12835905359465016 -0.11391290184259617
0.4787675820945765 0.1432292479941566 -0.16114944812179033
0.5447016037595773 0.18777946469120366 -0.08213891850904531
0.5637931699642564 0.20185585556446028 -0.05000707610497557
0.4918261896509364 0.1896944223692003 -0.07541960017090332
0.5022804688148597 0.14563311179395555 -0.0590597103792021
0.5324215273095376 0.17051356968741516 -0.12480150500650211
0.49680030809273035 0.2008980822498927 -0.11210322296010133
0.5605239371480053 0.15976263383558376 -0.15002258029372229
0.46859458714715174 0.12314993513527384 -0.1381701505876407
0.5250338318264198 0.15978465013274956 -0.04204935194120196
0.44818794044695665 0.14425960643100666 -0.0595221115140987
0.4877191536681238 0.18704017478647472 -0.0022040983082973753
0.5158135018841392 0.18819018104763074 -0.10503531844352665
0.5501371212746022 0.16708299760439616 -0.10492191521142047
0.49813785763704743 0.1452765006577863 -0.060958635588235666
0.5525570472438943 0.18776471556226682 -0.07407262851243956
0.5315113683653436 0.12961018937787117 -0.151712002816069
0.49646288756807166 0.1891392228349389 -0.10508984502156693
0.3607397869651976 0.14169964878102803 -0.13545712106439112
0.5834283854129723 0.19644350883208972 -0.12064293906892942
0.49801359366126974 0.17100292901146474 -0.13926344456305628
0.5438796048556753 0.16511103438423902 -0.10726586003383431
0.569688336452387 0.18384167436551024 -0.08772308921672334
0.6657990333860226 0.24809901052209682 -0.1648229632252054
0.5014624905576284 0.1327077190773025 -0.03415216597554149
0.5243876005458645 0.16848805641696174 -0.12875106185282448
0.5097328016344846 0.07950463996969859 -0.1481047529192665
0.4734207345259591 0.07351532480744538 -0.162945530437284
0.5199415269528629 0.11859274598199931 -0.06558796954030299
0.4942890366207706 0.2566488054868472 -0.006773846198555589
0.5610823001957641 0.20630277631723004 -0.08772483163905065
0.5598317142804348 0.24242075005768982 0.10928244354870742
0.6219956091223082 0.2624059918839379 -0.015897355748705877
0.4822103678221339 0.15366223321726125 -0.061042396368080176
0.5886348683779659 0.2420307490143614 -0.06332953688587395
0.48718095799618766 0.14769167074021539 -0.09801141552665626
0.5589500381598071 0.12100993366917123 -0.17859613884428427
0.5120379989288608 0.19419893888998274 -0.10456896976462815
-0.0015475879817614668 0.3612273910225525 0.23787318944553704
0.5662451076834571 0.16446562754990168 -0.012054604567140359
0.5199536952156194 0.17834428621989673 -0.08163079901574122
0.539816340415527 0.1558813604101772 -0.1169660435415949
0.5438663722526798 0.15167904194716186 -0.051742172809525755
0.5416989196286579 0.17204525306787843 -0.058658562166073125
0.5040660534204733 0.08643257389331893 -0.17185427166627676
0.48548341375102666 0.03901141465549074 -0.08018135309991692
0.5203320915112215 0.1549108683383622 -0.08151888582553113
0.4925622997025556 0.10623129247701968 -0.15713932131274078
0.455183396551206 0.17372427029565074 -0.03292446610058164
0.4905879183076678 0.12314537820695648 -0.19998064913501423
0.5150913380309703 0.16147806494225847 -0.08555733383425945
0.5130282365732199 0.17762969094650316 -0.06980914156201834
0.5209003994988421 0.1748530044129808 -0.08348019579820232
0.5271338951611284 0.152097731184611 -0.10473266905586343
0.6008213397830815 0.2573847545430965 -0.04817152710491257
0.3411734788737846 0.08266365154153732 -0.18104620928477289
0.5139882623292067 0.17561218455068683 -0.08781660912299571
0.5139099910789326 0.1695936344536051 -0.05943495981219371
0.4707536725266266 0.16139076392016705 -0.05231550851031841
0.4976089933039134 0.14530487224604371 -0.10638514196901383
0.5646218524041728 0.17845138748080558 -0.10294260897933327
0.5234806649426531 0.16004834217963548 -0.07866073187831546
0.5735653568166867 0.19754141225476474 -0.11780510040706815
0.5244679597921191 0.15060538578890714 -0.12377778619095636
