# .PCD v0.7 - Point Cloud Data file format
VERSION .7
FIELDS x y z
SIZE 4 4 4 
TYPE F F F 
COUNT 1 1 1 
WIDTH 811
HEIGHT 1 
VIEWPOINT 0 0 0 1 0 0 0 
POINTS 811
DATA ascii 
-0.14379709355696946 0.3410546952185598 0.37006225081148614
0.38368330229863545 0.12284423707961878 0.11346401648579274
0.31186518298231647 0.403855766316525 0.29795260847544114
0.36007741917407543 0.24162442633529224 0.1432302248239239
0.38394455216274537 0.24359127373369915 0.15993252973342464
0.30882559355151784 0.3065125978340575 0.19214934282592822
0.34857484494654045 0.25293443951238714 0.15904059698135598
0.3832187501691635 0.2514449965924541 0.18136148957461273
0.191843547583332 0.12453696948412585 0.40929219544722173
0.3855275697833207 0.24963699035843945 0.16436776610086667
-0.17431244783563216 0.302725426511671 0.4080682321849167
0.3213306751120797 0.343186277084925 0.251870907712032
0.32516623121856014 0.2860998757067108 0.19478064993843702
-0.05508637231750413 0.21164274374660863 0.45841820026558366
0.37197983379188315 0.2203387781931383 0.13268288582580112
-0.09432161887932011 0.30085019065720076 0.3533835043906066
0.23826207969135282 0.2762551654189309 0.16738470779878867
0.3815920392518848 0.28594983430002685 0.14476923898199345
0.5169900123838858 0.11165670868453503 0.07159240875510875
0.37445095924906013 0.10418702501095822 0.0992344913581178
-0.10816554336591366 0.3135853951542913 0.41500471385347737
0.3988067396004027 0.1895699393235759 0.07585315270294757
-0.12769832058651787 0.31428697552897233 0.3909449672001557
-0.20768511958124236 0.22421583758799102 0.2889429543680677
0.7241429112795288 0.07102884326329217 0.21577392913948756
0.4487834614044175 0.3490276897501019 0.1481783908614318
-0.06924939711278455 0.3216328616253037 0.31770005163139103
0.5056783488712853 0.059050700860623806 0.07016468910507001
0.28774991898154667 0.20337385052739876 0.15712103315780723
0.4035985213128299 0.20494498733037858 0.1492138954844222
0.4187089827066046 0.1883633622259424 0.044554261513070514
0.40441410554778656 0.28620142324751896 0.2051548638676195
0.37090638929464603 0.24351992330073813 0.1525413087598224
0.46570457946555166 0.10930802384976346 0.10411409380191117
0.28564905658932105 0.14388462180052386 0.14341426962369042
0.4074992028326534 0.22145550965169036 0.14077488883971512
0.4290023227951565 0.1927743191015452 0.11204998971530244
0.430341467876886 0.24974655121775413 0.1487694716246466
0.42916477672554265 0.1594597309030803 0.05618230791606038
-0.08453135483323138 0.3624788231828404 0.31116300186874923
0.3618913458196573 0.2668765303440068 0.17215298852691774
0.40113870213079394 0.1407604252702015 0.06853989160757123
0.47491039644218347 0.21360096019040498 0.07704623497244256
0.37980629013536316 0.23016438853630916 0.15289754455972115
0.36014183502274477 0.28015156430325305 0.15007782397781
0.34052290862484824 0.25619868046348415 0.27220919729697357
0.37246872376432805 0.26743419657988454 0.18296601838035542
0.4410674205794862 0.13908976683978835 0.013831059523198519
0.3924786870417165 0.20670512479625813 0.2006865723948863
0.3746399105933449 0.294880967791471 0.19904494732841727
-0.1760615172655946 0.33866214098625846 0.3991550557041563
0.35775426986583625 0.13958571025585798 0.07948664867322464
0.34075899702995116 0.19260072221885594 0.18760875935757326
0.3982712626270484 0.27975121583919815 0.10871086393080986
0.6680703364581007 0.4025280728540679 0.4496586961691946
-0.18110142778529337 0.3234989391886529 0.4625547692293992
0.43789484719124516 0.2415569803261235 0.17000527395036613
0.7574488706579814 0.4435810154562887 1.058895544562617
0.37424322096890705 0.31335518369752435 0.16645325791301957
0.4675770106669006 0.35509894642140694 0.18062487671190297
0.4996131365597165 -0.00037837873927060173 0.32651517264528707
-0.11437850035500219 0.30815728183975466 0.3646920118913357
0.16744533383003102 0.2880330426244484 0.22727405535340495
-0.14101483879308319 0.2993853128995738 0.3240436724615563
-0.11090818674918523 0.2810252745413493 0.3595420011547361
0.37558153611165324 0.24881248528578226 0.15511104107936546
0.48040634833353124 0.37403467058678075 0.2897737477547082
-0.11656746507090077 0.2367856460015787 0.41969106788687327
0.3672767511109214 0.329082786403319 0.21130899787965518
0.20447194584613726 0.31881198781535147 0.3001160138740744
0.3907588485852216 0.24015353343233414 0.16579225237370565
-0.10400322849771726 0.28026354730420167 0.3507795082855978
0.5356361856147629 0.2470830981500285 0.15443933887985395
-0.040094301788570874 0.4465500979584647 0.34754644606799445
0.367119892183581 0.23279696175669073 0.11535016230232031
-0.14494611195644325 0.3035930096001209 0.36549803580368234
-0.09248709691583201 0.3607275179360556 0.3011000156397472
0.36381408504584556 0.2631271613828545 0.14592522930900031
0.3406479252560075 0.22988215520868494 0.0791258856748982
0.657347588967184 0.13238690706420186 0.13507136987229273
0.3894945790997326 0.25925959950868105 0.16535369798020838
0.6082061554147344 0.11450823666649512 -0.14275131449538492
0.4228459249458467 0.21805953428609826 0.15476162215114186
0.40008580620366274 0.22729930457924752 0.19102689504499892
-0.09057254701079387 0.3809215585248751 0.32898660647643396
-0.22209284416165076 0.37982981780999125 0.47247729446857534
0.4866072700694133 0.09568388583895171 0.05224843357746067
0.3888436219948659 0.21324553928481293 0.16003763913460034
0.24988626767770938 0.3719055795589554 0.16884225593761926
0.36411063035735936 0.2722969474834116 0.1660346433222344
0.3612356723822643 0.24358575461837972 0.13063211368725547
0.4256392739576995 0.18655692818748548 0.13710879621237382
0.34181948711407983 0.28099358557955156 0.17444620993461513
0.47410043966317517 -0.3815565057526271 0.1309045003502547
0.43155752352114973 0.2105786561237295 0.11818177357287141
-0.12569837049568378 0.27157094068057575 0.45069636132166124
-0.08543681132096026 0.3133407369417398 0.28074560511370805
0.20208213000073272 0.36302504386378587 0.3548232170095389
-0.09659719807075362 0.31668223291362096 0.3130423811246601
0.40446204251730933 0.259241472759399 0.17438357429384155
0.3296301311320917 0.2401244582086548 0.04920810463997327
-0.11163143508815665 0.3055856318440533 0.39475118583607127
0.4002707568500341 0.19068102438501455 0.11447943432399654
0.5353304092556641 0.31121261917023446 0.025014538433765665
0.3948381749081591 0.2292457595713131 0.15304951596345973
0.43587487360129273 0.1879500465881705 0.0932710563293142
0.40215149815293216 0.3861797660862294 0.048538724248771814
0.3640750391982408 0.2648114990251429 0.16900873572424757
0.20003118858468838 0.25644587555009934 0.2100133230260468
0.3490145405415319 0.3181637066707168 0.21419999776875898
0.35583203194974544 0.2634915261466375 0.17308687788023747
0.4059176596529994 0.2585829601143814 0.10614963590458615
0.32220412596248593 0.22830312722140889 0.0867387120675005
0.372980526489755 0.2395438193003514 0.15468356879517842
-0.06528031256675604 0.43588665091560586 0.29157729727795356
0.40303798368546495 0.20408164265755602 0.1839606463026655
0.3897602798822959 0.2928125137402162 0.23106588941489292
0.29043027270788 0.36013952900957236 0.18073480594053137
0.5992623213900856 0.08407892254368221 0.14883483547714604
0.4077392940131972 0.21638915129443603 0.11667716230442693
0.32518540702663756 0.2890562785030113 0.19475407777575526
0.36700552071030756 0.32663454278889503 0.20325270443447607
0.3332787802775954 0.24297643406578118 0.14401166331074933
0.35915594132606543 0.20763133115144683 0.12174642494069587
0.3510295545974884 0.2857208568569263 0.1636414659422485
0.453623550926352 0.16703067373933322 0.09225033410621108
0.37029418178823903 0.29551606721695123 0.19423774072954814
-0.08171394409869492 0.225220903631822 0.4639148461783975
0.4232576506612844 0.47419560097185354 0.4042296633784588
0.2998617612937551 0.3193263430843274 0.1778550531843166
0.38146107065242063 0.259254339114392 0.15463368580950032
0.47193863851266826 0.34188275498971166 0.4628506942071908
0.4483618441076942 0.13197764896506214 0.07534878248526411
-0.11497605765980268 0.2862853430088279 0.37722360001319544
0.3894091192608329 0.23053670051348263 0.15844867655104622
0.1605872797953225 -0.07651093216975369 0.11847659215308681
-0.042342520793823724 0.3786670811888513 0.3237393504889212
-0.22403248951771104 0.2765162096590359 0.4903491327612528
0.4325917960184711 0.07802444296858368 0.01202898346932102
-0.10675011569759363 0.3091646282049112 0.376350828576534
0.013164382659198282 0.225558917968101 0.26641663058168774
0.4559475021681578 0.12739709643446417 0.013286015181620314
0.3399841158393144 0.2913349016876623 0.15641557659503746
0.4322294587432509 0.19430496123010244 0.08200604261186584
-0.04709392113653621 0.25575245594220064 0.3881842983683441
0.39237789359874853 0.2574383984393762 0.21842014898837192
0.6191390763282527 0.20910079870432696 0.24394498768006656
0.3615428877657507 0.15056764777256149 0.1759971088528971
0.32605230948968256 0.265406703182947 0.15544745572630347
0.4151242927722478 0.28619961380682923 0.14831618645007438
0.3014292151495681 0.2336370881057519 0.10466936921790193
0.3791963326355017 0.2686700134862434 0.17959421635961803
0.29329659886471404 0.45447123545925194 0.34798475991068756
0.42146860908360395 0.27147499681538534 0.11919508466633033
0.4397254761264975 0.19580028719450127 0.1363541655150584
0.25178015241924356 0.2632502993673711 0.23361184160593496
-0.17281523641747754 0.29800619578414 0.39604552948048877
0.1804059658071253 0.3760325358430521 0.2536687399364297
0.3866439291359143 0.24282496924857355 0.14887456565463708
-0.1602334539607 0.2980907257856984 0.44159757066196903
0.3425841144158426 0.21243670711534435 0.17893787848413467
-0.17347871548290072 0.29295683861738553 0.45553066769497264
0.2933943541807764 0.44348068693155085 0.26659574605983494
0.3651944270403078 0.19791010682141064 0.06580084348026105
0.3250408845787547 0.24722723936966418 0.12026503111684406
-0.1323921450083816 0.3454019765017051 0.3506059470596483
0.35401239292298214 0.31002725050801416 0.20485688625592502
0.4153189604366645 0.22743402454179318 0.13343210571810005
0.6374539465721796 0.10530332456330882 0.16340966645434207
0.6371648679170505 0.15204963925953052 0.172362461571538
0.3788965085116871 0.29511977078263385 0.21450233565060728
0.4261726600210949 0.2267961710082318 0.17221894928337633
-0.09662044850605866 0.33398969294313474 0.334019130302579
-0.07990615823487701 0.277745399596256 0.43631211565627837
-0.1833178875028807 0.2914510649826809 0.3831074722081951
0.34836849029974815 0.2159863745731343 0.13005440805980584
0.551182963316819 0.1918356874056002 0.14329969241671847
-0.09055419897066486 0.2128171427987411 0.5545097080568269
0.6342200536140865 0.15025986640449673 0.17073814103468976
-0.0373407600024791 0.34904254485499564 0.34197791642748143
0.3557433572274391 0.2913843411556911 0.1409309940702883
-0.13209035228504717 0.29124308449686964 0.42774926449659745
0.37432211804598126 0.3003643754816494 0.11782496220202177
0.42630222779519045 0.42534935355905645 0.39212230903746104
0.45360401590345134 0.3474189355257522 -0.05150006586202949
0.3324930147856975 0.26692143724278594 0.15082215529194798
-0.13408342470401635 0.3245352509308361 0.33978281666949783
-0.012807111790280601 0.4318525942786948 0.37249429831103953
-0.27047738226792717 0.2560921949805106 0.5742140677141663
0.34817505884939237 0.2818850672917961 0.19156773609030608
0.36054248801706024 0.2411331925447655 0.19503044735682806
0.41930121149226807 0.24819945029460655 0.12713965251384707
0.37383588384639665 0.2545828638773173 0.12488230395881317
0.5078764008921866 0.35025240113780853 0.39375202387282116
-0.08593940134346667 0.3231717169764323 0.33340158739565595
0.3582524060335288 0.2596991329312317 0.14049830776946237
0.6940096921019574 0.33884719273135033 0.29750048067063517
0.36471953259382417 0.29282736980403 0.1975245794629359
0.26978732218321966 0.3473121440078728 0.37118632343126023
-0.05843095470768844 0.36713207351459687 0.2706782437362847
0.3539339607204113 0.32141847927519507 0.000358955925491955
0.5316614109255227 0.2636815885970236 0.2851835733897161
-0.09459068593839959 0.3085563097192363 0.3457450481330113
0.3248507591852672 0.31317013809874084 0.2397662332290622
0.3319001577504679 0.2629557516811758 0.16716879570668652
-0.14022904102014877 0.29897990108173644 0.4849568607615993
0.29915459437467007 0.2986210873285984 0.19225427498103898
0.3845035860042998 0.2401944675396379 0.15581583017583966
0.39118778709209323 0.191773164370602 0.1094335350192921
0.43464298306096794 0.20421215039948493 0.13924003142732033
-0.21454208175143208 0.3335650263802279 0.4069200135459141
-0.08301190197602182 0.38208834648331447 0.32019301885421214
0.406056400512 0.22869023630879326 0.19583359409197953
0.3592512680327786 0.2614092416625198 0.16726974278108742
0.3569929767789546 0.2596445702622532 0.23639063739280175
0.38559996944255204 0.19827582741987726 0.13319665724353058
0.3397473488105618 0.2949997783925937 0.1253113883510224
0.3383272838297273 0.1819858022743972 0.05411049247504707
-0.0815586729258797 0.3573984054636128 0.3232439607547377
0.31237756952963025 0.22744636386968864 0.03504781955584235
0.36738489855761713 0.25074589928368596 0.17769891354143397
0.29921400536875353 0.32685301388383436 0.19678190066261436
-0.1196976668163785 0.2759942450145445 0.47436225607697224
-0.13116463403669343 0.25643700799426483 0.49296417904852774
0.44078808444314177 0.2652432487007701 0.18075870079596257
-0.087908939158865 0.2843872973724473 0.24918103526221103
0.3516631062301627 0.2711527681276351 0.136541163067335
0.3392547953285856 0.22395281544717704 0.15377921845117726
0.49859146089764295 0.7249172445994816 0.31280000722502166
-0.07039697983717019 0.31900942918491637 0.31910396617377046
-0.051355777825506266 0.3635957688508711 0.3812641067559639
-0.13287582374354656 0.3983193962977225 0.40718751997937375
0.4154889305582117 0.2073391446674009 0.15355919371367577
0.39347884625388474 0.22038160376598626 0.11985249221940819
0.420973379267366 0.18249714780768045 0.09700667272880992
0.41290436644618467 -0.5425756342655745 0.22332873854830382
0.13537285864882165 0.44032843581328507 0.2684668632791727
-0.1124528632172428 0.30254251952098343 0.3608015430900764
0.2946072015886614 0.2998795084906476 0.16372762028410648
0.2881560536801402 0.22544046049114286 0.13295633602996304
-0.1264625942599764 0.34100848679909745 0.3555342211170114
-0.07918500714569632 0.3216860584507941 0.2757682327012674
0.3649681373490381 0.2964717584090266 0.29034849056482415
0.46900865622009746 0.2222158575904416 0.2573684780473684
-0.08099693154312604 0.3028127890686392 0.3309575863840166
0.39183818406195314 0.25536369853610097 0.17465300888133584
-0.09349005764744334 0.32533644492161784 0.32460243520122845
0.4108560343909602 -0.3924476463745066 0.2581380328261247
0.39119029076127276 0.2979359518338356 0.18234019358696685
-0.10533419500004015 0.26209920750166305 0.5010092474467172
0.38338530290083384 0.22082027216404754 0.03941204289877476
0.14568872864168725 0.48515627534416694 0.11140573685796085
0.6146260527893475 0.3816917739872423 0.41732805498315884
0.40661107569472676 0.18845581462792893 0.12401523140896131
-0.09610028105893775 0.3788561429446986 0.35959482065780435
-0.09567903072927209 0.31008595716906484 0.3329947778495921
-0.10102380373930941 0.2810341501340332 0.3705419260787153
0.5314695719847009 0.2151423608243448 0.12061538767684965
-0.04120505266531893 0.3862559287801872 0.2868845129695927
0.22705795041832744 0.40102655425161515 0.353595482089645
-0.38547338269827947 0.06474059434057722 0.30794831946828083
0.39402494306892777 0.18225661024195006 0.13672077628142176
0.29603805135448624 0.3445512578362582 0.13982241922485628
0.43968265380388516 0.1605700702078252 0.08297683676440215
0.38109314227271796 0.22599965921631338 0.15836605392382808
0.3035410209539151 0.1932200699316553 0.18424546028083455
0.3249547222770417 0.2906205965126958 0.18051699809191746
0.2878320211388825 0.34560430085959126 0.21685788076797508
0.3907353378185121 0.24240652417660158 0.15327608224663436
-0.0427529375316027 0.3158352215530158 0.2888645298150152
-0.0815073081104174 0.33866986887350947 0.3084079531314501
-0.10452457861524067 0.29645862978065907 0.3531198147856571
0.41845006604437174 0.20208043060110015 0.15147302580294308
0.30134760788553194 0.27477341989589377 0.24042232948551145
0.3520129992823797 0.14165681152088894 0.061728561896686074
-0.10129529664509107 0.2952825619260153 0.46928073418992255
-0.1660570931256018 0.27027009775986244 0.5663038983432784
0.4010181448805952 0.22706326172057345 0.18216195217364373
0.3229218299279921 0.38835992925226037 0.32471029892961667
0.388050333367147 0.23759092770210088 0.16645482135902512
0.3884826467451319 0.20405402850605014 0.1607222608168115
0.17450210111891806 0.369719527457562 0.15710661563917938
0.33881139949022554 0.21333186571283136 0.22916984066117152
-0.08438941792513788 0.25258921084363806 0.41281376617223486
0.3378647800994088 0.240941240373985 0.10071277159862291
-0.10110946047564084 0.4160815688281616 0.24772822022217156
0.30221040137108446 0.2861809808309772 0.10954849568474856
0.3456562677550892 0.2504964045043323 0.1653639389300281
0.6990783385010815 0.14470290441853706 0.24374323600889625
0.5108705530953301 0.1080151656356918 0.048366550166136335
-0.06587353252260186 0.3303254995206828 0.3689127133439172
0.36177617001717977 0.25425171135159985 0.16475064472733436
-0.09047633105332409 0.36354584709175697 0.33277025592462905
0.5052264132865218 0.327219548312911 0.36726687219021414
0.36395579426464053 0.15599640270471582 0.042621694625808004
0.43895626182566616 0.2126973171343991 0.1692463530262529
-0.20733564379563063 0.2748820819166866 0.4816391667407345
0.675254692157381 0.09788104786993301 0.21222542516379406
-0.10363724856527767 0.2857105657014358 0.3802619996717169
-0.11148242390869711 0.30837483486523354 0.3403234985003962
0.5490795620246729 -0.04392158496283116 0.1407784536759209
0.3626909277429604 0.26820231902296143 0.23661846803204867
0.37303402001400343 0.4867772306193956 0.40414375454408
0.02686293514128124 0.3302120234952213 0.2459028663724041
0.3140201728082985 0.2935262026210381 0.166504291236663
0.21945281787097315 0.3506263628761985 0.38363938572045697
0.25719562262207774 0.369567789038868 -0.013212655464911904
0.3675961090526414 0.2606467153830465 0.18337618451477056
0.3020717906127288 0.7607440577204727 0.8644667086562379
0.3787906799842915 0.23335149796072585 0.14018269871024813
0.31951385517425024 0.2466608202938687 0.06638923579365041
0.3359062108919062 0.3203540244994656 0.22781354918292607
0.4374730603726391 0.13454231844363562 0.4713074258755796
0.24618627307026486 0.42357835107891617 0.3423083022005926
0.4046737507621003 0.1778881933048524 0.09133840855578512
0.3991339547401367 0.24066953212835074 0.19651872100385503
0.4212876450376939 0.21944174085405166 0.05614738944248643
0.22608091892311677 0.27782447317528636 0.04320351608578221
0.38326536277702417 0.2789322374943737 0.13401842767211747
0.6782288255918729 0.11885445850478504 0.16071975072378564
0.3703514519140043 0.2131394094457164 0.16703648249645653
-0.09958184289612859 0.3751384451459643 0.37468351956655965
0.6515501838840692 0.15264583143205357 0.1763030166702606
0.39936666253422004 0.2939832569215213 0.1944207877611177
0.16966148917390456 0.21863606539577063 0.14046058057473942
0.4238396992954705 0.25544770772071956 0.15459591481430834
0.3522092027408945 0.2657020767866669 0.16996714977162242
0.414162191741525 0.2420381449529998 0.16454816693048713
0.3664285045194333 0.22495585105053806 0.17969765226450818
0.3713747190769823 0.22747636702916907 0.11563365139721782
-0.09909390828872233 0.31678480555882516 0.3223862549571095
0.04103203122298282 0.35532441607654164 0.30458786367162816
0.3458051717961439 0.21172426473157202 0.10602285239471598
-0.21063578382884884 0.321790898781245 0.4361585496542517
0.4144086224968788 0.17125945032219647 0.10691187557162607
-0.10814076595633537 0.3318611306050059 0.32238372921958103
0.37100257594585173 0.23255393347454856 0.15775205645445567
-0.13408335373100044 0.272074600324288 0.46305700776986214
0.12221744573693627 0.31740757558753785 0.18327461428489755
-0.025217258013327637 0.3575625625161649 0.2786965287610599
0.5187064135191832 0.09005378833808209 0.03619345347021863
0.38973197609473686 0.2546340437555443 0.16474905342708723
0.2429567991251531 0.303395403342094 0.20495070261557657
0.412670314702936 0.23137507922899658 0.22848559021380765
0.1291298177166027 0.3147964824395615 0.20642045629422512
0.3947237886167869 0.2872727601910583 0.185382733287625
0.3841167457810286 0.19207410268583658 0.07696916420363209
0.5952496470359705 0.1442503958067647 0.12952799808417126
-0.08971929810211066 0.3228986328146277 0.35094118739587543
0.34246590624823625 0.18879643199650786 0.10748897814275438
0.38973601612963193 0.13315702967740606 0.04660097958900167
0.1609396470896911 0.39649769410819147 0.3274766357458816
0.41492242943323276 0.19315051968780494 0.23349619369687957
-0.0740098555514237 0.3917199423669899 0.2949369813989051
0.4930041354880643 0.13357500567336444 0.13975119141451842
0.3593843373316048 0.2477201428641962 0.15987434763633246
0.38450749113408733 0.1249128751094446 0.02867258767462033
0.42932270817979656 0.11818635185781545 0.044804759613427336
0.3870391056578626 0.2672082240948441 0.19606190277545466
0.8590877364545833 0.2470763289664717 0.5070240459027673
0.42600392300160195 0.17263353299071582 0.10392895941103575
0.35767624836557843 0.26289402331401845 0.1741166973064736
0.3878007802283747 0.25352421956915805 0.11414225750266382
0.37355396832516874 0.23614701947060723 0.15870956619599497
-0.07456969665631163 0.3674131186975558 0.31901613782440563
0.36744524213415275 0.18146547069254382 0.09324289814222197
-0.0901537885937671 0.3591009565240455 0.34406450921783005
0.40163380696253626 0.24449039585985588 0.15751939018224448
-0.10905849005527557 0.2970719689265735 0.3478062178151333
0.24484735065198038 0.4130809687255521 0.26235179731102676
0.3043097641187984 0.359715917393828 0.14432732642789858
0.38160870522145274 0.2423798974073179 0.18104422161786715
-0.14149626400070758 0.2978827663859107 0.458774738775503
0.599902986376236 0.7428532917050177 0.6154306633723365
0.3932961007302822 0.23099809478654265 0.17439083109346143
0.3662420074397801 0.23934363473165376 0.16368735572436321
0.3512920510044353 0.20877211999851397 0.14043418000565566
0.2550740339268742 0.38532900503980727 0.24592606800551664
-0.12016717230812901 0.2960500601919165 0.4393623763150032
0.3382370791626812 0.37604932012783365 0.31713430593457304
0.46278346705770446 0.2201096226017114 0.07690436071054307
0.4142242595921175 0.2342493354374824 0.16433427547967483
0.33851047619373276 0.31618624988064425 0.21176213425013657
0.46624751122254793 0.08890136063541831 0.05601433983576953
-0.15335578002481043 0.28495762539336056 0.38280195569412
0.43613535283482463 0.15673834896708172 0.15746108986367346
-0.04970785235687458 0.3456394082978278 0.3021653576040393
0.3935085037400796 0.22166506951334952 0.16537415977676062
-0.1452316272307712 0.24039899897647388 0.36488689469589985
0.3666486302268197 0.24969692502808982 0.23814860164340246
-0.21569248561742427 0.265474036192316 0.5432354803088515
0.4679291852847456 0.16655575002934597 0.07939652795172947
0.34300849358218954 0.27323701521277144 0.17253958531370017
0.30899095984324276 0.24450497308313857 0.013739390109378746
0.3585832327570131 0.18165851675514944 0.0943826016337539
0.4154184069376754 0.21730163579704254 0.19872539316506277
0.3523470739309005 0.29394766413881257 0.1318738032723843
0.30518610408574887 0.2938949495134011 0.14209122696598797
0.33962249263969113 0.24809233246655538 0.1440441002588102
0.40119025422535515 0.221811569766885 0.17485846528597904
-0.17567332880753384 0.337086679596581 0.44337750737045667
0.35602980975885146 0.22689272198643096 0.1264798771870801
0.3866749584132805 0.24316854378278663 0.15747437279560472
0.4443241522788952 0.26675610886294976 0.16590247064499408
0.37872018899408033 0.18469447486266688 0.15506487460160656
0.40834460683215923 0.23999559626047073 0.16615222801746654
0.3511532104001276 0.054377871481108286 0.07505277527172893
0.3349348806110868 0.20642276882870192 0.06231757120293935
-0.06997383713698468 0.3643339162354948 0.3599078223124792
0.3631530791843147 0.237107828189977 0.16586274430582648
0.42551449330584035 0.2071832152190325 0.1643899925020662
0.3667840665097657 0.1203298420469423 -0.004981143953671108
-0.042490318189123855 0.24774536759993282 0.48370287432484815
0.1511570087332359 0.2819043772077663 0.1437595876292903
-0.13182131127254593 0.2836928811451287 0.3877594706454204
0.4494188270656707 0.1811046818872768 0.12921584067569825
0.3426323236441675 0.217283827523147 0.07687516466597799
-0.10303960646622556 0.32464863680723965 0.3710637534456964
0.3900439937581268 0.23229909311911 0.13747489469807306
-0.09193503789443014 0.33483239802561116 0.3350403877294923
-0.10444405526504852 0.32904188002540025 0.350673189993131
0.3886446330077433 0.2561217182559119 0.17049579903695644
-0.14646618780798804 0.3117253874932544 0.3646545702326307
0.4147289647287664 0.2367415345214141 0.16076123024095068
-0.15545045742035768 0.2992248807124298 0.4045170419757653
0.21231145191080714 0.4394361538440563 0.3534481162305667
-0.09328603266163782 0.31829958297814187 0.3235856162190629
0.38145879954024053 0.2970394763705144 0.1815199920445707
0.36454480518818855 0.2838218238000536 0.21048550697801716
-0.13806534362277034 0.33795393898890325 0.32307718282589803
0.4697031853282283 0.16948164877810257 0.1950319554467228
-0.09204631068703861 0.23737315253376323 0.29634923920232836
-0.10938705485476419 0.3152969731816171 0.3610236657746668
0.39411256075391066 0.24187757331532111 0.15891725069093354
0.3563498044462108 0.19914582779878742 0.12235421364087529
0.3893898215760885 0.18166847361592886 0.08092574339696057
0.3437818426698698 0.3239356121299153 0.20969709603579645
-0.06216789181702609 0.37265308028236177 0.33248888448498803
-0.1110727438467336 0.32988846901095314 0.32177470943165076
0.4694654124818669 -0.4681937847665836 0.16973916106627485
0.4426804091984309 0.18654333829911707 0.07932742955534877
-0.07320129391922592 0.31572410784670524 0.3005854708937079
-0.19136451056468218 0.26275991909466256 0.4467163463750694
0.4012466945185196 0.2407154914207581 0.23693066766587378
0.36627807432708437 0.2312945149796377 0.14340963216079672
0.38309431518217707 0.25448371460191765 0.14693829772218692
0.504169420254641 0.23151255050795783 0.20452959875757415
0.3831250016675938 0.16240399414996887 0.1593674283911355
0.3781749729698731 0.28551448722356554 0.18202692070569526
-0.07507186889660034 0.3191223884155363 0.3170659502740989
0.35352814925582265 0.25610074326999666 0.18229079649111668
-0.2685351341818887 0.2801074471759648 0.5764160286051094
0.3448829800394151 0.1678599754025356 0.19039173822849875
0.29200235950426645 0.2552558775675777 0.17215608718986175
0.36256437418434473 0.23857837802864879 0.13505920014097228
0.5006625565360423 0.027449884427980464 0.05390910237228752
0.4204626679831449 0.24694197954585206 0.1538684938313395
0.3753620439222374 0.2785293264251152 0.2204698504535827
0.28088760348947517 0.2553481941403106 0.22809869267419458
0.3700774644669309 0.24339415589862767 0.23290133061564688
0.38390700017816926 0.21436929282225492 0.1371432675830846
0.37787960858585734 0.2636726624634491 0.20944220649951717
-0.19472267368135476 0.27167583608081713 0.3297905944063473
0.43622818896155025 0.1328467161158784 0.04101794431588246
0.40365040083972303 0.22298055662849947 0.16548235096237818
0.3753847351335793 0.22248521991751602 0.13582124261753847
-0.011392447196016064 0.34159461786505574 0.279738208127128
0.3386750162181613 0.3564423728916921 0.2214775248626495
0.1302123407879492 0.29018833375437225 0.2947610403598162
0.4910555398191718 0.11373255028613016 0.10320620196128516
0.37629048519804087 0.2886263518363137 0.22965119344578966
0.36977203441577444 0.49490891796870073 -0.11519349942901158
-0.167048014974867 0.3652230095545974 0.39908513947884217
0.3918754738985797 0.23896773435529894 0.16480003716233682
-0.08616415224039997 0.3228924542593461 0.3263667730284254
0.3614456803812516 0.2819537826077294 0.14140571833785032
0.31085434489232 0.22688681253711707 0.06721079244115913
0.48737098666481415 0.21847358971837139 0.2513928113673103
0.37302431483617227 0.2837019571648227 0.12883214022461686
-0.1256999825549201 0.39735292102581354 0.28782779790103064
-0.08463899892453242 0.3446920189969944 0.31998105817655187
0.45564927889745377 0.15964543591715596 0.06332499371245603
-0.10587076492504366 0.33968970798781584 0.32050804402592803
0.4015105819366056 0.22559880536732635 0.19749940650726217
0.3863157490259823 0.23263419341589042 0.17132100919835125
-0.17243527846321172 0.30941269436354446 0.44425639008896667
-0.10237792280858571 0.3041482567701763 0.3668356759437472
0.4224272418553028 0.16037359522118777 0.11196104130247875
0.40864261983671213 0.2831705114612788 0.146838601544502
0.4239108159073339 0.18079268027287299 0.1519863873081988
-0.07840317052978207 0.39688729597632744 0.34602571264596804
0.5835432866591361 0.02471086338263717 0.17724198229801402
0.44567280137118814 0.24230195173564084 0.19768090300971153
0.35688971290008453 0.2596668992896696 0.26219902461485844
0.36473907241037296 0.2590402705530721 0.16974515859773476
0.40780235013662036 0.15225215916660773 0.13109794825180643
0.36589416888928383 0.2571196839544143 0.1883970997910751
0.4094351934636222 0.22082361795168026 0.15199370038493498
0.3624846808718587 0.21122878893817187 0.13515757418741714
-0.10659213173431681 0.3375033162127039 0.361948324059469
0.37029576655814367 0.27637475226713093 0.07767247163113211
0.26951130938496703 0.37541717117318285 0.16755396207784656
0.40795823708052126 0.23274800753205227 0.14329371632987886
0.3285612761355594 0.30575443703125416 0.17558716023727072
0.4217740314958007 0.25504416221221504 0.14340565742676858
-0.09434866541599263 0.3247958098676662 0.27875501900757627
0.3944638603375381 0.278358214072739 0.17324354814832077
0.026475249429140035 0.3379415864045541 0.31699959782969245
0.4722014422350469 0.233890206669912 0.14721862963511967
0.20747666796566477 0.285222953667585 0.191801385649768
0.6555378819422515 -0.12770846895276122 0.03471048242599295
0.3247425670712403 0.3772037621536839 0.24455233060746195
0.4138623737848661 0.2993577657561133 0.20151995097918984
0.374600171467506 0.260784747125129 0.19964074341265814
0.38934257635366976 0.23808068276213135 0.16015139577071125
0.32684640518567676 0.2997366429316912 0.14083809111734524
0.38424096470106406 0.31487144703358183 0.27482405747181815
0.3657447697761853 0.26535333760857327 0.19040853398988133
-0.1895735386666928 0.31524748505944444 0.47509122762602374
0.37816917144384377 0.4469929334949825 0.4257323349935689
0.3365706691265302 0.2764581240092241 0.1757258327131126
0.5213477631643855 0.23639282389177652 0.17846992772959425
0.28412982145827925 0.3314598025116027 0.26498593969787976
-0.11740097748810285 0.34028643490411525 0.32842729485314237
-0.15627372061783262 0.16370426423890194 0.3114740250924797
0.44961094086022513 0.223538009973538 0.2367108049516844
0.5103310687755993 0.11860270726039346 0.05376478564123488
-0.10496030837512649 0.2854911978879784 0.37931763069755675
-0.08297828010174157 0.36278451858608207 0.385080032309844
0.4560007244537303 0.02986119561805367 0.031191179786716816
-0.10576906674120323 0.2967591478450231 0.3550898691146642
0.45987587686133224 0.17045761638755152 0.09078975980310133
-0.026305593697372842 0.33308613339767135 0.2625065530775714
0.3368475301498677 0.23640800716344756 0.24284122536650443
0.29360822845247014 0.22606163878671737 0.02527179458040507
0.3443621166582602 0.25120713733166156 0.05313101748750171
0.4786699671466863 0.13436871241924564 0.012340146946712593
0.21525917477104883 0.33238337752396774 0.24426044441412387
0.34869355262311785 0.2642640782985808 0.1577868431978402
-0.05620643698581773 0.32273553604190397 0.2695580261252104
0.355441972803618 0.19906774933050997 0.11443139271570146
0.37762258546527505 0.20935450164864733 0.15427335678403153
0.21054333511492018 0.32546067109251453 0.15101768555197737
0.6296616067048291 -0.026673616059412097 0.09893051467662417
-0.13272119958008943 0.33048393355807093 0.23011164831989106
0.2965818502512434 0.3001597237036435 0.23288068933086947
-0.09020948884335667 0.3210776527673147 0.33749016568776824
0.3517869100606674 0.3250409411060673 0.20783011716982003
0.32828563055718973 0.15458734802516005 0.060617202888110455
0.601962309642218 0.17984293114102456 0.204418246741227
0.3574854084825745 0.2279965989946504 0.14935458721319606
-0.24243349378141943 0.4334488192757391 0.3864475025302738
0.3461716641186854 0.2270515859577813 0.14057998124066273
0.3553127919303165 0.22359728191702288 0.14709535027037646
0.43213540667750294 0.2119250847999865 0.14381322826184828
0.4200850925678452 0.2070736266003621 0.1599951503172008
0.34329721786136247 0.27478982616622716 0.08530598681829815
-0.12307113685537274 0.3150702764160229 0.3478648003983551
0.3940652092407504 0.4726794090299222 0.33970885209629387
0.37657255399818723 0.27083997596464826 0.21354457629581702
0.401497978199302 0.2624375031753914 0.19566121612231768
0.3335814909128487 0.22237569262510704 0.14216971953075586
0.39110332909673673 0.22522577087647733 0.16224509814091448
0.023263256187078696 0.3109283108573777 0.2313690261966883
0.3901951180089327 0.19142166066322375 0.12138877388568403
-0.11097616073689665 0.2834167030978705 0.3911888383369728
0.4018180142815453 0.18948829329789874 0.12463620887493221
-0.2393722478308007 0.3465037338851289 0.4392608079622704
0.29408558307684984 0.25768627992309234 0.14685796594807243
0.08995281470453165 0.3180041869431136 0.30095630685215724
0.43842996406959855 0.22303631832824067 0.17704712924643218
-0.11093256195132994 0.3296152939023358 0.38666113118193834
0.3684000334651216 0.16886399931189544 0.098430512513346
0.09710125942379477 0.2881958571637 0.2580455254370406
-0.09869219827010056 0.3463461222199129 0.381492108443382
0.4057545194419845 0.269947160022852 0.160130439492562
0.0034880975811546477 0.29774992025178904 0.3310829735988534
0.38373132302827173 0.2478703731106009 0.15915519117686472
0.4247203448860546 0.27036663315669784 0.16987453094202465
0.3699359490974814 0.24377875384075764 0.1622409899596846
0.295687950877209 0.27818983228985417 0.19862893959844996
0.3926231559312612 0.2426859165378943 0.16287621462319635
0.32645691677021205 0.3390928837048648 0.2385646377276771
-0.26644933585254194 0.31945204540923555 0.5107433621917892
0.409436269142077 0.2573525032004369 0.16836441453475004
0.36887331757725406 0.265125333275563 0.16870859284128414
0.24723275641748899 0.358817268633004 0.1838878044577541
0.6003119766992171 0.17372690522941525 0.18637060786045367
0.3499017526837491 0.19760377951325836 0.1156675644823082
0.35005643462818625 0.16674136513174176 0.09649729156595299
0.4582813071213536 0.12250074133970656 0.09743074308391897
-0.06463709762539338 0.346610529829519 0.33694281008394
-0.1282888476447681 0.33096616188129246 0.35400291846700327
0.32476528439022445 0.3545291280280196 0.22498688059906158
-0.04156344172719173 0.37948529254812513 0.394168523557056
0.40300600777604245 0.1289857572493105 0.09211083763381112
0.40412322574445625 0.2781642856823794 0.22851222878082922
-0.13901255226119247 0.2995494225118165 0.4035715712080048
0.3299800320870929 0.23020884527366547 0.08709938989802879
0.25983845501556857 0.32714829380863364 0.24487622279349353
0.37051981399443434 0.24531640394204146 0.18332730104994255
0.3174365804358814 0.2676768518485346 0.18749655429490986
-0.11038178793349118 0.2918275861840982 0.34540897094277057
-0.20391384257607115 0.3458229046037218 0.45862037659699695
0.3677966942923945 0.2504128695595398 0.14631248674704977
0.48354235506289456 0.6827394811603824 0.3285809275957803
0.09361300846993004 0.35940925048055306 0.33704629654008045
-0.10274323403042729 0.3427486952616903 0.31768392683540014
-0.07509813324170977 0.31824999940405974 0.33782807710309726
-0.0706360650823683 0.3572283549923725 0.3484251129712277
-0.08603822597515887 0.277393932843907 0.2881669593832612
0.30623350184522735 0.40509171871249805 0.28970792605034035
0.3804508766014578 0.41817873347926593 0.3226440712491012
0.34619006766713767 0.1947668420439186 -0.06429095398863183
-0.03723450826728936 0.2927792529848148 0.4410101012534824
-0.11010574965197861 0.2571596534969842 0.45621455506105235
0.4569881051612157 -0.461011733949789 0.1920705622797385
0.426600192151966 0.1031579746173179 0.016239999214676004
0.3383088944601411 0.2715067895619967 0.1406796588878052
0.42955854500768 0.136209674596671 0.10325310865653137
0.3808390033186413 0.25006192695676077 0.17041839653066404
0.2830989001141546 0.3554250788718747 0.2776098007067844
-0.09643847490443136 0.3073115261804702 0.38507528706333005
0.39876907496469016 0.2270429738407529 0.13420010336517407
0.37955947122181044 0.25775704101768326 0.16407940212599215
-0.12405629187546197 0.2923817025178437 0.34213986345700675
0.004389035291069376 0.35664919950848173 0.3903508805113489
-0.21583894789895908 0.297986414333991 0.4324537894557636
-0.08901152913128385 0.2931393064557426 0.3616094135428085
0.34932215485966367 0.30255843067899946 0.16386098511992486
0.3398295285725368 0.24858841647710506 0.12089298402955251
-0.11161267396128949 0.32219748048208885 0.3334449857465245
0.55353982707922 0.2289781284376744 0.2516765643619294
0.3091927582688214 0.20203193711802214 0.21354824944609163
0.4558329432920516 0.21542505296622494 0.09390684362315938
0.35372774011224806 0.3145931282601282 0.20350562656857107
0.3774795070218886 0.24745370207773476 0.18434179126808203
0.39811944524797127 0.21424544287576452 0.17615309107895882
0.30895736389564377 0.26768829286996265 0.2419727917069565
0.3277857638204864 0.2908385720285338 0.18233144126276102
0.41076395252054 0.2825542482290331 0.22145476875854797
0.3745729305300358 0.19558447875274965 0.08275923951696029
-0.11614479981238901 0.2938666702249151 0.4216325016714677
0.36928900148771504 0.21456369741875392 0.12422617500729416
0.35312692374628796 0.2526261213135683 0.09576949223976783
0.29138802351390325 0.2903798624558078 0.04776197440290275
0.4271133703152685 0.23073052341993616 0.14773331976229542
0.4412911875821237 0.2628860632772785 0.05158596048610775
-0.2672015723396868 0.36207873586214134 0.4245640401051958
0.6657601508612174 0.161709924630145 0.26828246603506045
0.5774269600155435 0.3024932097417832 0.29597538247591615
0.38811266575086734 0.25316414449036984 0.1323577143940895
-0.1232135192732926 0.3106396759038148 0.45604517384293786
0.41875447483386097 0.17262928734103866 0.08116670667152448
-0.12804564301789867 0.3367044523224507 0.3375778467845407
0.6828704919877993 0.2009422515037329 0.24604108245645762
0.6331881963000683 0.3440835057681113 0.061136848765698915
0.3547620158022653 0.26896111370304254 0.17479416505288725
0.38611140954805023 0.24280794623958002 0.20697465331832632
0.562341346899558 0.048817624216695776 0.05352436004335459
0.40217148335919717 0.057964254339267995 0.07872737544997221
-0.1625901388869977 0.37205341568940753 0.41826429849157876
-0.08112671513596581 0.3491540195398244 0.3681876355820606
-0.0315678151767429 0.2892204569922683 0.32053194089388626
0.3345576652478144 0.2947742301614795 0.14927100261444082
0.3946688350701635 0.2941430714428179 0.18801228249489554
0.2640196496025169 0.2538431554557974 0.28199367939019737
-0.0717693981408587 0.308899001242267 0.26591360592854585
-0.15943431613202108 0.3394349128835472 0.4007615777518936
0.3077222378907578 0.33628672252663705 0.27703341550628124
0.40930903970040333 0.19904819101802218 0.15633330776833532
0.5790601483225544 0.1318477693783393 0.12269036592849147
0.3783767013446493 0.26480071434704655 0.19187382216459525
0.26574335150976935 0.28887835848148313 0.20823773200501705
0.3948619146118233 0.2282128685347118 0.15956683478606237
0.272584687314847 0.40168065061973834 0.23368361876256927
0.3841362002562221 0.2610673449777039 0.17800280302667204
0.40298674460174766 0.1535528248722926 0.08820380479983214
0.5193354437297018 0.1798504200236266 0.03142091430170524
0.4070212774914239 0.28060533737537696 0.2305471445740892
0.3606150164024058 0.25013420159532984 0.18628189226402014
-0.056749449047686085 0.24977951549210786 0.285948033344539
0.3828616953065591 0.37066672366484 0.26968201216399734
0.5314962670206285 0.1875221113767509 0.11958563627564445
0.517401953844228 0.4464369685340728 0.04763351134093341
-0.2681344115198385 0.25976471463458495 0.5080968275668738
0.41597325300449484 0.21808844446778153 0.17657129885579081
0.5087233683359216 0.07286394448043154 0.08434541058072398
0.2308080225932656 0.43946525523418245 0.3615415470568877
0.3520218945502478 0.2537662658172053 0.17445480431376836
0.26581898441672536 0.3007382626605306 0.05332116293094202
0.33884973195173984 0.2501356093948033 0.08292929120901249
-0.08595371126614282 0.31842523208065643 0.35126732424478746
0.2328188703634737 0.3750350627510812 0.22477745318363418
-0.17001580952313589 0.366170305413263 0.28041880387127094
0.33660141508781294 0.2518856263016147 0.1571247932014046
0.36140440849310096 0.24065069699037167 0.18301917215254093
0.2678285077878684 0.35153058822848493 0.14594743406397015
0.4077732149656583 0.3314999239788108 0.1963750912788953
0.3690119426954084 0.24091103916558154 0.13935426000293205
-0.06140692567799988 0.35108227199822295 0.25378366520473605
0.02118865044008089 0.31790047483947603 0.2918871267361709
0.3793034757546536 0.2792356211186018 0.1829202701016328
0.4052372223320333 0.3561682250858951 0.3129980878567835
0.3844495505012162 0.24413137960674192 0.1671916201065926
-0.15118581048147917 0.3232820079630727 0.4463580078019618
0.4149902415079936 0.4603580612946132 0.13963273704007406
-0.039505959862268014 0.3846643113621866 0.2591003861548984
0.35657043155461565 0.20682032327943034 0.07005833867754063
-0.10349028803756255 0.3580525976531135 0.34641847230440703
0.3577259114978517 0.25030704252577607 0.15743409462172053
0.3770013270930974 0.24456948923103994 0.14080530787965984
0.14594515397088514 0.4090831901769718 0.2722047017555127
0.3962145273117841 0.39464071738996154 0.3531027885785534
0.3315314979384141 0.2764966862549585 0.12965113140549533
0.3522855372513902 0.22701692131026618 0.12250119930217807
0.3728236686146005 0.25500888108548736 -0.06529836244241949
0.013668019289980293 0.2345061377390607 0.4262713378820848
0.33625471239307103 0.3012306295576792 0.20196184329090272
0.4052480153098088 0.21010652214843617 0.14825060065700768
0.3734534730610335 0.46901241015530104 0.43683263264760797
0.39554607577967715 0.21572857483371877 0.16551002590935582
0.41082749972626686 0.20564414805221531 0.17330612525387323
0.37213929160748194 0.27479903709556197 0.19234335495200128
0.4649016169655056 0.06525776355101698 -0.13898131458196872
0.3843457488686397 0.3385197585256492 0.2038466460858217
0.3755223324896946 0.20458329790669438 0.13149116229618585
-0.2929528097042464 0.2553368477570359 0.0689711675766489
-0.07010761715946501 0.3534505570669353 0.3517044487918355
0.4235961454887729 0.16202168335257738 0.03111893558056522
-0.1623658850181755 0.30638082806362377 0.3796681565375337
0.37240954597297105 0.22144601021921062 0.1351948734877908
0.42722097507294166 0.1822302699588647 0.05859313880198158
0.5501160785896673 0.10827304460951837 0.14240951227446885
0.28223257133450375 0.3594774548046473 0.16144020285494776
-0.006637557329312926 0.3443902288981633 0.28614097470557454
0.3878410048561989 0.2415107641551657 0.15320785752325605
0.3844502202637017 0.23372247222835085 0.13331080682812058
0.21468427521583067 0.24690481941760822 -0.01729422431914429
-0.10402129836016627 0.34218948442938313 0.42072747720223447
0.39997209022959623 0.1738482064425 0.16600066927526314
0.3463117726899725 0.1840720415291912 0.11679879270812421
0.3920945388694008 0.2086628265667514 0.12945860657919184
0.36232331125201256 0.29917403789144714 0.2031912236109008
0.4484420658924364 0.23418534198869168 0.12103482783629715
-0.054202615702962476 0.34220062482529556 0.3191725045530376
0.3510446875885407 0.2835549801971524 0.1461290093129861
0.5625702159884014 0.16446039398721268 0.16479002043234914
-0.08541028779650617 0.39016200300271464 0.402216213752979
-0.05630846523722255 0.3481619446041293 0.30465853796496845
-0.08015588523753081 0.32530605848768346 0.3458836838067896
0.380125728380591 0.22427567738952803 0.16383616702721326
0.2583056413864995 0.23225809959865273 0.031932248881815894
0.3559940676078668 0.2451816224924812 0.15195306418793564
0.35868323235996513 0.2647947856608539 0.17581688786330574
0.2284058365946322 0.3772876510307981 0.3464209944598906
-0.15271860485458433 0.2778750956316429 0.3624463638116424
0.3242940354912207 0.4057928399786306 0.09098350123693422
0.3630664491188753 0.25146582465414724 0.15399788946345438
0.2551079492641577 0.20320892659347578 0.24688655999794662
-0.09177912177737824 0.3116787231365521 0.33841779054236554
0.3108757137731999 0.2743001354477599 0.21274607462014217
0.3221442437415192 0.3162393098779859 0.2029017250150673
0.38393944043285444 0.24532207829953734 0.15874592348717442
0.47498036118415143 0.23740210365978953 0.11753029900356182
0.41735641613183816 0.26030090299606456 0.14620228166218396
0.44188377674339563 0.34030884144982565 0.13919596133118262
0.010228072999666438 0.3662437310125597 0.2864042988642268
0.5318760481527534 0.5911719282298549 0.49242191486635534
0.4201628332519931 0.16155574594759514 0.10921992920759749
-0.16953398993263136 0.31140375821817656 0.5044438405489302
0.3682564213556958 0.24349464928201314 0.1838422417838217
0.3244730797749895 0.3066830126185778 0.26510567717775757
0.35489383206029856 0.2745683445338756 0.202394561810749
0.3606683304159475 0.23945430980437266 0.23062924037949983
0.6480586704211646 0.07639790583647255 0.1755856592286591
0.11924563112509645 0.3638261405274932 0.29304876943275815
0.3128160793581003 0.30643651050489495 0.1689345910119755
0.3993402548074556 0.15583715295096567 0.02259482429747095
0.3775301796698898 0.2570531059800487 0.16957320262379483
0.5102649848107887 0.1656257928519267 0.24656881753725202
0.38109444570372375 0.24209562448743327 0.1560442341535122
0.26414521654987766 0.28914101761863265 0.08232609377240863
0.3181573857691262 0.35713981858438615 0.22648999235966016
0.33697165938366425 0.38441130712851646 0.22646940237979152
0.40083496660270157 0.2555591854474244 0.1557295029367083
0.2729648855128062 0.384664494883765 0.22608744182426221
0.331195531738814 0.37172290691566445 0.2335294313726024
-0.06922110721941976 0.3327456354342928 0.35498005424724965
0.4114272300234916 0.2180311939721662 0.18799831194334615
-0.20326879294293576 0.30758113179177826 0.47020247952873717
0.316788132276244 0.35944316083131866 0.2559092042453841
0.42572685055336024 0.2137948356766799 0.1926046635304175
-0.15257224229233657 0.3150155288538059 0.37597282534113674
0.43150775245422324 0.2485850338033515 0.2252344674804334
0.3862260589089601 0.30694753854960766 0.18341148272573093
0.41837903776735175 0.2184944919386993 0.13307122936132032
0.4057137812503413 0.3028061247108269 0.26114955415732766
0.6127139325601263 0.3906268082905342 0.37924600230819294
0.2835864700181503 0.13606868735513444 0.024606795617899024
-0.13217462992844276 0.2952665319360648 0.39453584679606024
0.5505415015584134 0.10441326358319714 0.12072600809918299
-0.07151848279868034 0.8822566212242577 -0.08032863065213292
0.39288010120284866 0.28416296449789513 0.17398957435634088
-0.22027282278830285 0.18782078173907735 0.42926120893301345
-0.04471705526114533 0.3277436410353971 0.3072829800588863
0.5392463095389957 0.14089194239252834 0.1069974114456187
0.18497008514430036 0.5214044675365983 0.16301950330350223
0.42257757779458416 0.2233433867858423 0.22739400344744354
0.3898712049692392 0.25816683472962154 0.15147335243923976
0.33999687055435857 0.04954041445554935 0.2287028810314098
