# .PCD v0.7 - Point Cloud Data file format
VERSION .7
FIELDS x y z
SIZE 4 4 4 
TYPE F F F 
COUNT 1 1 1 
WIDTH 801
HEIGHT 1 
VIEWPOINT 0 0 0 1 0 0 0 
POINTS 801
DATA ascii 
0.6168241607090721 0.21143749670576995 -0.05745507169068276
0.4865364561110823 0.16165446004680462 -0.08069342421750036
0.48727101869867795 0.17200844392483816 -0.08200865275196634
0.5101093387824562 0.18234576373698985 -0.07693679516357577
0.4793883026621728 0.12418907078820496 -0.12688419855219024
0.5248565259871469 0.1413518994046683 -0.11497955388060177
0.5509037851095542 0.1503698317027471 -0.1513567786292498
0.4527944247590341 0.14372918372968968 -0.08309981162936708
0.5504664124913035 0.1634555665971078 -0.09550008342922922
0.5125364402250483 0.08740850885962459 -0.20764250397678552
0.6194640180420237 0.2465291193017265 -0.09194880903038438
0.5255522867517755 0.18682034483062182 -0.12605234364539797
0.5968567321438911 0.1490337718660868 -0.16248313335600528
0.5795847423540579 0.1519606351683649 -0.07654447633724715
0.5715406675337675 0.22293064415543995 -0.053601380487023675
0.5978339933572983 0.1755408840247128 -0.10384449460319445
0.529418078051151 0.07771297695425972 -0.2172346814618038
0.5777186803568384 0.08736965104533567 -0.14926528382768822
0.49079366443514516 0.18674430623332228 -0.08957173384537498
0.4880303015574441 0.1840958756618818 -0.105632245629252
0.5666126561370675 0.1792885566888316 -0.07781830435855852
0.6538979433360623 0.23335663736958168 -0.05161352447414913
0.517301193562659 0.12515545511013215 -0.150246917196597
0.40716811517481233 0.330325281432323 -0.16229233419988986
0.4862302209031242 0.17490418577403943 -0.07583346728185347
0.5968339046728346 0.18568109244178288 -0.0781660169164553
0.4610241816827454 0.09308047735055425 -0.14640961660266782
0.5855376191293828 0.1803297667821937 -0.08329552615442992
0.554891184853588 0.16347172270761234 -0.1806168944701767
0.48415001739215313 0.21555959445690576 -0.09298252657139017
0.5376746400172152 0.13164940643746093 -0.17393522130380745
0.48528160740832504 0.14963010746332372 -0.09757525178532944
0.5050028402813069 0.18130290059760057 -0.03234522834611653
0.5551369858515045 0.16300846087999332 -0.11155453987171882
0.49702134549208665 0.10719397114310425 -0.14669671712896104
0.5505852380763514 -0.03703137550810709 -0.38733305655635775
0.4994435404751556 0.19095846960391327 -0.08643011808233325
0.5630767206771878 0.13467927534628643 -0.1613674227332922
0.48828745766930126 0.07985664378013269 -0.13807497624095788
0.6024441959415441 0.21522822267459674 -0.0842204391115331
0.3601888921563159 -0.36104942663133954 0.14193993129292437
0.5760443384137659 0.21896559143038985 -0.08341808304696485
0.5346406802601393 0.15872592844695532 -0.09177274888450881
0.4956503194694335 0.19384818855392894 -0.04232605612219231
0.5536685116559994 0.1566951812303472 -0.041256704195376415
0.4909173883048794 0.14234471469274013 -0.11518702409493642
0.6327609710300521 0.2070831625177476 -0.10784568603298794
0.5599466276016614 0.09199772588154076 -0.2195894165622434
0.633003048481072 0.17301142482905618 -0.12252481773840884
0.5448643291718724 0.15421542246461684 -0.12921642780324305
0.5204793154128566 0.24229830429904098 -0.11042021834515481
0.567726707470257 0.16435293759043645 -0.1333424830108214
0.733764283138882 0.22361697815166792 -0.13545547761239618
0.4862327497325083 0.15186509031603634 -0.13417863646570538
0.636883039146042 0.1183413437973968 -0.23355894488486229
0.38533004779932867 0.24006554805650637 0.07197352618108255
0.43171122154718944 0.13943704384311673 -0.0533941357164025
0.5280820271713367 0.1506887496837095 -0.13281459372527138
0.5754008873133643 0.10071083188535113 -0.1812247012337167
0.5228101845450368 0.15069739739614363 -0.11532703709411862
0.5214995840112095 0.18335818603357268 -0.08904246391423953
0.6418332913112863 0.03609120417688416 -0.15070267577991103
0.5728360940719881 0.17642648843450104 -0.11591467799698307
0.5457869484164064 0.2355440716190884 -0.11823168409928542
0.5145571798526447 0.21509101942173459 -0.015811777937912552
0.4881616072389221 0.19254314614717316 -0.07403943007309977
0.3248678105685059 0.03420053331016959 -0.1129822506040341
0.47570615598904453 0.18124970941900642 -0.09582584066866673
0.5518749234347382 0.24143379507344775 -0.08704850711271206
0.585203050966058 0.10277844676157599 -0.2564647337915318
0.5234746104243726 0.20583281997443237 -0.05067577905806786
0.3818749591465149 0.010633651728824134 -0.07114008618104606
0.6072041313558003 0.16076147646319328 -0.11047537389504214
0.5938565620617027 0.21981256454391485 -0.056673936968635985
0.4539121561969779 0.1977591369514471 -0.042139306868278936
0.6404975424566715 0.19282808791724904 0.01634692665177795
0.5206156663923167 0.1147636252659936 -0.0973504914263259
0.5148381109000866 0.17413404162329016 -0.09367414387568829
0.5489404523402186 0.12701866922536453 -0.13620736260935473
0.56466645516889 0.028708622874205503 -0.13647388801945226
0.5526649075604979 -0.054390976751577114 -0.19478531729649262
0.42358822980290256 0.12364147194762154 -0.03441401944689915
0.5124621679775885 0.18020083123494146 -0.06368956459026265
0.5907364432102185 0.20063367262740428 -0.079862364126015
0.6468221615207455 0.054553971976503135 -0.1483081945745397
0.5501518386591187 0.16810396794026872 -0.07638518235015113
0.5973747037030108 0.18853509741897767 -0.07936257801239321
0.45897182175470164 0.2071821751360261 0.00962020384048401
0.5608753255421846 0.18459449117018778 -0.09654518725143646
0.5812657344338987 0.19891201528258762 -0.0944856129783318
0.5013557332557212 0.12334058951677207 -0.1218576801935285
0.472969931610038 0.10388311353281665 -0.18602684500741873
0.5270484018699051 0.150888980250258 -0.10718336212082136
0.47591415517979385 0.23369894857974316 -0.07530702439598258
0.5281765946836998 0.1390423259901894 -0.1459658705931588
0.5166132127005199 0.1604372082966421 -0.09368691501961735
0.6184441240928749 0.2469624799699517 0.015217727672208525
0.49481559933610697 0.13143508459211262 -0.10945312795119833
0.5757406297679637 -0.04432542341756118 -0.22039592119963913
0.5340235017019381 0.2209359701489717 -0.011284237069972392
0.5265931424912651 0.23858854953373054 -0.05474018882915743
0.5128822293106055 0.17573370896641904 -0.047762849276068664
0.510661615376037 0.1306860106134735 -0.21538358164650617
0.5679118763594744 0.18155857036001066 -0.06516549855527387
-5.797019002742786 4.979732210211978 14.015337933197031
0.5035150586679578 0.22176339337769946 -0.02793428246023666
0.49033437786795275 0.16347952600747817 -0.0893335541130682
0.5597039852564905 0.1636127554668576 -0.14654581431031488
0.5466344833241976 0.09963706856930798 -0.1567910534469803
0.5536467718724793 0.17167949595939547 -0.10512144231636
0.5468992220578457 0.12201776277147758 -0.1592797256148657
0.524522558277198 0.14423635054994577 -0.08699617544706939
0.5870446365386357 0.20111409684587045 -0.09075061321570388
0.583379194505099 0.11900590433883451 -0.09240539018699678
0.5276063185740867 0.13289797599466624 -0.14579015207367263
6.030170233039655 3.1513047918672896 4.568702161451597
0.5694431944131395 0.20991903738531903 -0.10092482070479036
0.5324006975560422 0.15509725915298134 -0.08362835274139968
0.4858245137394448 0.14069855388686392 -0.09135595112553574
0.5391127297922225 0.2721795873956836 -0.03652695428307595
0.4664502434886231 0.1533193878130703 -0.04491189626178027
0.5386278340296826 0.14248099677664072 -0.053623831156983215
0.5865577955019319 0.18725845895878024 -0.14343817674949833
0.5940869648648288 0.21884596771991482 -0.08399182760882695
0.5411113224102735 0.14887133681800435 -0.07144142387129193
0.5133450800039299 0.17484855129116283 -0.10080033037523606
0.4903537742352313 0.12793077768564842 -0.12215651424077123
0.5200405363632825 0.1501044153786779 -0.09368675430791029
0.32289505414297537 0.2922048852812509 0.0708808377036263
0.5630106009211744 0.11958085222094894 -0.17952364043669888
0.6025627805023817 0.1900189358494515 -0.09582615282489826
0.4306061425410235 0.16069190053912052 -0.04739706634343577
0.4532574951440296 0.11063239770682287 -0.1114679986292515
0.5520825047020708 0.15116227166221563 -0.09932226162671043
0.5092986581050809 0.17424612694152586 -0.07238794760783662
0.4228787869613626 0.1410090357424707 -0.09515348243876076
0.5855077156443969 0.18177623969522472 -0.11616135524013771
0.5211023756595239 0.13897559740358645 -0.11919154851727853
0.5786175523992796 0.17293326106700135 -0.1024173892821949
0.6072921682288808 0.19095324778432143 -0.040404262469039054
1.0916370722942332 0.06420165199905625 -0.22861466727850654
0.6538332597331333 0.07694393246535469 -0.17096188202766882
0.49832104288020673 0.13549109518093871 -0.1127094342337358
0.5257335825784537 0.1447132459474716 -0.09404966548528648
0.5675386446435908 0.157603089692671 -0.09075897598447114
0.5657290601283336 0.13871405444575657 -0.11019537233543986
0.5451490853004657 0.18241894943406578 -0.055808067129760275
0.8121016586826926 0.12231401848286794 -0.4901150689012752
0.5591288079255463 0.16814262143158487 -0.08695518137760416
0.5459043942656621 0.11055109467993418 -0.18714842807303
0.5100833894055228 0.14583183902959718 -0.10849011632431882
0.5727422533394133 0.16957534548593856 -0.16313906659729582
0.5066825065932647 0.11004535264612514 -0.12384933400359444
0.5440316816289084 0.1166585907458284 -0.12111705236208081
0.5556404954499499 0.09571460196414705 -0.07588340875129518
0.5228142719076487 0.14551658896867536 -0.09957708912206442
0.5623933680051607 0.19487954739354052 -0.08332350698015034
0.5126786812200095 0.14515408642185434 -0.11161744120470019
0.5351525241180468 0.1409092091824249 -0.13149637806556314
0.5054956615872754 0.10730397161889016 -0.1090244541880736
0.5673379362224011 0.13979283877324633 -0.120560139276364
0.5226835548715343 0.13345371173613785 -0.10775929290912245
0.5437986075811665 0.19945336056223084 -0.07694888139708667
0.45938187976318545 0.03391871370514821 -0.11703958432447337
0.49142768021745553 0.0783374128265848 -0.5139723624778441
0.46352586442381494 0.041499723508763964 -0.18196933068510646
0.540245473408504 0.18503931753019742 -0.08128675263618845
0.5300678575940481 0.15712442481381572 -0.1197974841404772
0.5166912159217958 0.1536983161053911 -0.1010829547403489
0.47960321901200587 0.40225231277094053 -0.13034457623085416
0.44703149002671694 0.28220192844440817 0.029165282335782194
0.517729464221361 0.16061048665974909 -0.10548485333971769
0.4372521572008594 0.14176445754613098 -0.1218468031825779
0.5403232264950475 0.17682481277584827 -0.07978189614682663
0.43225113120010406 0.24676668986057848 0.06584308270788597
0.533953718777795 0.18264207832635293 -0.06768903317259856
0.5982643090368356 0.19539222103124132 -0.10540737080945917
0.45943191516826687 0.14430467410646486 -0.07089837028144075
0.5423946694968862 0.16508684412112018 -0.1018706061223611
0.5441316805006693 0.13288098336046517 -0.12345243569073716
0.544891573633123 0.16305858970946474 -0.13633831240792915
0.5512983944098977 0.17611094683853423 -0.12278272928318756
0.543445126960151 0.18244684848522752 -0.07774152435096937
1.2650343832045365 0.5661998085823825 -0.17508172625042562
0.5730577344127283 0.2322253460561967 -0.10140922161589572
0.5063591187947907 0.2035152073716091 -0.08053659283426384
0.5463314417434475 0.17219735870342845 -0.07670723013526981
0.5069189807684751 0.20592330483461296 -0.041593526209396714
0.5888660834689574 0.1612863949325174 -0.1033406636737908
0.5709293060818936 0.18497978824973416 -0.17772544799683487
0.5494378449402149 0.39646881784970844 0.003714462062461621
0.495426601303933 0.15963218555029357 -0.03993409201045495
0.46558854730476185 0.1123437315202267 -0.13516013059705756
0.4600105631226512 0.16422548497314438 -0.05837722507838805
0.41159764959569145 0.13789681861713632 -0.1414572775802867
0.4933847227282655 0.16640483598482092 -0.10061362173247801
0.5100301377323291 0.15717422170223472 -0.1105306671214521
0.5419755849770524 0.14315071535820323 -0.07971354251132823
0.5717287991892732 0.1809667148191494 -0.1807894176901783
0.5130429245873387 0.1856550662701153 -0.061616477319986984
0.5514121606860272 0.14723932170387855 -0.20371184148761756
0.5423766672384289 0.1679497609918741 -0.09512085281374993
0.47432606253575216 0.18838990914882459 -0.13537358325498872
0.5359738101520861 0.1815973494365437 -0.07406858822844242
0.5695392813413491 0.2050866136479641 -0.07749420087861836
0.5889709565610559 0.15496860020408576 -0.13315981135323796
0.5405749241699738 0.16916618249835835 -0.0809301151316788
0.5605645231641461 0.14979843298048934 -0.1278318181992404
0.5578127371869073 0.16064232472194817 -0.0799238345247204
0.6083814718357274 0.08494317909563165 -0.21784175743823653
0.513109971665429 0.1697767149575924 -0.04105009188283759
0.4866493134610863 0.13501615884145224 -0.07276102491246661
0.5453911375908405 0.20474048713893467 -0.06555813902124896
0.5855585170386348 0.15032610624831477 -0.14394872591610408
0.539863979335621 0.18881539826654148 -0.07147833635362133
0.5462217935619975 0.18136066012522178 -0.13068226738819533
0.47172090976198433 0.10644641213956163 -0.19581048351444963
0.5803153538828525 0.18067745630840193 -0.1252555536690636
0.5318102956294979 0.1485820029131446 -0.1312665165249598
0.5559823406305782 0.23077404937070867 0.007184922535316218
0.7312860466671509 0.8590843178794643 -0.3711476380880896
0.5639626712294472 0.20295926645147233 -0.11663239342720999
0.5731399461844404 0.1444169764013452 -0.1608584806324984
0.48999238096179454 0.025116180902571728 -0.18370147243921053
0.507132112896997 0.12281240946826699 -0.10436865456733813
0.5637018336817903 0.2136378831318524 -0.08448481558860976
0.5980592879926547 0.17962600790146155 -0.11625829480429672
0.4402142401197864 0.1025043676906705 -0.12075146780603063
0.5076556787978461 0.13388667709192248 -0.12960790329654515
0.5032346240118102 0.14819672014765217 -0.14492889560489175
0.5180104082124046 0.23112615171237394 -0.011521424017630011
0.45143644019259455 0.18045538990385523 -0.06006424799869592
0.53518205583525 0.12948725344267586 -0.13870268655043105
0.4965502696513937 0.12524168295566085 -0.10801052583447301
0.4864195417362396 0.11907209802306795 -0.04214741050954274
0.5775857111452893 0.19204970621039763 -0.06275545152884376
0.5419943478006104 0.16681971659174621 -0.03901599104726472
0.49887479728239725 0.12512551138530625 0.05787656946827724
0.5175188689198791 0.19530438247855386 -0.10736119142804057
0.51933312724762 0.1506365121991422 -0.08853531676659543
0.45525781091163253 0.13574741233638576 -0.1872635008014072
0.5400293553151414 0.16528267425650256 -0.09034174467895184
0.5553026764049775 0.1326402541137668 -0.14311087392518118
0.5817361642317138 1.3029372957450818 1.255027845849085
0.48262636194776576 0.17567239087806286 -0.13452009964707656
0.6669784971259674 0.26347887913799184 -0.10389676344831855
0.4844733726635866 0.11820983620559389 -0.11394231806308142
0.5186809758666868 0.15584510797535245 -0.12270026881073193
0.43645569258193007 0.07761620604007646 -0.10378577556987523
0.4683917398374149 0.13036098301358834 -0.1575898250175385
0.5672564609770774 0.21459747400029983 -0.04407074563386004
0.4831968197283345 0.18543117844498624 -0.07460572190194625
0.5248822697780895 0.17045809414133828 -0.09158918591178633
0.5262943932135471 0.14051576902248542 -0.08155399197215729
0.5394035377628654 0.17750450036973575 -0.08103277327080605
0.44616330524712566 0.22270510634646712 -0.04718685812807166
0.504851701621746 0.1370328068956752 -0.07682721204585619
0.526889190292593 0.15539590401101577 -0.0945691384252001
0.5872665520838893 0.20659668010088694 -0.017916012496669964
0.5942507632410639 0.26152597629504726 -0.04747205611218419
0.523212065908254 0.1622679131155138 -0.10080902944929448
0.5335021568028822 0.15997182618751538 -0.12009767579111497
0.6038283853250306 0.10869609026383387 -0.13847237975093662
0.5232417496046082 0.0967875286799682 -0.16264665504454
0.5174474731945082 0.17403962152292252 -0.0937198210554584
0.4992709569330316 0.17155337911860613 -0.09846365132275992
0.574233186613796 0.24038521411188185 -0.03747564212862642
0.43766969423501223 0.052315777756348325 -0.15970837849900477
0.5820985005033634 0.15376495515246802 -0.12923175146367782
0.5108086030163008 0.17861680957422266 -0.048799695722181013
0.5469772505162354 0.19583870010121984 -0.07969355500171105
0.4860157207212552 0.13273989716417134 -0.09469747564924091
0.6272080445947239 -0.12082653512015895 -0.023498230269652254
0.6460268593979492 0.2023759061282533 -0.08258694424621638
0.4808086481500027 0.1441687383806851 -0.006836780034802814
0.5352201622887378 0.21576262880094532 -0.16334372990887402
0.5169261839184003 0.16558063859682193 -0.0886182328225118
0.5661452573359185 0.22755177255832848 -0.0783692759457324
0.5211323378330945 0.09758182313230179 -0.25115524628456853
0.5415394832229055 0.15021054707241888 -0.1184613045774654
0.5086708619320461 0.16278591415094468 -0.07642250144331797
0.5203725328385076 0.13546088865047068 -0.12958835052143058
0.5874870535643595 0.13397566712086473 -0.11975018013042416
0.4817360723198618 0.11180565762467154 -0.09846046613513693
0.5633770264185074 0.17661481983262206 -0.1198272057050076
0.5618031411463562 0.12575999920150593 -0.1338793868055035
0.5951149512622607 0.22055686782495343 -0.09159770947589152
0.6063377523094289 0.10002320946190935 -0.2663543183102348
0.6765306888131875 0.09690163050811407 -0.20097923440152954
0.6041073325704076 0.20031689639927208 -0.0634748786742847
0.547975856067481 0.19834747896523197 -0.06226156569063335
0.44103417710149984 0.08916188074788067 -0.11647502141708799
0.6307186481537173 0.18879811562977977 -0.08602083653661907
0.5321145729768233 0.11873872564385124 -0.1299842828036617
0.5248719003604947 0.14308917568180846 -0.13224100844880127
0.5563459989050443 0.1908710270638636 -0.12962510267942662
0.499771026678701 0.18079396049731145 -0.05033832467725574
0.5949568703278203 0.15919874920723487 -0.14803409281533675
0.5248129420051981 0.1216540528529606 -0.10004623187325024
0.46018952936702817 0.10019342423485966 -0.10071779924390967
0.45402867160854044 0.12741444684601788 -0.07687703987362227
0.7649723730130233 0.09497211102041092 -0.07104413501033946
0.5430978895983571 0.18518424393496957 -0.07921252320711858
0.520095405541511 0.11068932156958056 -0.141636298536568
0.5031224371337686 0.1400740457777232 0.008338239279169102
0.4769109004522534 0.14503261072428586 -0.08937053288487107
0.5443699178072592 0.11460686430298495 -0.13743652184537325
0.4673179091865478 0.17351446118851754 -0.1847149065092708
0.5200757578417523 0.16706228127914358 -0.05689814275081062
0.4334608484830227 0.19095754815612054 0.05686641478153831
0.4662703935672141 0.16367929280806948 -0.05991200700306365
0.5231221080602353 0.19846956781451297 -0.046911600864248726
0.4162929578032646 0.1230726483983915 -0.11524168094530296
0.47570634831417635 0.11793421622000722 -0.15766498033062248
0.5160706314317878 0.1702974536984243 -0.0599404257896623
0.5006975659565853 0.17193757684421485 -0.06958791845161727
0.5476588345566142 0.1644996589879355 -0.12143549457151437
0.4434541443695963 0.16328798338975048 -0.0581997970415955
0.5192767172286352 0.17809391680471265 -0.05275250172269352
0.5189807324918974 0.15423945293079555 -0.11362468055371266
0.6447767861211844 0.26595956711894075 -0.49218424519152393
0.5465837619162386 0.10536154204669401 -0.19829093713320844
0.511296548951961 0.191150419851013 -0.091653716616662
0.5417525126657665 0.18577576574774923 -0.06746665286931375
0.5474089837214251 0.16311518804413083 -0.09451625168563282
0.4475333922008815 0.10655062882969446 -0.11731031985927132
0.5056152708561541 0.1873805008119973 -0.043900482101406624
0.5183666224449155 0.1574481159450869 -0.10322673603428711
0.5257967685368925 0.14279682176335484 -0.10427481528735427
0.4145919502242492 0.10569866138199302 -0.13924095168644612
0.5845601459371892 0.1968211100527668 -0.09964834671988854
0.6063063020801565 0.18653447645496612 -0.1274476546179386
0.46463761782807467 0.11643143710689685 -0.17566694859293364
0.4456308795387116 0.12060370828451994 -0.13427574453544366
0.5320435307786937 0.13837811760190277 -0.11200637691412396
0.4606871229590297 0.17307465886749185 -0.052064996714250356
0.4540733197467972 0.12703722668621253 -0.07917702158228224
0.5905483274043632 0.15122128410993696 -0.12618948282454312
0.4712451231939099 0.14901909896457255 -0.036694878128187725
0.6492836244192404 0.18110253755173744 -0.06279400213442443
0.5530650372738108 0.14556198861053815 -0.18862566555145577
0.4592514720638121 0.1391389725506258 -0.08958163754229531
0.5515545940720727 0.17699443306175056 -0.08810315113899492
0.5569538712096431 0.17024361845312797 -0.12761930355046047
0.5808055439956377 0.06917731110046077 -0.23497305972432514
0.5336951058465615 0.16680058760906036 -0.10322812683386928
0.5348398435400128 0.1722028708924057 -0.12417712948494852
0.43541222070763297 0.1220726277210673 -0.09934980682936612
0.5144812159645937 0.24439926024221847 -0.04496443625662039
0.5308227766055609 0.17334892179736983 -0.029937057280349677
0.5290330657560105 0.15738364992792242 -0.11292187115249419
0.4748055078827491 0.14449556261983787 -0.09939208195581273
0.5435300136970369 0.17677726359181634 -0.09133419421924316
0.5534938099192033 0.10056754980907101 -0.14668465781980444
0.45157706362152794 0.049446547812891595 -0.1108566085192848
0.5332802757417596 0.19080439862626974 -0.031777999143329794
0.624138728433735 0.20731042460316473 -0.12486784109364635
0.5316481929396843 0.15240660154478292 -0.1339653628274391
0.5548948621873677 0.1452858382509845 -0.10703013629125735
0.5064175809152118 0.18406816586013974 -0.06245169071159751
0.5526898536277969 0.15692179294570963 -0.06859303911066661
0.5394870974684096 0.15851120685771036 -0.1253493314293621
0.5641043080959918 0.20689981775815625 -0.0664730549812731
0.654240621514063 0.2711321862622782 -0.20990085826799998
0.51500510021053 0.175664028491596 -0.07149950770802604
0.5425464979049934 0.12199906563388652 -0.1787291882504718
0.4767884533335831 0.11415670113353826 -0.1019449881713399
0.5088904349376691 0.11238965743575591 -0.11550477456192709
0.6000126326506177 0.1725025113236569 -0.09413997448834266
0.49473857187216197 0.20835229417136247 -0.04635382641232866
0.5932504993161842 0.16471296380730394 -0.09621236240954545
0.6161623058220016 0.22229339224939793 -0.09876145930533653
0.5875025138511347 0.18907451383542195 -0.11841184759707346
0.4792851580438793 0.15683671151982992 -0.08892926390878131
0.4557269419773604 0.10666978462076315 -0.11214074824144404
0.6345042931660032 0.09518334066437717 -0.056323347958013414
0.5307854608206242 0.15689021125065494 -0.09586641506351157
0.591607596703895 0.1816867821717807 -0.10084676230081868
0.5909535057304538 0.24801723394848807 -0.10160280761058971
0.5262188674605 0.15323776758280871 -0.0659136546642145
0.5293138110268956 0.09677515321496344 -0.16363006242667666
0.6044843507183089 0.13624347831263606 -0.12231220340719062
0.650279082207561 0.1502848954488769 -0.061042042161957966
0.5417510076587178 0.15837679972213436 -0.10543264870688063
0.592018937362127 0.18449573876279146 -0.10434995602133768
0.5176102062990537 0.14889293287146188 -0.10809482316599883
0.535473332292085 0.16630760214262352 -0.09783742674471796
0.6105349164673441 -0.14914383899645145 -0.21073487817589864
0.5456905586750906 0.15506540546775227 -0.09779456820415078
0.526698688991786 0.1648485293720512 -0.09713003255907893
0.5720626998144525 0.20868565818521745 -0.09132877705428655
0.5319856048328262 0.17833964218962706 -0.06423197600659591
0.5956898267693305 0.20728830012791377 -0.11867475460122989
0.5070035089049156 0.15729384022715465 -0.08037823427302726
0.5088940869135001 0.16599680959998864 -0.0828466870810729
0.5033670522532816 0.14888770481439906 -0.11122627664072127
0.6097246013913491 0.18443208731420668 -0.1132461537565348
0.46447161388974223 0.2172761594572563 -0.13280288710690513
0.5906969838466409 0.15613391606987648 -0.1630918230388687
0.4447652434418359 0.14996013229060168 -0.07718067805464557
0.5588069390811938 0.18006358778495724 -0.13096892430775142
0.5739726193134373 0.18697093257222264 -0.10550518502364525
0.4092753721587741 0.25225312442405823 0.01059661202253892
0.5155543403151768 0.1896190856320601 -0.07208298539435987
0.23795651169240273 0.4226746877925933 0.04084476190865871
0.47109397019868027 0.15779985113697137 -0.04785557636479609
0.5271474266962741 0.1476440621429873 -0.1078704003872275
0.5039197474348072 0.17098090252268605 -0.13923368326076968
0.52955112137019 0.12103966917825915 -0.11450595137915798
0.5803681461032966 0.17000753854803463 -0.20932025318431613
0.5060585193261744 0.12441914523016351 -0.08162447081456037
0.5391640707499761 0.14609839781921607 -0.11192791653989786
0.5266922993399987 0.1359781981071393 -0.09266769661645924
0.8232357742476637 0.18792505306959129 -0.20117158665351553
0.42764169764568294 -0.1080372960268079 0.1158609080363533
0.5541328888281498 0.11384305702752329 -0.18092651643220847
0.5882677661610813 0.26279877857747636 -0.055614550607728575
0.550348616126513 0.11576432683322935 -0.13018168933395202
0.45524981786606133 0.1651994854115344 -0.033730014714137724
0.40805270351255274 0.16392409435499644 -0.09592943230593676
0.4710570564670604 0.1304996351969976 -0.06180111024148971
0.5100101066003759 0.1371579480723426 -0.11054414974132953
0.5048103591835797 0.10774712411408416 -0.1476680063990159
0.3342915712548944 0.2043373583122161 -0.04815777476886751
0.474161505415168 0.16856780054382625 -0.00766747017074465
0.5328628036091629 0.1668320784499997 -0.0674680739700051
0.5529200613828209 0.11541005491397982 -0.16043538015054537
0.5183762237092822 0.16955063309046636 -0.09960932618805884
0.47248683508779266 0.04883516709394087 -0.17118073895150587
0.5824318787990848 0.18156412065000893 -0.12314671324774906
0.5196591073404591 0.17964483202996462 -0.054338932173166654
0.6291681531370017 0.20417753401773098 -0.09685830761357295
0.6189088462057271 0.15802042808900296 -0.1065262546880632
0.5806624192094461 0.14128987800877724 -0.10611791616905464
0.5899706760350085 0.17491388670384822 -0.06516662220222713
0.5886670894279149 0.11783490477182568 -0.17844200251269626
0.5648356684367286 0.1562485852926443 -0.1164278188273613
0.5698900717181061 0.11612468648326058 -0.21025636385701318
0.5649994511089318 0.19427759656944943 -0.10696682897467724
0.6522650703635549 -1.3359796464194886 0.37961788217062065
0.5450373965633446 0.16887370445680006 -0.10640980933035848
0.5779931626943977 -0.01252342077702906 -0.13566728740727285
0.5341177096617145 0.16488518092943139 -0.09128434327864454
0.5769205519923872 0.14259677673315707 -0.15288608074695276
0.6150783237772544 0.20437091324839685 -0.1508036193878297
0.5518740089967764 0.14531602298268353 -0.15528823577558626
0.5498792326361581 0.3393221768892971 -0.034483893333018045
0.5652801563041834 0.18226271750309309 -0.08421550679463508
0.5149382145889945 0.14931272137951623 -0.015270093342195423
0.5678874000724079 0.15203761587808629 -0.1382568336290575
0.4580793549796738 0.10068115750981121 -0.13093086191118175
0.5211263946982854 0.21962865186135616 -0.05546397052562213
0.33748994743686467 0.0792018124412266 -0.04574958700003151
0.5198331991627612 0.10813620958667514 -0.1212396218202656
0.577519334431031 0.19797259107937748 -0.0977668744431952
0.5525506952734816 0.15170029344864133 -0.12094676405686755
0.5279936765728621 0.13671989259897543 -0.14058345325091182
0.44542459293749914 0.13972290660856856 -0.016756347755801926
0.5557956580390453 0.2633744629226129 -0.06881937502276969
0.5179910563095405 0.19940465038837374 -0.08671389597499513
0.7091318237262101 -0.12279936992356966 -0.32126064880053207
0.5188673695781745 0.15467954221752223 -0.1146711678353256
0.6053531963427758 0.1570547051115625 -0.14637419280016672
0.5308707245364275 0.10956052882727363 -0.13469269048026433
0.48278959538410504 0.14462915241956864 -0.09945996233818732
0.4931327846748559 0.10036876087409041 -0.13189834090830743
0.5846508569646147 -0.045264504725679444 -0.3091285239638495
0.5278286322746766 0.12828353106890233 -0.09062472177616598
0.5158649939630209 0.18600998034649763 -0.06455286252955261
0.4897038798848996 0.2036157290686873 -0.058414434740612364
0.592589844661461 0.19119111784314669 -0.10895897204331106
0.6407952584542898 0.17150321981355887 -0.049669885081939924
0.5026160101813417 0.14442790648153903 -0.11230907642266175
0.4728384296201966 0.11856167237439763 -0.20763152241205773
0.5168920521020937 0.13416291239538225 -0.037749389000666156
0.443280507441429 0.11012113923827371 -0.16644991213922822
0.6672727759712416 0.1424359990299422 -0.2042908328812416
0.5078029413630816 0.1617922160265266 -0.10368549959889606
0.5024390356740156 0.1441888247483547 -0.1065742656675468
0.4832542963880826 0.1258012131884243 -0.12722187312270705
0.4552331852266889 0.1050875157967397 -0.16825220485249304
0.5495807570794824 0.1576777300869452 -0.05982198792533211
0.5311685275618885 0.1542727904472656 -0.09148826880446848
0.47749098800024115 0.07347775137137091 -0.17155977071593043
0.5026001959459307 0.17840975464896758 -0.05009134637154489
0.41533319856525 0.11485776814458859 -0.21678011765179406
0.5163373160127378 0.21543373315444114 -0.06906678858713633
0.5428833624291372 0.13680830453593273 -0.10299309956587877
0.5679604766522459 0.17160380136590447 -0.10080996042668744
0.5057764916528527 0.13058318279865944 -0.0695139939392817
0.5198636860930179 0.10633098466594504 -0.13835899564028864
0.5322962757395828 0.1605044206502697 -0.11722966947858993
0.5173684071397417 0.14333059544581772 -0.08832460759757055
0.5774062227816188 0.03828507109304269 -0.40235822006967226
0.48368157978995896 0.21483680567790486 0.016845811663344534
0.547134118073501 0.18419000568853505 -0.0982721512590814
0.5476159057876657 0.06352892405197963 0.06758608258003562
0.5692363692661644 0.21091591892323436 -0.17346303406810648
0.5112889815894448 0.13465031772251734 -0.11366048152602559
0.6041964055013409 0.20402048351533608 -0.11497142837789909
0.5815727247126716 0.18074209495124194 -0.07990019718683072
0.48694639929415473 0.1349327969513041 -0.045004704124053774
0.4709873139102143 0.1989019815695059 -0.09198038064153025
0.6058480903407286 0.21696935530633255 -0.04912630868575718
0.5040505087414715 0.1789751920652094 -0.0524093069469842
0.5039815202821103 0.1339464115390001 -0.08972948804132841
0.44738818486099774 0.13574006735107957 -0.06524207784930525
0.42782418061266014 0.2345789230764126 -0.03153182870762805
0.5207487604837553 0.17112894620173336 -0.06836674767819773
0.5413643991574588 0.20681715513968868 -0.0530346916175688
0.47110949371112554 0.08751566536592748 -0.1350773498180331
0.5603961894328222 0.27318829927151 -0.03453859365605183
0.5429008681808654 0.13914644974323664 -0.09949309217786606
0.5287729781315988 0.12431810808604382 -0.2716892027972335
0.5506426193491336 0.13952244958953486 -0.11451849904683797
0.5085953429994277 0.11642403756802366 -0.13405051346146024
0.5322587842647692 0.1023147916825593 -0.20160420524638312
0.5332006137999485 0.1595053046189321 -0.10189209299963409
0.5292982180245644 0.13363736773372636 -0.08929332943435497
0.5113949756924683 0.12590425802338245 -0.1351525306911867
0.49988772247311886 0.05749371605591591 -0.0896276697611853
0.6714073094250779 0.1855001346982874 -0.17334282486042696
0.5477775553485458 0.12436930670236279 -0.14795837461903716
0.5375458334882666 0.14899637645453367 -0.11019093835456317
0.5402226951115097 0.23646253674593254 -0.095024683318087
0.503893626946109 0.14966998726926306 -0.0956794463468924
0.6348011082232432 0.1989488501825889 -0.13315117630091322
0.5971513800125479 0.18816639790318845 0.07774782075767916
0.5428262560227495 0.16725408706271594 -0.10116973515501115
0.5752239887174682 0.34078445463197227 0.06106800010743996
0.5776812213814395 0.2703647728526022 0.0014071639106560951
0.5580047736243756 0.18028764647856121 -0.1802634284520508
0.45969283072624023 0.006935061914546736 -0.1123567672882757
0.5437351019728283 0.206078841766697 -0.04605098572311306
0.47177951121290107 0.1481685025829904 -0.10017917016841693
0.6142988863928736 0.22833613166693567 -0.07801167548331023
0.3924229292993573 0.05930544493173784 -0.1569272204258425
0.49099525566536784 0.11033409491588486 -0.13442955407968782
0.6012625503885687 0.15497438031424338 -0.15467874200294318
0.5174726379472503 0.14962720275180175 -0.11204023042880351
0.572652440696956 0.11609278153775904 -0.18892041127823234
0.4710957036645027 0.11391284804503243 -0.13936990300844343
0.5549990236967091 0.13283897660367927 -0.13042916569494878
0.5010289240002663 0.16569464661174038 -0.05627746194885219
0.5600094547026941 0.1717441580833281 -0.07568615365131848
0.5027847424311034 0.12679626122181276 -0.09948615405130568
0.6280851317807645 0.12271062317078929 -0.17970639295083402
0.5695143090437682 0.2276403712231314 -0.09348589629171045
0.5288259643437954 0.18573100755342864 -0.11708236015293494
0.5367722283469334 0.14804417732895558 -0.06402624256845968
0.4381994599510932 0.15732901784575404 -0.07272070111125117
0.5401477988454815 0.17156826062837638 -0.05195997271503927
0.4944393471262032 0.12823277538585387 -0.10633972371007872
0.4871266285147158 0.14431816707633516 -0.06363326227659627
0.5105476039296235 0.15493282155038912 -0.0776374644214286
0.5433321685199672 0.16841694709157196 -0.09941871508860345
0.5411871732015072 0.1701299598675945 -0.07204638660201113
0.5727484908008336 0.1400105821373927 -0.2124061525327221
0.5023060955799679 0.11679398807910957 -0.11885104188291962
0.4778039646877943 0.22476087449172155 -0.19777032062494015
0.5616017405815796 0.17027013708644745 -0.09378394353240083
0.2727346871525782 -0.17292313406922233 -0.019276240749533713
0.553755496154082 0.24312801924122596 -0.009396321787335182
0.5071646246326225 0.17077813660047525 -0.06626289516778172
0.5957569070382931 0.2244944175740642 -0.07680220443143071
0.5582133103450957 0.17939728688304513 -0.10426205150206158
0.5315895540452829 0.15345436153069159 -0.10425585525288739
0.5731973384228723 0.23610931295348792 -0.04813615344355071
0.5426330173424816 0.16706137726778536 -0.07590216017473495
0.48063154773076633 0.1096989964541848 -0.05442349603620755
0.5393184768170869 0.20352423340915493 -0.07786908545489268
0.5523949668363883 0.20531567967238118 -0.052400014102872206
0.4974597440155435 0.15207670704863574 -0.09289932242931798
0.5772955255679335 0.13634930437638104 -0.12298681546577939
0.565538450563821 0.19863624953134718 -0.22084255258062058
0.550986223658839 0.10489132914580068 -0.14606444654846484
0.5351799553020271 0.17054254232073163 -0.24347729133934592
0.5057806605671544 0.14652357419396367 -0.080343371018742
0.6086621110600419 0.11777592943749937 -0.11180739984428101
0.5382693828819072 0.15396947847254694 -0.10858339298368946
0.4924992771637733 0.10398639157871514 -0.09792402436752923
0.5242526719109719 0.1454664753303092 -0.17197826661798388
0.12795064538902068 -0.010288079876801248 -0.23841940744145518
0.5662541297817683 0.16309772782429377 -0.16362603289648803
0.49212589005821883 0.13340590271556607 -0.09138323936315373
0.46720102476952263 0.15630798429045 -0.17933273494823254
0.5451228800681065 0.1532867151888837 -0.12783956420265952
0.5040004349097842 0.13212486375324772 -0.1165820848099628
0.5808475348597284 0.22697693848098766 -0.002368008409490585
0.5041433708102687 0.052313003906348854 -0.3425524325817264
0.5070122576216676 0.19387199443593772 -0.029551183063560416
0.5673524282908033 0.14752720780198558 -0.08349801453076111
0.5377893503300015 0.13126316150416528 -0.12238322679191072
0.46738571604110746 0.12592083435229995 -0.007775276789672603
0.6002771130664115 0.21293565296439 -0.15887440426845956
0.6067839425565609 0.1936648962950045 -0.09030191782173347
0.46780326042500064 0.09908753387944103 -0.14435694511080044
0.5813615643778434 0.18655769216775298 -0.13067947024472915
0.5411361576666849 0.17046228146567444 -0.10202966950608072
0.4870105040623116 0.1768603583009707 -0.026849062244977517
0.4859129051089326 0.12419069376453251 -0.09317309155389353
0.5962333546483336 0.1459379961835907 -0.15965858938885447
0.5117721401560971 0.1764857205843242 -0.09614907054715616
0.632139648673899 0.14462603208072267 -0.12290319729505939
0.5426686235796581 0.20008701418593944 -0.049776300571338084
0.5324931467950051 0.2116553930992353 -0.09293404250880144
0.49850064008323614 0.17220438525301063 -0.05470350942593427
0.5339448072796955 0.1376017098597515 -0.09732468345733025
0.5387348744474707 0.166354136329673 -0.10900399953163742
0.5853091245924986 0.140541814952428 -0.0575360907818947
0.4881799891013259 0.14488010801449036 -0.13124879988671978
0.5960040172397072 0.28038533651255193 0.0013512374582518305
0.34739118340100106 0.08162194627500696 -0.1653223880661301
0.5065755868980801 0.15629299440394107 -0.08910901937846916
0.5777918343006831 0.19932225265711168 -0.06467283943096902
0.5621354751096419 0.18193851692990393 -0.09468536609455214
0.5865718829187756 0.1799741135624231 -0.10460764729047867
0.4872331309788933 0.10960292715935793 -0.1843574167375266
0.6217642380816244 0.14664389474403094 -0.17594674621972217
0.4476112385207216 0.16137542370069013 -0.08141529348320375
0.5524636816220294 0.20175226309123673 -0.07440746128780518
0.5482613129751854 0.11499568135590721 -0.16783733727594097
0.5508098085417856 0.18285066524015292 -0.11136222722831235
0.439157986426963 0.1961234727812382 -0.06681680381092292
0.5230857038024652 0.14025161850052825 -0.10044312355368845
0.5782402033899103 0.1378767442034956 -0.20893742036160745
0.5894500271763121 0.1824162664841822 -0.15566312224054002
0.5944901544893639 0.20176245661561154 -0.1052128149193976
0.4603137370878443 0.15641776939202146 -0.06305946932160111
0.5655953763043868 0.178333124587283 -0.09790536272409156
0.2718745079978362 -0.041336189429060255 -0.24726009989595354
0.5231303790956332 0.11545902866369318 -0.15371269599889104
0.528016100841171 0.14052500981779303 -0.24167704472199603
0.36836293507718665 0.13431195658132822 -0.0905044308695011
0.45373898493960496 0.08424714316527115 -0.18732269584069172
0.5345976192329687 0.11129147316373178 -0.1606033424933031
0.5339656008852813 0.16663166387701267 -0.07408480969314724
0.4958393710498825 0.1475438879764539 -0.10728093385007753
0.5622026581806097 0.17007533457990576 -0.11023134860256789
0.5260634113567306 0.1662569448580058 -0.1236485487736445
-0.2844586123999733 -0.008819705993062144 -0.18812666592687322
0.5262990173589657 0.15828433500406902 -0.10678848521180839
0.5417866120817365 0.139231169375563 -0.1352077147534061
0.48964325421066235 0.10488721938749279 -0.09547322220657861
0.5185887201424322 0.1827913532717531 -0.08231568910748877
0.5454670865819651 0.16006801319009867 -0.09173616106635052
0.545837776128792 0.17329670767605876 -0.11976436637206689
0.5237790190205942 0.18074185556122302 -0.050083133859303075
0.6160185752156622 0.1977589121140113 -0.16637133607832766
0.5605861981969156 0.15531582730589832 -0.11424128197852212
0.4518949105216308 0.05612548878706036 -0.1929001710761611
0.5115072913648504 0.11951259825153215 -0.13344944430204464
0.482060364838631 -0.03746649640254418 -0.48316485934215336
0.5168950365717819 0.19024507091656062 -0.06569115350347943
0.5251620784449784 0.15032699931286686 -0.1263743741299379
0.5109395027611328 0.10978676170380197 -0.12248239186024534
0.5365048484680557 0.1888302251928451 -0.09240401102576357
0.5366744514521855 0.16694557699204893 -0.1138703143959674
0.5089920131345593 0.16169933337386055 -0.10824877505574193
0.4931396095133067 0.12897087122215112 -0.10386139522988458
0.6273135868713524 0.20119135004429722 -0.045218597164733865
0.572584570631534 0.2936682476635468 -0.16158050081078557
0.5002743730662473 0.1426282997899193 -0.10876664377100553
0.591060277853444 0.2210113453674012 -0.1009185461404769
0.5097450040911014 0.16784622283924477 -0.055746766039050044
0.5563612674529992 0.21162689746478236 -0.07149792162816482
0.48815821314040875 0.12607355457569724 -0.05538258621277237
0.5651238826550156 0.19596871129856197 -0.08402660847565357
0.5372635557330625 0.16113684196523081 -0.11130348339384
0.6895492598838473 0.28161050055393844 -0.13592122966034026
0.5786602857822203 0.21231617578504824 -0.12293174894001879
0.5298124716372286 0.16528955373328813 -0.0982613241259287
0.41719368894626996 0.2621201994944329 -0.003692528030342146
0.46173303111437747 0.17071305683040805 -0.06152607826278711
0.6048991469236 0.11333871926414929 -0.2650633056337597
0.4450782457288227 0.16296055852185987 -0.12314578419078259
0.5367023257366128 0.17609333994698773 -0.07788716015816988
0.5112324572672975 0.15995545642535092 -0.11058369659255618
0.48005420505432994 0.11764712583652681 -0.11261685671003363
0.5800779711458546 0.1585026111644794 -0.1412652488288444
0.5932779005091788 0.23321258776802267 -0.08172002363804154
0.5882835132021995 0.21710949211929176 -0.10094740728587226
0.5211885059769372 0.21570465185378396 -0.04405374499853565
0.43410823985739455 0.0970402709860565 -0.10240670092470339
0.45711000276475033 0.07585306716511298 -0.03506427230797726
0.5945416768059744 0.21244930162750109 -0.052566987720894076
0.5077978422737175 0.17393319632249415 -0.0700014747896347
0.4683418159760322 0.07996490115678512 -0.199843580421188
0.45165452944576145 0.18678987047906048 -0.043028151426241834
0.5317462285652255 0.1651231806362432 -0.10680210826666325
0.520435033363043 0.21816643170609495 -0.056034259587605106
0.42507962666053345 0.14804023907696262 -0.24181273804468617
0.4885434138460596 0.2008709938587856 -0.1466099183280818
0.5029239338792877 0.16261733723861482 -0.05277547723535747
0.5452661669150842 0.16858837213351308 -0.10826318274364155
0.42196808560026966 0.026041700929596345 -0.13164829487844543
0.5716968840611543 0.2255126838099386 -0.06341602590721607
0.47946602560992346 0.08535937684625594 -0.16079196692346898
0.4690674422070771 0.1569861671067514 -0.04763974309679497
0.49026836887408365 0.1560927931718794 -0.1396403862026716
0.5159631306351145 0.14970085134403632 -0.09010499190139853
0.5075735726056791 0.16709416503208274 -0.1006106677547507
0.5533207043141743 0.18921867158826444 -0.06621319280624505
0.5385701639715279 0.2144336055365983 -0.11473224890642086
0.5133297349175194 0.16224388146973467 -0.10926553169943531
0.5696260528718682 0.16688350933956997 -0.1345302788205487
0.5611566980827831 0.17102319306063407 -0.09135699665435482
0.5335353573361914 0.14409398360928094 -0.1452725833312627
0.6938914593332299 0.11197428513733598 -0.024179443435983217
0.529781687827807 0.1385426288120044 -0.1010232094396315
0.5262358936020775 0.14859908763735064 -0.1293313353571648
0.5781975364553773 0.3027298276679318 -0.03796330461709374
0.5331840765626055 0.10100980737971099 -0.18283514720189942
0.5309038041349368 0.1372483447520949 -0.10392047672152671
0.524751467720435 0.15920107478967793 -0.11236792273614071
0.5155958266131222 0.1442215899158299 -0.12474139373667015
0.5464392364344519 0.2513514415653759 -0.05246518266991984
0.5841273082040175 0.16252616931586772 -0.1324522829142154
0.45968184228895836 0.10089480307232179 -0.07885552077978275
0.5307424875684745 0.18505895972552366 -0.07094064244336096
0.566885472476983 0.17569905790831797 -0.12050875864390775
0.4428592112676597 0.1493168560799205 -0.0710849278611505
0.6207514884449381 0.19887492601762347 -0.15546952059784758
0.547556070062754 0.14595263167994688 -0.149209345281065
0.6952987471460972 -0.07304301270755786 -0.29274596078182924
0.6160245528192547 0.2235980724139921 -0.08983072873229503
0.48654445246002354 0.07171554281691783 -0.11736669488824703
0.5537753525578069 0.16384552818736609 -0.09301034146702136
0.5555551356921882 0.17343336240331553 -0.10439115169920399
0.4605898242290323 0.03557175221523323 0.06522606201031067
0.6883729215111032 0.2027036363102468 -0.047591812752372675
0.47258636354472117 0.34962774473825675 0.1940688533820918
0.636360984404817 0.23320091773923934 -0.05991152359223406
0.4764913001925919 0.21336349053214576 -0.041428148338937376
0.5689614897819979 0.1579564188308069 -0.05226344527902427
0.5341445304407699 0.14499833413273677 -0.20842562015815247
0.4875406983544792 0.13233686796277766 -0.09696550257494607
0.495882658612274 0.11586857552156005 -0.11536075851932992
0.5176142822957672 0.1721763382942214 -0.10310489047319038
0.5129446561435742 0.08877228301881246 -0.15771549380367844
0.5688102905650965 0.13405282934719764 -0.15529108480356513
0.5540389352871244 0.20730572383692447 -0.047604300179941106
0.5420528776760705 0.13171934734823765 -0.12623014138713984
0.5657172940709643 0.1208869974558553 -0.1564889025352727
0.5992780594100111 0.18616955466056595 -0.07694792493026625
0.5976275726545595 0.12886295107139745 -0.2463181923501594
0.5418233081724253 0.15153466667767646 -0.09861459846793252
0.5460632126878551 0.15784929426324368 -0.10145186924935956
0.5244314518891571 0.1745765315476291 -0.09582993554160169
0.44145275115018023 0.12158901901216268 -0.10730296168705422
0.511492216564875 0.10839052134954841 -0.1706545329901985
0.4916223537360622 0.11520893802612875 -0.10525593543140133
0.5026412805343483 0.1375114720302264 -0.17642292546280203
0.4806593241345922 0.17223101529175722 -0.046135321587371436
0.5588941778959793 0.3532790134996162 -0.6657591129769997
0.4274010341426049 0.09050764606163852 -0.1290645850283596
0.5571331474150867 0.13292238627414577 -0.15432448155166867
0.4994414924306625 0.21546454287495465 -0.047783096904737477
0.6250561038419278 0.22524050382961036 -0.09948534767760009
0.44282048001011276 0.13647950195408498 -0.136483635308025
0.5851479285120007 0.12880060529633397 -0.1444700770426408
0.5040171233000166 0.09896650223311099 -0.07255932395521825
0.5941477501315546 0.17133805401257973 -0.1216492851055051
0.5289479864715929 0.14987991159179614 -0.07773582302706927
-0.31238523364345383 0.21840375765914644 -0.23758105213686065
0.5019391496996377 0.12400573259014891 -0.15630062741198003
0.6113981568274056 0.14062096905045962 -0.13391711003235685
0.5882352216846556 0.18755491766128785 -0.1315653655819773
0.5184431999139321 0.1844114578666165 -0.15911654604643388
0.48933256702039785 0.19935057403081657 -0.04207623094116286
0.47838758875074916 0.1581806667123118 -0.07700278149391693
0.47133560560496335 0.13042146540153965 -0.04990467840320889
0.4999062094379667 0.1752770288202754 -0.1369386875816616
0.5422266766824748 0.20324128473777137 -0.014457115485257077
0.5405502498944799 0.206790303467983 -0.1303909054474559
0.535193350576364 0.1951786529678401 -0.0718643246381987
0.49692000356901644 0.20895554125920057 -0.00039802549251533037
0.5734197797782059 0.1556832871763305 -0.12275330453788058
0.5125001466418695 0.20568116265957315 -0.0020456168540761155
0.5927967231985747 0.18976810575014724 -0.16092845948223555
0.529274363886401 0.16417464984714059 -0.10314157212114594
0.49764658457462474 0.18458092847338037 -0.0023800048343076696
0.5536186456462531 0.15190592235720146 -0.11544318913217921
0.48229398412277646 0.14883448367788787 -0.0800344590341382
0.462330142238514 0.14300452413998244 -0.07098139226401656
0.4529189837647607 0.10857833433817632 -0.1316927241319945
0.5043101325120318 0.16008508918008602 -0.09921493906898604
0.31161426906508893 -0.04800060767414038 -0.24940325991491363
0.5370276337726523 0.1656630417767957 -0.09394466332406637
0.5226707026281616 0.146034951529586 -0.1366389554825389
0.5148015159322625 0.1508025938770743 -0.09951695150239459
0.5031765876414909 0.14546657045946176 -0.06883251594797457
0.5228574234592003 0.4375540260153059 0.1988064033985495
0.5826400315305449 0.1805817084528769 -0.08917136834702433
0.4976490330118537 0.1533570916781315 -0.07293371020625727
0.4708414427744003 0.1583798429742984 -0.07985919194953794
0.5146304309256067 0.11297424269622525 -0.13386756022876511
0.519197107476657 0.15002345461222433 -0.032181256488186705
0.47434172851828293 0.10131855522942601 -0.2414015862625405
0.5812790142034174 0.0748401500412541 -0.21685719769858736
0.4418048526400611 0.09382330178330278 -0.11358813845470195
