# .PCD v0.7 - Point Cloud Data file format
VERSION .7
FIELDS x y z
SIZE 4 4 4 
TYPE F F F 
COUNT 1 1 1 
WIDTH 802
HEIGHT 1 
VIEWPOINT 0 0 0 1 0 0 0 
POINTS 802
DATA ascii 
0.6062857086068902 0.14344143833125145 -0.20568236822214203
0.8591431965520542 -0.26217669529839327 0.09396911323418067
0.5188284301446231 0.21571520795384913 -0.07141234098486393
0.5360626632410685 0.10983290877064178 -0.10514766717804491
0.544483435384933 0.167630968129572 -0.12549689551570964
0.4927041589005796 0.19666212954740558 0.005692973549400904
0.5839672686614961 0.15127917600156593 -0.1424087592132537
0.48349665367925354 0.12381174408585593 -0.12889518519733656
0.5728069143466143 0.1772335338567359 -0.0823662983904967
0.6127016147694633 0.16854029906420465 -0.11733400206037459
0.5984633480216814 0.15552748066764366 -0.16530310681201854
0.4461799182127777 0.134392060299092 -0.12654401996172737
0.5303613117652048 0.14912162133308016 -0.09091856970314893
0.6556072864280509 0.2264902127270716 -0.018537575000976858
0.5803218337014755 0.1320287388372492 -0.1305177938212978
0.5468323598267659 0.17305492921263976 -0.11792229216064243
0.6051641198741038 0.14312459880520123 -0.13255365545674636
0.5448796267923797 0.13617866396677414 -0.18774614161111458
0.5503623038136993 0.19631556440143072 -0.06092413388333284
0.4984168949632135 0.2572634794966291 -0.10806645348893085
0.5219667182226999 0.19692103243215797 -0.0992042001257687
0.5278732573463287 0.18300943658704227 -0.08444912158753937
0.49461241847274096 0.21347723469745006 -0.012851398318645124
0.5670932945187133 0.18222494138220213 -0.11660061232450403
0.5367124757448494 0.15182080054029257 -0.10576548691668108
0.48303913346657623 0.120134427183757 -0.11306771992454401
0.4337659825386595 0.12267082537181295 -0.23449633921512714
0.5347595165075631 0.15237295014148344 -0.1268893755751037
0.5295858911619575 0.0010601850559908144 0.10978381715582941
0.6054836917470539 0.059639846638930294 -0.2943094446073644
0.522610406773083 0.1290748067289087 -0.13080313639926544
0.3907778057579776 0.06698938176936053 -0.09138645514650534
0.533670541725229 0.15118112780947968 -0.09802755268239594
0.546445295899531 0.03979138851465791 -0.08026259228222443
0.5297490508269789 0.14988240536285957 -0.030375173686195467
0.5186201005319333 0.0662242015499146 -0.15948641322259505
0.5664949554429768 0.17863405045662262 -0.09137490103557866
0.3776494582122041 0.42807233329199335 -0.043407989713358575
0.47330321972205525 0.10495003494591515 -0.13086444387502638
0.603164563974218 0.20820988216948422 -0.03952160466261034
0.5222061691779913 0.17259451017821448 -0.10769019697735871
0.5351449428594037 0.21859084213559754 -0.053736290882085314
0.4943591270731247 0.20391416958156583 -0.07502976731259992
0.48325976414312777 0.15097862634854664 -0.10349990523826591
0.5484114527699546 0.19194544425320714 -0.051635330860591466
0.4296226186516492 0.10184934866612139 -0.1346449174851898
0.4462308201607641 0.1164120429707225 -0.08108581015429195
0.3203164780466352 0.3383695201926571 0.02908852445872867
0.5855265053022265 0.15195511865294975 -0.10797537684248937
0.5801241382318381 0.1370963297038088 -0.1548593600865047
0.5389276571573305 0.10239690824079162 0.0771733137354147
0.5166107178892787 0.11329466132485777 -0.07195581486143965
0.5460073656385305 0.17489979372695075 -0.09754251365478694
0.5072300155991059 0.13925268095516685 -0.12257660408334914
0.5380075861467049 0.1801629529603872 -0.04437985538402245
0.561324778996493 0.1586412965046975 -0.06785377096173306
0.5206001608825375 0.135548184031677 -0.13088791612480577
0.5233889575297042 0.21259329511858027 -0.011848531240048032
0.40583848198846795 0.142024323001408 -0.13896690365137943
0.5432550249491612 0.15527585573832425 -0.11153665620301467
0.584259108342394 0.12777149896021456 -0.14728258219992085
0.47999273585224955 0.14296423493991028 -0.12145371145626882
0.548485931801622 0.23544432439044272 -0.1249804171504536
0.5231631682544844 0.1622680418781215 -0.08663167880129663
0.5915641082826539 0.17171673976986312 -0.1136302976763659
0.5012364776672769 0.09498951614617113 -0.13612821282194432
0.5464235467289598 0.25500195059370867 -0.023785105558772557
0.5320708710639508 0.15424957474300527 -0.11012108363735251
8.129036289955991 1.4563679912319856 9.178720589576386
0.5135748688452964 0.1445943607429001 -0.11770642896388495
0.5667517606543413 0.17830247608324612 -0.12069744569149066
0.5368559132602115 0.2307439662703814 -0.07370373188174995
0.5686117609046164 0.15360324401785874 -0.14331813895086043
0.5619180858158757 0.22260329590184824 -0.10406029273360673
0.5538274413007116 0.15452894551236795 -0.18577315402731642
0.5593303030851189 0.17037304314422386 -0.10578608427641711
0.554983917096564 0.18762501273678822 -0.10209636237175346
0.5419979693882055 0.11683017410157959 -0.18229931748840045
0.46607815853332113 0.0738120962842288 -0.11231601696471216
0.49942929290864413 0.1285314898352965 -0.1292631675521534
0.5065096148740338 -0.09811538781019635 -0.09047219960694974
0.28717495350630884 0.01114693891631191 -0.3697439936122464
0.609078262652389 0.23649366085791712 -0.0818462549628407
0.6206592894729681 0.1903127919104577 -0.1503236132487018
0.5069404016275882 0.1780000564269244 0.025932213342429122
0.5399845119971474 0.1745373635586418 -0.09113590670693839
0.5005490920368914 0.11928128403246774 -0.10446834158065599
0.5908146253259758 0.1925703568803101 -0.05163321901420659
0.5482798388931371 0.15769952014932187 -0.13889285164142962
0.6439751090256607 -0.3910419224419286 -0.32487611493795043
0.5593453336096843 0.1652845292159668 -0.10122203171937372
0.5701249240647712 0.17848899766266868 -0.22063935357607534
0.5517235273054268 0.17878111622135862 -0.0664245853295995
0.4041886216598982 0.21883196912955327 -0.04576589610456949
0.5184013051061527 0.18225190179401807 -0.03168810410082301
0.5007555705181801 0.1949971703913036 -0.10652045485048234
0.5221582019042899 0.15931285373335413 -0.20446861008977635
0.5629992752098758 0.2764892654616631 -0.021257508413015103
0.5547139546187907 0.14296419458170817 -0.15315118531088956
0.540169420030054 0.13681597020223535 -0.1863471114785682
0.5328519237776561 0.1709482729844467 -0.07398365961250875
0.46581020661687944 0.09698719226204844 -0.1307585473000188
0.553510266385274 0.3706777280363269 -0.08190165330282184
0.657545958927642 0.24534191911578773 -0.046135999138300576
0.35574409624430814 -0.0557905295637795 -0.0676041643623364
0.3542166049952016 0.12467157556167763 -0.0987355259984497
0.5301923604975514 0.2024235589788077 -0.05502167945073211
0.5213398696394336 0.17246662681731095 -0.10363360585481018
0.500338380463802 0.13775507876340498 -0.10206988068443934
0.5726300887604623 0.21270037037504608 -0.09700858113512822
0.6045636437652888 0.27271164387059343 -0.031986530241567834
0.5893278135970661 0.23299483547737054 -0.06879037342102379
0.5420862887591511 0.11780711250364106 -0.1511550719974366
0.573253874825042 0.1833459933357915 -0.053465219071142656
0.5617437464865986 0.19960557607055307 -0.11441532723088699
0.5416062756612234 0.15493243920963096 -0.07121354884748143
0.5643259884162433 0.1872984442649397 -0.10451204873731967
0.42900371763843737 0.13023033016918362 -0.020433314814624737
0.45653436986108886 0.1415611174402045 -0.15134736724132836
0.5470524023921826 0.14262265560989817 -0.1505001433006612
0.5080359268064853 0.18365785762105702 -0.03625115491709607
0.5611785594501839 0.15332006599163606 -0.15346396532802942
0.7099194255172563 0.20970191324221332 -0.3778701589328932
0.5403424503359702 0.1743305514691258 -0.07336541447136824
0.538439096671965 0.1864750526010539 -0.05639431233643677
0.5740301280034146 0.19202479213240053 -0.10830073072278878
0.5194258956880446 0.22517325208787042 -0.025044541123008912
0.5216726223305272 0.16704154471835864 -0.03582589896279842
0.5264245073356051 0.11845534245361478 -0.16616877449820322
0.39296187828523443 0.10513060494639603 -0.22673966878568308
0.6827563699444283 0.19007358869896507 -0.15249367805421343
0.5766492567430248 0.21529539482503424 -0.0315426914952468
0.5745471961523094 0.1310657334486507 -0.19811448583209312
0.3920739281289798 0.15750995658655143 -0.011526618020809565
0.49618096296475755 0.17467174191713752 -0.1040624281793896
0.5266312647640348 0.1930587665132748 -0.06016107478049548
0.49460807017067054 0.1202682286636616 -0.11446841229323468
0.5724856221437449 0.21321261944822822 -0.10349507108833222
0.5150342498333771 0.13146463997208002 -0.09900931612747854
0.5143643125574613 0.20405945258897873 -0.0419376934274851
0.5329118591781139 0.136423665813993 -0.05030005983687147
0.46876733745338584 0.15744844469122654 -0.06495029788771944
0.5617387269229255 0.18804078963219695 -0.1484174473773976
0.9115720400523912 -1.3260013239199964 0.3593541866883925
0.5450521022080466 0.1827690222873457 -0.08763729479491644
0.4905949195666608 0.12514356636793877 -0.13266171429418705
0.5156103565199146 0.1808041795169686 -0.10300747429306512
0.4400753850569856 0.14380666041657264 -0.03613205712957779
0.5273542711417463 0.10576409669491227 -0.13418409408990328
0.5196035504529277 0.12259258312701604 -0.14514099757528243
0.526091587957012 0.18597203220636516 -0.09823194999421503
0.33404887386399196 0.14649810606306346 0.028798206144045935
0.5047796812675642 0.19360817411103426 0.0248069332865839
0.5184575556761786 0.16998770677622588 -0.08021282309906042
0.5398691150812738 0.23066608065667538 -0.09578854231244804
0.5409734717048593 0.16698702989367575 -0.08915438245560381
0.5603112526485461 0.2438780052238485 -0.028137533433721273
0.5854415426847481 0.126569134544809 -0.14482675859187566
0.5083376868633138 0.16536973314131842 -0.09803576626865151
0.5306261329706103 0.16224797413968872 -0.1309499329332482
0.5618907875084176 0.1683079120076627 -0.09059671669410818
1.1215340709397594 0.11825588312967739 0.5546360290114762
0.5334970730279736 0.14738032422448555 -0.11708235343698448
0.5271706571465415 0.08843268700675821 -0.19726519389871555
0.5707153120854116 0.15513984077918508 -0.09461971867938246
0.420820066181534 0.15783941206882446 -0.08990831381956355
0.612549956398027 0.1928425330463881 -0.1115328379937921
0.5022679545327549 0.16250596519839178 -0.08560688706134556
0.5635728204853478 0.16451326249634235 -0.07886228262697159
0.47924760167038016 0.1871726050504492 -0.01680125563996171
0.5457735000971411 0.11009558340410308 -0.19643952737675363
0.4956316333378368 0.14271127682337692 -0.15326892709833828
0.48311421825886214 0.12556951326007493 -0.10843219260280534
0.5496675210355306 0.17266724412260714 -0.08605965048795383
0.5226559832841815 0.14117179857896645 -0.08579150912032674
0.530886356627434 0.16679559680949296 -0.08769746741000972
0.5153203376867452 0.19356351417312112 -0.004892702639892832
0.5274706837323038 0.1606813388990247 -0.0885433337701329
0.448100900683329 0.12724656197613626 -0.11441200473018398
0.5055394175066681 0.16144411783278656 -0.07808901784147793
0.5720361670054217 0.16538273813671367 -0.19031581744042114
0.5269466205187712 0.1646172660802847 -0.08446559397444275
0.5460400559784375 0.14527890636389884 -0.10493315192204022
0.6301457482647947 0.16591612773743236 -0.16968973629795414
0.5280531624645164 0.16478942701132837 -0.09169241444291742
0.5878941261022419 0.22860958514544905 -0.0714739895799994
0.5319752216669258 0.14196249219193646 -0.09936634049645932
0.5234892656250736 0.14968437665734768 -0.10133676887718934
0.5662423100356477 0.17969165095854578 -0.12355844110749103
0.5255300911493634 0.22002248043986583 -0.16474980227977198
0.597154035047339 0.21822499830165043 -0.030244356652730175
0.643527494931277 0.1912611801908497 -0.19100372841259627
0.54534933545591 0.18509489930806922 -0.08398601598526056
0.5410359746487359 0.1680122501055621 -0.10222010339919052
0.5294162485879781 0.1948362115597888 -0.10989825381437868
0.5765088750282814 0.2130690995534792 -0.0443596881382291
0.5136515721055162 0.1502721262619673 -0.1040273751148959
0.495140279872345 0.1411153939505425 -0.1200772784708306
0.5686430937724367 0.2091180189167403 -0.1512616314517743
5.168774228696236 -6.61666072335818 -3.4369301109663297
0.5692976663657134 0.1260730839835844 -0.1874799350435694
0.526427780510204 0.22411673802770338 -0.04572899228622873
0.5328857817831079 0.11039468642852057 -0.08436081532161666
0.27508398988479144 0.14686052006791783 -0.10313642628466368
0.5026080879039228 0.1911663769444374 -0.08237725777064497
0.5260664216136774 0.18460808522729621 -0.08820779947851065
0.6063380279871353 0.2613946622367962 -0.13745559561192522
0.49308962792531474 0.0818007109567418 -0.12276369870761528
0.558676642415918 0.17784675205641065 -0.0938925179587784
0.5259200681709615 0.21448600210109703 -0.09465355660304908
0.5827439827243097 0.2103298007370995 -0.0872134868916703
0.5556052511591076 0.14227158165931542 -0.10374171626736484
0.4952739805449937 0.09808595519524488 -0.13811558786926525
0.6672164277951538 0.18077937198185623 -0.12430536501997835
0.5321049238278874 0.12495487573906416 -0.16415171299095732
0.5592064406394286 0.15782212940590057 -0.11739992299237656
0.6966749370894831 0.2346295788283328 -0.1679953906569267
0.5430479874402749 0.1449340668175978 -0.2263616664474455
0.5264653745400665 0.1498087127082499 -0.06862987504422335
0.5282602748527552 0.19715363790584206 -0.07307949742499886
0.5283505331639162 0.1863898023673869 -0.0670341806776662
0.46394684112178197 0.13873625732770734 -0.08050098668371675
0.5564470072584697 0.1529086976713927 -0.14719727519025128
0.5151552719380277 0.1508034006768355 -0.1258461614094415
0.5348122447363721 0.12704885303131164 -0.09550385460579491
0.5922086978830805 0.18928776205228814 -0.13957494259508962
0.5436602225138927 0.15340173667840418 -0.08645648947316431
0.5866948856866543 0.19252059074582917 -0.15686767465822982
0.4130027646827159 0.1813114340699542 -0.35851494542708906
0.45576265861697607 0.09424782106924567 -0.18886348088278737
0.5359265464461203 0.1823774762920891 -0.17253585259652482
0.5202583523037845 0.16068116346525585 -0.05412082031580212
0.5452401634342436 0.21553044365430196 -0.07577926864559004
0.5369176702256482 0.17744359535663534 -0.09463790726746879
0.4972401941592466 0.08238062762785603 -0.15082322453852726
0.5455375782857743 0.1848303444193391 -0.06441416492461371
0.5061774806505923 0.14795145774746743 -0.11621878131711583
0.524138773450602 0.14826078639814 -0.10531564910888846
0.42415554436252023 0.2743385004975778 0.03801911214597453
0.5391082704913686 0.1598520519446538 -0.11579274144665419
0.5130453487728062 0.1732042924161874 -0.10410172647343074
0.4855666189136514 0.2059814149721717 -0.06691984940306384
0.4429783010870949 0.10935838272078513 -0.08475602210498323
0.4653824531086741 0.1068610264153449 -0.09270387154984405
0.5959492404662967 0.1866196762489949 -0.08339945743011867
0.5067172822346322 0.15770895545284702 -0.09221287465041428
0.5577850234220421 0.28740217795373724 0.05133126551697842
0.5544123736554525 0.1430489186265902 -0.18116061273809692
0.5557791665201819 0.15813891998587337 -0.10282520207624657
-0.1859102796214529 0.15739590296976758 -0.4291585223971879
0.5766402288187464 0.2075631069534154 -0.11523036899583872
0.459509345907378 0.1119056836304253 -0.1440050204099066
0.5559613258344598 0.17115894927948716 -0.05989094002390516
0.5617366171496201 0.10488879746847601 -0.14322917343341146
0.5349503571046625 0.1442973901158382 -0.11349171705560934
0.5303157762093065 -0.035524755037528166 -0.2618388132565599
0.6277992304075326 0.041968865426241564 -0.030177043702593664
0.5911787684408409 0.18244859242687994 -0.10099079377638986
0.511269433609641 0.12820175192652528 -0.09786877349685597
0.5187426747149857 0.16124617192093638 -0.07875335135270234
0.546060152545266 0.11829887799652283 -0.14737055555497136
0.4350145286313989 0.12688285381702258 -0.08578720664405637
0.49951176562433375 0.20276269379664313 -0.10266852312392416
0.5601820293775006 0.24224150449373383 -0.07923287914792354
0.5647681376732692 0.16162615286719983 -0.09921394570469033
0.5147557383146477 0.11928072502760756 -0.09832863224301036
0.3972146676569537 -0.02648554412630233 0.015255576139139748
0.5470844835625996 0.1543548105480852 -0.11716940527108477
0.5335302602901777 0.1513662487625993 -0.10116616959078328
0.6132753713518753 0.2067180302879592 -0.06308240876157356
0.5327283752023106 0.18471975593567436 -0.09592586311876516
0.5704821010275793 0.13859316396343502 -0.17408694894689347
0.58348868597011 0.16090685560220663 -0.12053017221421669
0.5910289765656955 0.22324272398424228 -0.0801808822825194
0.5893012494126708 0.2457843961262256 -0.10340154671263235
0.5518929155678336 0.16142217679410464 -0.12422156878301394
0.5283633533567524 0.12277334388269878 -0.10626304957563093
0.5381425095003749 0.1876494991602442 -0.08158365001884249
0.5525745053873834 0.20202680978539433 -0.05829577851432077
0.6253145786440086 0.16558969988241756 -0.20367819309251445
0.5687165361531186 0.07081842150424222 0.06541289570134268
0.4690580558678903 0.11423303788620842 -0.15183715513080642
0.5908461532445983 0.25397089976746656 -0.021031505587558286
0.550215133226942 0.16162221379181574 -0.1958004656629555
0.5620883931775325 0.1924522272146021 -0.060300984470387675
0.5166127169275967 0.1344431552637957 -0.16205741285762088
0.6304821620290966 0.18771794917651619 -0.10205231061300424
0.49519839403998844 0.1414419440422705 -0.08794761594197098
-0.3707281275752905 -0.25784268587651127 -0.1343345370333111
0.047012117513645535 0.2363151962623249 -0.029389314944239686
0.5317512442244094 0.19933910427360502 -0.0721115559472878
0.5965288252662049 0.1583727933545731 -0.10047623148264506
0.5433540320659631 0.175712661511767 -0.07477735595421109
0.5485469730512023 0.22183238325501975 -0.0698893510614198
0.5570781436942127 0.21245900832650477 -0.15313878361024535
0.5275831323191937 0.1794597915206566 -0.07494869921339387
0.5733664651365302 0.15154018220826515 -0.21511390322913826
0.4980039845555666 0.15560200031495697 -0.11213103918788647
0.5172650706229263 0.13967608456053426 -0.14270872435312754
0.8476512071921718 0.027289125077658127 0.06576501416552105
0.4982585518714018 0.016244974305863025 -0.18169288894571878
0.4939913622857546 0.20390381972578098 -0.18277223894637018
0.5647373390874577 0.21781059111225431 -0.13090340520508903
0.5372610290971522 0.224521705924019 -0.018162542472026644
0.5095030521045487 0.23292251886226722 -0.08289478257884753
0.4763136968410322 0.15558359207503258 -0.14908101552148878
0.4909775596199779 0.15865362301050823 -0.050811458406741394
0.547445756642901 0.1952802623439709 -0.09726276509084641
0.5501448711829937 0.1630047386185538 -0.07481573966293809
0.5535197929991966 0.17876432638291817 -0.08246298462202617
0.5352067680182131 0.1374802767824974 -0.10707553621776356
0.4789515835982172 0.102420239761841 -0.07666610422967324
0.4489551084122638 0.1539470525911213 -0.07381512729674
0.5529683140476038 0.19417828350159994 -0.08789007654931424
0.5068884536769644 0.16496702355874504 -0.1060654899997644
0.4765727747879396 0.3015452090760107 -0.0051186351159628884
0.4766851586285554 0.01650269805944049 -0.09804794131551375
0.6007990902762401 0.22031744994961855 -0.103713530459288
0.5367557044148725 0.14694661279051502 -0.12821884298452346
0.6205622088170344 0.22008280130606295 -0.11465114773051255
0.47755717686558796 0.13358471811065442 -0.16204978684086768
0.5350087382375932 0.20895276189025935 -0.05346011507708681
0.5235389200884129 0.18802206886857675 -0.06215259624480041
0.48144641471816385 0.16004496671857282 -0.10978435108444273
0.5141258652175509 0.19172709761983242 -0.06212749676640783
0.43242592878834785 0.12649495538380506 -0.09021433501530396
0.659668762017418 0.2757098378042713 -0.1176281871501601
0.6476125370429031 0.1770774240563071 -0.10076606491657003
0.56552508931739 0.11536522588662024 -0.17777237762010145
0.5134857323835149 0.16792006202337006 -0.10395251167150832
0.5785279903439573 0.21747623123491167 -0.0855743132938187
0.4321521150473302 0.14628721399228084 -0.06321042941218025
0.43931221929491926 0.1079558443752262 -0.08636134144714447
0.6398018383157478 0.16000904511219005 0.09320411187516697
0.45035826683539426 0.19151522300680313 -0.07684916858843849
0.57027407726045 0.17514511645617858 -0.0968078559604919
0.6495569095691565 0.19440921080635576 -0.08386540137283305
0.5502999274368392 0.18549479342919994 -0.07757042318598906
0.6042804295335884 0.1789752678953107 -0.09810620131392511
0.7687720769861812 0.09739053593102653 -0.17256366483385932
1.059617115636314 0.4030844891197205 -0.6463862774326401
0.4420897495991767 0.3860222523825314 0.06468656312927124
0.6552997228726838 0.3139822140788908 -0.07653974257263485
0.5825229462900268 0.15117813014089165 -0.13953686555973377
0.5452723870915008 0.1660557184089555 -0.07085297086425157
0.49906208783434636 0.15460367739328262 -0.07640843015479959
0.5507476677647105 0.20588555580462753 -0.12656945306110856
0.5044654034980454 0.1934746834662633 -0.06404866822006738
0.5514930469591945 0.1530030368949724 -0.10677690229042014
0.46689029008223315 0.08345701885505719 -0.1199183657372771
0.5337544002869095 0.17593062975745966 -0.06608164521693993
0.6200242493985115 0.11485874427191334 -0.09384840971273434
0.557947932052258 0.1818456145802827 -0.10432799051605457
0.5069866322568544 0.1659952852897959 -0.09260917577748273
0.49645545544271386 0.16404217735507132 -0.06264464118592628
0.6123700846776217 0.14896827968652815 -0.1445665259256259
0.6278835276244763 0.2427994653060921 -0.06855194773538642
0.5801407965168721 0.20446452053815278 -0.05035480223864397
0.4872298742639032 0.14112415007647883 -0.10660854199895198
0.514273607392596 0.1378882345441923 -0.1210619152568313
0.5819319870879838 0.11850815836606898 -0.13016550894371903
0.5820820572462821 0.17572164745595842 -0.1582076630712379
0.5744632284117586 0.15073478172399746 -0.1271152190237217
0.6501765899421059 0.16776121002979494 -0.15298918085647983
0.4547039550725174 0.2095402768846384 -0.08310493338433389
0.6257836808828756 0.19159412395976005 -0.0012624252207444897
0.5813611037915223 0.1978859448117305 -0.0812783115606237
0.5283448505106207 0.17787465453039886 -0.07746506981496282
0.5443787539478535 0.10265148030319438 -0.16730555412519266
0.5261006409902791 0.18493271060134475 -0.02322431883797549
0.5150841130113122 0.1391075407519793 -0.12017752021833417
0.5122434506959905 0.11334173725560959 -0.20820227444457373
0.5641974736180373 0.1772612670585545 -0.11446791660225131
0.5311278314839569 0.19443275872339427 -0.11825961819266695
0.5063935773623314 0.160778982392344 -0.0794751403356031
0.5100091889643465 0.1659570927191396 -0.0707946472331571
0.5163954282597842 0.1035384785353699 -0.10835721930942555
0.594032085125491 0.16188961813273295 -0.19043166281261392
0.5222073633909474 0.1000449419480276 -0.17269589790168993
0.5514744557935956 0.1179530777576474 -0.16648980788795598
0.5363520569185596 0.13919398983364317 -0.11283557975846747
0.5194612701847063 0.05324828185413821 -0.19042916431388335
0.5314291710585053 0.24483474205865718 0.006957348426851695
0.5420244042623779 0.17877748624744072 -0.06161107899188778
0.5297458358321592 0.1656136489237383 -0.10620374473796801
0.5021566758141773 0.1144280201606307 -0.13243435071211707
0.5419818760926205 0.09268409098879715 -0.1630989135881009
0.49687684998346526 0.10302567051536471 -0.1291475926068415
0.49364442830170674 0.1706850172955967 -0.09736395786077878
0.5459321630860359 0.15456349212732334 -0.13880047319631217
0.49513315440125893 0.17107052500358577 -0.06916139787566067
0.5325164662484667 0.16611755299254582 -0.09375382463153414
0.5423072614326543 0.12264282010536931 -0.1279111847543959
0.5075304240587855 0.19838609699988297 -0.061016949977158674
0.5664492331569306 0.20759655021035428 -0.06259301471715162
0.4778625586594103 0.201196918481088 0.012245526220397096
0.5556449973150848 0.1864249518781378 -0.09870458240706625
0.5783623728043494 0.24667270730262203 -0.07090822816681452
0.5251244561615636 0.16809359190503415 -0.08660816213958356
0.6277441518259081 0.23751605548238786 -0.1780255956051633
0.5297139529918411 0.15149579277385783 -0.11922371365622553
0.48152471591208723 0.28533418881477246 0.03384741067273467
0.527935601519971 0.22907948022697155 -0.662953831218033
0.5772854842525135 0.4848733956857245 0.14124310631763137
0.545277091081374 0.14848175776583616 -0.09673793962440413
0.5499887328435022 0.17452495575125226 -0.09448341018173778
0.47726781108229943 0.1786418987595937 -0.1127202984856126
0.4496982391473523 0.11514895815295745 -0.13491345468756322
0.6106026754739275 0.24515649159897634 -0.06228794514868241
0.5134057292981424 0.19445026764685736 -0.10438253387661689
0.5482026716088342 0.17433206793668887 -0.06288067572671707
0.5497189969970293 0.23615721105099396 -0.2592810000003567
0.5697355316219159 0.17876569173614598 -0.10614023509927506
0.6384886574517168 0.1857935980195009 -0.029729665063428
0.5735439000388567 0.2331386942789493 -0.15934114054164183
0.5774749895706179 0.14564090294175003 -0.11099188803405013
0.5136845244913104 0.15277883487223676 -0.10028231700218271
0.5399861929815017 0.2079870640155832 -0.05064920511003379
0.5814266777148873 0.16105242311672896 -0.14562374517529975
0.4773433717004707 0.10932413235224203 -0.09093188222166759
0.5682938543803289 0.17212013790850733 -0.0634911658411852
0.5660560356871542 0.17139212725220432 -0.09281842712096022
0.5357204098158945 0.13339739952095897 -0.09308272851507127
0.5638373855005625 0.2050517792326616 -0.03183430217589489
0.414692496543438 0.07152492917185782 -0.23537741299881532
0.426378296078866 0.12075094219181892 -0.07450529023248009
0.538552529945548 0.22215791198391344 -0.09908067565726242
0.5527844119433496 0.15666187290614175 -0.068335143627138
0.5716230525281389 0.16900839820280567 -0.03480521798883274
0.4883747696887326 0.07361908703475706 -0.09503498314279568
0.46173474601414455 0.10474274594400867 -0.22675510067480786
0.504127270104334 0.15943985584166853 -0.0946259844075712
0.5654134981928678 0.1733744250373661 -0.07955417599507086
0.5884670363798818 0.19899024897424056 -0.0805610513231727
0.5723637517348266 0.27791262572543474 -0.11838009681977724
0.5093030306982769 0.19480304382540226 -0.025757203403941276
0.5168796381078664 0.13257296882906644 -0.14211815703350794
0.5493354768357221 0.17556634953115235 -0.15174068338660618
0.5313232481370562 0.17065673696274075 -0.08516570479275742
0.550247273712273 0.1386909249952737 -0.1658916968679307
0.5472808301838654 0.1723024363517709 -0.11344875840453028
0.49405187489242053 0.19590466226790682 -0.02178258439087699
0.49656011651876497 0.18512667617915213 -0.022482998113389385
0.4862318400471395 0.14959427067461206 -0.09902380200543348
0.5038693769013491 0.22411177998841936 -0.05542934648039477
0.4072357578791923 0.16328375811542628 -0.10843408931663134
0.48246084668730305 0.08564077071400789 -0.09595425187356454
0.4653240315861069 0.19889345385871593 -0.026132546030396497
0.5577171348671186 0.1800006688782787 -0.11629997393697522
0.6309109486182649 0.14751092360125995 -0.1824626375814944
0.46074547166247726 0.03550036100850207 -0.1438953815030004
0.5599697026589467 0.12530269572476982 -0.13347452752259414
0.5531857115303751 0.18480542142137324 -0.13199282021477643
0.5309149570855709 0.16782987433435892 -0.11243876225162808
0.5300089907084953 0.1444561997404037 -0.14872340117688054
0.535994015305306 0.17466217906545012 -0.08633730882522173
0.5643299738366636 0.2281321854278815 -0.06198810785429032
0.504308684072214 0.12182019127138233 -0.0719970292657024
0.5346700187227782 0.1577000887865836 -0.12637538590018949
0.5605058653069364 0.1925520083060519 -0.08021411023136693
0.6991794166538341 0.1681322138311998 -0.054688587306173986
0.4939864582802329 0.18654956038119508 -0.04351355169316662
0.45936520650096213 0.006211188891057873 0.37653290374348103
0.5110370557939916 0.14889848538402362 -0.10909951362310721
0.5070608416314144 0.17266536403349164 -0.09376557401094487
0.5153225545182636 0.14315015899566674 -0.11390117474621775
0.6142175457980272 0.18981197166866082 -0.0414695497862283
0.536226006394628 0.14393433938582234 -0.09706239322179044
0.562460399318212 0.23192769597238794 0.10577424361366639
0.5354340667718134 0.19431976758073688 -0.08200164817640143
0.5671326911347023 0.18359627616891316 -0.12125400800223929
0.5126341127472926 0.15958205888591692 -0.10880541689621737
0.5320785796251073 0.16579450806239038 -0.11779118316198378
0.4150183655447961 0.12787493810733963 -0.08796730972485989
1.0863465179464526 0.12049415312233691 -0.3871188355016102
0.5037815719558125 0.13627411419457758 -0.09058753984450618
0.5374441819347737 0.1692589132157991 -0.19220530304420436
0.5105571062787533 0.21064873491386038 -0.06415878521011109
0.6248253354076212 0.23073346367121417 -0.05333018239829812
0.4840301811921677 0.15093484346033392 -0.08352595966999843
0.5784927998148532 0.12206190635527037 -0.1926490855399834
0.6037473581232575 0.15040861110176706 -0.17935060404772685
0.4985541136920233 0.1353167742213941 -0.08699968058417085
0.5208506199867031 0.15743701105867558 -0.09643611260563034
0.5401128153772845 0.15258962588308123 -0.08844627087501067
0.5236875076306546 0.1881758451640394 -0.08139851856458336
0.5273671434441383 0.12747105972380268 -0.061323432790800325
0.49387008623511974 0.09072705082380139 -0.16575153840435064
0.528765432294648 0.16316933232826614 -0.08872346532757547
0.5113287778266624 0.13543655201607407 -0.08582270894052613
0.5469803160196136 0.1651067721570314 -0.18145037597770397
0.5430899475043134 0.14778275995692525 -0.1414969376037618
0.7739456623739329 0.07190536596519337 0.006741629520377046
0.5281067459175119 0.17540974423698685 -0.061121419043558944
0.5830117931813277 0.15693385775216484 -0.14294114800793523
0.4500649752510242 0.14134855780955036 -0.0854505379620889
0.5689875072382051 0.14057308067089025 -0.15544243538013802
0.6049098280577709 0.1311873305438951 -0.16143832823263438
0.5818782499912061 0.22296322938092317 -0.06785563098060265
0.5216321731905111 0.17067092967971575 -0.05751734669181019
0.5724194622610526 0.2237911293057664 -0.02551221380485913
0.5725241768335536 0.08431153071467179 -0.09382038593383868
0.5652295853141425 0.2057499570974528 -0.08049793990809917
0.5246919045237064 0.16547705918532074 -0.10185439643149152
0.4276966179563999 0.08706329295844739 -0.10712052661861549
0.5561005290221033 0.19724549484988074 -0.06724082319919944
0.5445507778822787 0.3031183938485924 -0.05143560392346558
0.5349695040976883 0.13642969424310536 -0.13853253079307137
0.5199425342824497 0.16797813893745683 -0.08198396245020945
0.5209707952506903 0.14518651482188716 -0.144432189620602
0.5626355032443939 0.21065081601432212 -0.04208794164185292
0.5483934189796003 0.16759160936550188 -0.037690259568762485
0.5174651981956231 0.1424246157447442 -0.0996487483259898
0.6056641965941196 0.17291396675690862 -0.11550397470921325
0.6698851769014311 0.18775298493193304 -0.1414798195108915
0.564338526328612 0.19720033246804292 -0.12185245247630405
0.4607721408640941 0.09021585904392282 -0.08907459712727928
0.5998306514266005 0.17674327203050666 -0.08533269899817242
0.44026044804570574 0.05461463548223833 -0.22589894843142133
0.5168646563020047 0.163817344017275 -0.021767982365247462
0.5932862676643254 0.19098926328462085 -0.018850389012783353
0.45703585782544565 0.09890903841687759 -0.12423049704329969
0.5682453047390368 0.1487712428781265 -0.17276359786214357
0.5327599289436193 0.1452381146121695 -0.12386809841615332
0.5977582406504496 0.21422636989876764 -0.08593145220029896
0.48544122178822136 0.10770057834170643 -0.17183055601745423
0.5250607397369151 0.1578597089714151 -0.1062394616845097
0.4849521574745097 0.13193372621179833 -0.07973915856862845
0.5325520086489348 0.15765064089146108 -0.1499084220230884
0.4783578934722641 0.2193897736222823 -0.08123865182253098
0.5459836657724679 0.17889940892649747 -0.10203343044153712
0.5255647195737083 0.1306054040965421 -0.19056463138394975
0.6120595415970342 0.1428438998943875 -0.15056264992728075
0.5229926291679021 0.18128793089266537 -0.03739533949178053
0.4885826146481236 0.12024769380346356 -0.0979420289081645
0.5946228570913377 0.2008727487165629 -0.10071485746289
0.5056926271173836 0.13830803385215518 -0.0915660715065485
0.5331522454319213 -0.059050212366884125 -0.13823564672097177
0.5233800553018 0.22417899425420273 -0.0813982801604709
0.5328342674569058 0.14743868290361206 -0.10561037427959263
0.6260476548210647 0.24159159070993041 -0.07837989456459127
0.5842762491465692 0.1729525504287608 -0.1272693630080255
0.5171609711607914 0.15920460211196996 -0.10655189075706062
0.48336700519465126 0.16818598124044115 -0.0018167075084249973
0.5260281708982859 0.15454161073540718 -0.08287552348480176
0.6267812694497366 0.13415214709596057 -0.17443049192061721
0.5673301486807247 0.17335813570127812 -0.11844608634612541
0.4855298128513539 0.10355914470682137 -0.13625712040453664
0.5135485862276141 0.24111506505141733 -0.06583121063712838
0.6349409839710063 0.23350043341730498 -0.20063827622786334
0.5085160273670226 0.14338724866402686 -0.13719293352102113
0.4768668192540133 0.13138729242041336 -0.09367591437836609
0.4674241070834739 0.17602883500600797 -0.01490038096551416
0.6132941643685115 0.2039556526237618 -0.07015255007090104
0.5321491876433413 0.1487995037282417 -0.10362363379485373
0.5686828233041012 0.14981516639738857 -0.1565111810915596
0.4196458313074345 0.27897643254542004 0.027181355264104923
0.6661656362722397 0.25052517922384254 -0.07744004740473542
0.5393824719851921 0.19605445770301344 -0.10575825184741916
0.5440442640553158 0.00821902863555124 -0.10796857657018677
0.5418872285805776 0.10910684695693362 -0.1608711939406362
0.48633244592610936 0.1421724465207035 -0.13257529532313583
0.5065920354543323 0.1283066864268676 -0.17798102611209288
0.5137547423879312 0.16572542253308598 -0.07187285820305078
0.5067907651496171 0.14932810548535258 -0.11764646538620127
0.6032689154914408 0.15576730238186087 -0.15595219199744292
0.568841618541768 0.19039047661030395 -0.0914791858172066
0.5350299838372337 0.1535221712434236 -0.08714751974923729
0.8302724219355753 -0.7051354607742155 -0.45267087252469196
0.5818858805129707 0.24722215842874107 -0.11176978596523668
0.5765084824579105 0.17699533961564384 -0.06024259403432097
0.5497707794260975 0.16591921576664959 -0.07658125259848703
0.46979847541607 0.15349273081079673 -0.09997260621767623
0.6381424270237233 0.22260914387649677 -0.04404544081157269
0.6356898234307664 0.11643036425780906 -0.20569893666009875
0.43787430438757724 0.1314493124078524 -0.07783121332528253
0.4768236761831872 0.1618914470969628 -0.014568876838922051
0.5438711403886884 0.10501016945892161 -0.24758230301998196
0.4414400579516382 0.03489618633179248 -0.20035744787827525
0.41997175655794194 0.14178292339889254 -0.029428348215333244
0.4554328923586297 0.15445684391522718 -0.09351937499076257
0.43072331665550223 0.04383657986946332 -0.1585925822590184
0.48150098499911564 0.13428335088372023 -0.09108858667678987
0.5648305042325319 0.08143923937484487 -0.13472625340048694
0.5169938873604281 0.1536217861962541 -0.07395598528191272
-0.34820688939774413 0.6183531963305597 -1.6824269376162704
0.6027319764584433 0.23836941497418707 -0.05964191732772406
0.7239218319730014 0.07973379493370203 0.43649377183012916
0.5425609853594437 0.17015424594805495 -0.07284205648355169
0.5376760501919193 0.029954518982066247 -0.09277159592519979
0.4893755943670044 0.1650466797340755 -0.00040627474797361174
0.5452130979848846 0.1627178896534076 -0.10270272418088666
0.5568239664308408 0.1916710916490274 -0.09423806954859515
0.4917040454621997 0.10615652604465708 -0.13309333765155884
0.7011095756233487 0.052731736424306064 -0.044110928123075155
0.556180428223854 0.16156808297449743 -0.07734863126779601
0.42260564758933583 0.18488943680881675 -0.15071429375097978
0.42538666070859676 0.1378760129034049 -0.06797113948033484
0.5381281672414104 0.18040830195468516 -0.07690622884763343
0.6883801115641859 0.09243055220770202 -0.16716792890846932
0.586433052390106 0.13798082594055927 -0.13268960220341341
0.5325707373587534 0.18476591272727205 -0.04526491505137642
0.5245997473539035 0.14707499174559757 -0.11555671033232784
0.6124151465684236 0.1799505422550851 -0.08007040221090733
0.5540111602659863 0.19164572214125997 -0.053758834689631385
0.5606805987356438 0.18631899256877205 -0.08800855007385167
0.5402904212728288 0.15154805851247488 -0.09660909824236796
0.5753349606687266 0.22398986860704895 -0.05051717663636168
0.5425331231098767 0.1752553677952733 -0.10792623520961797
0.521329728099289 0.14578359380922734 -0.10625807914311736
0.5401854909905524 0.16654459170962355 -0.09592844612092222
0.5297408114920756 0.1642240456583579 -0.08612790152847083
0.5169095339547027 0.1805743372608788 -0.08658031003099609
0.5525633660292897 0.2645648616042138 -0.01346013420231884
0.5765621842065798 0.21280757440021603 0.022901342185917883
0.5040885440883756 0.16221547216522936 -0.09274606209280023
0.5938693808590756 0.17287885840923423 -0.10092423792011118
0.5024587197721928 0.18498281890472867 -0.06481223050269591
0.48962722372522194 0.13434104701971705 -0.10596841842513527
0.5602520167934131 0.205565958475745 -0.09373671581562348
0.5339329198533846 0.18488808239774812 -0.05675522791116805
0.40288052363081306 0.14544756065066622 -0.1971204313194903
0.41287974028409735 0.13479891438777258 -0.15788850138665111
0.5030547244432171 0.2614057680945052 0.0979053700541499
0.5607309200892416 0.18813872635448092 -0.09139498467501994
0.5255305850057539 0.06562098577464326 -0.10162044187927677
0.5409699205617926 0.17646690633159778 -0.09845256631385269
0.4998855032326901 0.13403755163074038 -0.1243915581611077
0.5620586409960993 0.12183144337981844 -0.11619833649334055
0.5028362673107267 0.144718339683493 -0.06873314614566084
0.545170031386391 0.2281286137270513 -0.13165421556846013
0.5336779364865265 0.1614888027712027 -0.09430492955749514
0.5932700525320627 0.1564353848697806 -0.15694539611388336
0.5715649662153623 0.24318791289343267 -0.09740873377702997
0.49406878868609283 0.12819285376801304 -0.09710987447053299
0.5310675291510165 0.13892398677683104 -0.11626017117131937
0.7758350542061123 0.6682656596196921 -0.4813326867243575
0.5232044495041919 0.16365404705192077 -0.10914429907549561
0.4640784933552027 0.15858792777385133 -0.0912846532650633
0.5253082684944559 0.18971400486660173 -0.05212540120550102
0.5194174420262812 0.15400639275239314 -0.11571058841346371
0.5252989887890749 0.1442749845332969 -0.08578600477125065
0.5202501273990663 0.1891549170315443 -0.07535915722888831
0.5096006264377024 0.14477585598055498 -0.1122187662839167
0.561695789431127 0.20985513210283102 -0.049770168403512116
0.4981781390282549 0.13230557681470145 -0.12189453336486622
0.5550604383359428 0.1515894591932181 -0.10367989744619877
0.574982297820867 0.16793757699264233 -0.12794936169387938
0.5759923475161486 0.21296969950890343 -0.06467435128607235
0.5179018409355933 0.14007721838137854 -0.12392778146681849
0.5769445113758422 0.17428431959120871 -0.06146559410197483
0.5222026493051715 0.18397251015011307 -0.03873471590631539
0.5280962090526202 0.1563218920917393 -0.08695131610784301
0.49399046682339076 0.15770691570810413 -0.19858549827861793
0.5345453317185331 0.22861870821625985 -0.014612449264348015
0.5448219776256167 0.15972704572746466 -0.14915882047290552
0.47627829749839634 0.1390195687994833 -0.04540900114116653
0.49946625476687245 0.19697114147820116 -0.04607718218480272
0.4672983471708676 0.13003470210054502 -0.16725826364643126
0.4741218261009408 0.18134539507875047 -0.07125061179451109
0.5484844377354534 0.17929352427648837 -0.09358754980485173
0.6100101746167468 0.21595647522656236 -0.06557488555785085
0.5694912604075739 0.18044154146392088 -0.05434933801669217
0.5162896751215271 0.17630790462692403 -0.10599115159052985
0.5260788084054013 0.2028343034810689 -0.05044552643053635
0.535970238269897 0.16486060854882112 -0.09809024266695587
0.5205585307443528 0.17498165192122883 -0.09044998505552826
0.494958459698438 0.16432069181445286 -0.10464361705263059
0.5072936372089885 0.09691768783031307 -0.062337244906274236
0.293419886663429 0.6922318546216388 -1.3947894556542622
0.5460129634546433 0.1877281608991268 -0.036939547381109605
0.5239725848363435 0.23835525646782685 0.0011984969582954363
0.5459464273625372 0.12059940452584783 -0.16860006124164784
0.5580522452995638 0.18086400210694364 -0.06800583173557584
0.512942466532678 0.18153029781637997 -0.07713608671656402
0.7397021595199931 0.08604381523335292 -0.08012914862678144
0.5192838841371952 0.19275196802692562 -0.07570264421448769
0.5428963227804218 0.16317196925353983 -0.16876549198491375
0.49362830919255885 0.1511752172655747 -0.10283615841012761
0.5491920436361397 0.18082684859791698 -0.06376461769377784
0.4812953324259581 0.13127427305678907 -0.11148968374567403
0.5805552792348863 0.1829075317599802 -0.04751843145686507
0.5076146686407128 0.1220641523132997 -0.11588760668797704
0.5428893636065197 0.17055722905746507 -0.10956572018307043
0.5516375354386582 0.12978623429893332 -0.17040943975885625
0.4295318262865919 0.075316565923913 -0.07825055132948933
0.539687176083163 0.14261475439798232 -0.13722249852196455
0.5554167991049042 0.14893002468019745 -0.11519092930890906
0.496489892458726 0.1728934410670604 -0.06568516417482329
0.4975755759533058 0.10853999003759895 -0.14790667973477412
0.5331457179718768 0.16611622087293654 -0.13155941974900998
0.5284217651458789 0.18589300498322814 -0.08488301181913016
0.5061722470854875 0.1308594270624326 -0.13782014535755138
0.6523662470919476 0.20334226594184202 -0.10275762714729808
0.5140371766727583 0.19481849901623605 -0.06531283944542565
0.4699692846546384 0.20572902562028617 -0.0255317226252032
0.44450708073460987 0.08305576374584689 0.07702109446921668
0.4201201700873298 0.11823701575707446 -0.06853959285334099
0.5019430987393321 0.16444741090228376 -0.07212019292435912
0.559397590922714 0.2564475627176819 -0.09164890183092211
0.4600824378266566 0.2156777686846567 -0.04269093111423672
0.5474315462963943 0.1478607851699394 -0.1493926957676308
0.5374949959375499 0.23218369101510916 -0.1834095235704467
0.3934111776584075 0.08078164455196202 -0.19677348873287315
0.4964804119886992 0.2541688947583225 -0.12558650600129795
0.5827048338852308 0.2747263735205365 0.022285205851034107
0.5866963161775232 0.13825313404842632 -0.15505936075504678
0.4720112407016188 0.16210778963306893 -0.041582061999406505
0.45177882104644596 0.16567728323502706 -0.041823090922719075
0.600169625351441 0.18063341193328597 -0.0608135230646667
0.5949105192716218 0.21539403674998425 -0.11897068490168294
0.5103590632919861 0.15301959341806537 -0.10737945252697045
0.5398343532453396 0.14540077644852545 -0.07976656200492016
0.5823442746971068 0.22521798137887572 -0.05499087369418021
0.468217544210745 0.12119228528538883 -0.18073328627886553
0.49706485600910355 0.17907563693259476 -0.03787239882836957
0.5196552742835081 0.17489818238823318 -0.11199714755142054
0.5364646648020255 0.12755914146748637 -0.10791390895005293
0.5357765876161409 0.10687091243642044 -0.14862370882818254
0.5420276522532106 0.11971923701705123 -0.15153130099230339
0.5719625497946765 0.20777825983566345 -0.07144887749629447
0.5319716302410029 0.1502382118921446 -0.10200349070848347
0.5720259127886891 0.0749925929083588 -0.18287755196030275
0.5210855568333272 0.11578112433099363 -0.14967511193492555
0.7363423178021549 0.278853719621992 -0.38436742656693923
0.5250026665464986 0.1709904150575312 -0.10547742699120022
0.5369214260814203 0.15268685276487304 -0.14937802627193264
0.4631949645529687 0.07985156438422791 -0.2059486120762699
0.6119489107487937 0.1676948378442944 -0.03611333444692377
0.4839075655634133 0.188505285092873 0.010852144309922096
0.5467347716634663 0.1315242315764351 -0.1376103407419862
0.5784890803119254 0.16257327537246624 -0.15111040048401492
0.4294531758390292 0.07351666868814277 -0.14847294987768578
0.4913909147154527 0.12926188784555848 -0.10311007279474893
0.47726779880252934 0.05307070111075518 -0.1475418446679555
0.5254959065379126 0.08199670087887512 -0.25294556471686747
0.5919888622782423 0.19933780864352002 -0.06777878928517111
0.5013081569667577 0.11683142507536104 -0.10399788894901008
0.534886440203735 0.1828932637046421 -0.03087756615391868
0.5993222720264839 0.13131619562088304 -0.16285993395990772
0.6227095628756558 0.22512700505484418 -0.06477348631344171
0.5342584883494226 0.20534420146219645 -0.06778858857703085
0.5120415463086658 0.14147833378487462 -0.06807670374513464
0.4904297646805844 0.10349787503523089 -0.12048498209523473
0.5456103534945953 0.16524829327673274 -0.06717507777878495
0.5446178598319307 0.19253548170277668 -0.038626787660803075
0.5256492592892528 0.15327600557696996 -0.10402703045718908
0.5031631831908783 0.1538549794079529 -0.09180693362756642
0.5141424177335807 0.09287416428381334 -0.19491231592871827
0.45993999175323097 0.1429560532056371 -0.10807688215348321
0.5158633787025622 0.1677876933601965 -0.12080742473747819
0.5583915036038434 0.10857091886603598 -0.07394869256472703
0.5344418438655509 0.17075550132574335 -0.06163443072014729
0.48914704860877123 0.42833642895303115 0.021268187471775946
0.5250042045796874 0.1651255555083253 -0.08765308450966813
0.598402159930572 0.1650752411773908 -0.14486215841421313
0.54345612171619 0.1756223918379476 -0.07381130801772429
0.565640808451576 0.18538200975760333 -0.09658571650462022
0.4642087633227163 0.11134191292407536 -0.15632289343545835
0.5764460627611356 0.24086560169496352 -0.02830328524916581
0.5083087094300254 0.18392898633538834 -0.030700625984934504
0.5278605448557414 0.16425126531331102 -0.10590667385520192
0.5464438985868867 0.17265807976576752 -0.09488533637059504
0.6143752230711357 0.1104587050787984 -0.2095014468641807
0.5092878599254789 0.14713678607856195 -0.08698823040214165
0.5232150375238689 0.14974323352106467 -0.15995097759588361
0.47483666239375566 0.1807625828683399 -0.02037205115917118
0.5933965432731156 0.16951785398197217 -0.10298737526596824
0.5724909563170115 0.22159696822913588 -0.16880938967952375
0.6521145056790942 0.151638833866798 -0.20567787439139806
0.48722431764286966 0.17091950270133793 -0.019640259676151572
0.5287018143672526 0.2569559811967963 -0.14148372934616305
0.5601987670928565 0.16203446600229654 -0.10712294532214628
0.4545569472222155 0.10653361489426061 -0.12977329460790088
0.4793907175031791 0.16283179486319455 -0.04946760500513392
0.5053977668342213 0.15100433070986696 -0.10894685737426357
0.5478268890388165 0.13873862339511334 -0.033336109653760104
0.6225186373783629 0.10655841535410104 -0.21834143636073122
0.5127347853493802 0.18649590636340463 -0.05351759135587031
0.5419396712276807 0.14257707123053365 -0.12509991599122827
0.5129583269465172 0.1240962991570882 0.0021750537652280855
0.5085986694681139 0.09558584830341488 -0.1420637159710907
0.5238801305481218 0.2110528474320006 -0.04999971514294543
0.5675596115408155 0.20826501015491772 -0.09154211811940627
0.4101558318790808 0.11345369101414349 -0.07522663152334985
0.5591760717651653 0.12008378273566223 -0.16148700558917994
0.4725099516559226 0.18923191731303746 -0.03108489279182436
0.515380091930723 0.2127426602818332 -0.09185988417175395
0.42261005873839963 0.10091440995745415 -0.15137547480679814
0.47526458044450237 0.08670721298574335 -0.12178895436403536
0.4445699881288192 0.1955926695478638 -0.014164245435722478
0.4329219209880364 0.06274257030952413 -0.2290117771321718
0.5906302460223571 0.16277777426961393 -0.09257348508904784
0.45243276516930564 0.1882188121193451 -0.019118244586934452
0.5268253359707273 0.12964945857419252 -0.19089982730531574
0.5436921336181513 0.2163165358681738 -0.05850976362438587
0.5362170583569252 0.1714166811006237 -0.08045161027101244
0.5508764938780359 0.19855285416602442 -0.0838053472248248
0.6231301612781692 0.23654479819796848 -0.04524807208298398
0.4700434128248787 0.1685898375512238 -0.07737691768764421
0.5969664853251402 0.23985546462475327 -0.011907397236257111
0.5255269829047222 0.16866813623232702 -0.09824622609218636
