# .PCD v0.7 - Point Cloud Data file format
VERSION .7
FIELDS x y z
SIZE 4 4 4 
TYPE F F F 
COUNT 1 1 1 
WIDTH 803
HEIGHT 1 
VIEWPOINT 0 0 0 1 0 0 0 
POINTS 803
DATA ascii 
0.530719022970203 0.1768551660845219 -0.07640038381701686
0.43319317127931356 0.093360078194209 -0.11637504841117163
0.6005587509783652 0.1688470012624066 -0.108168414333349
0.5969886429591611 0.2291801053487177 -0.0692034085447375
0.6330779722654398 0.20835280114896193 -0.13895418242461233
0.4919829061246048 0.14517767182702812 -0.1446752358594665
0.565474201102802 0.15836212704623165 -0.16471440921276326
0.4797568474119345 0.16846230952513963 -0.0642374862233197
0.584093235455029 0.12182252381109038 -0.12142397900770163
0.4587381891885087 0.14192373513364487 -0.07568284971259231
0.4930656703411529 0.10316596440253534 -0.22619355990272538
0.5554560010377543 0.2008115270647579 -0.06507670768048968
0.5410469923323404 0.24976756239546205 -0.06366622376475561
0.5639199930763255 0.19652282584773673 -0.05830767031737594
0.48005586337762907 0.12198493799503751 -0.09402336326340333
0.4647649918403829 0.18073282557641335 -0.1337431936924247
0.5935198009038061 0.14295559329814012 -0.1620487579624239
0.5076763708482446 -0.056836218471332245 -0.07422284524056977
0.597019704264028 0.12317876053418786 -0.13198245889130078
0.6272690477619705 0.20991465970682555 -0.11944037636770588
0.541294439323309 0.17611525104521775 -0.058979362448155825
0.4172280149814185 0.1003743472557801 -0.08476729008367556
0.523126798699451 0.15549818833392237 -0.10172686527330654
0.5698934282691823 0.218569421461126 -0.05651359418017421
0.4805102950441267 0.14866310110920722 -0.08214919959230826
0.5657174963746598 0.16400360816160742 -0.03789234232755234
0.5219861280699973 0.17474734942142334 -0.10793369776453687
0.5873110141625659 0.13625569284076278 -0.1693799792389683
0.6025748213469342 0.2370295108042626 0.02475900224500549
0.48605837673760277 0.0875183766312091 -0.13033633847459214
0.6535318110838233 0.21001433861093233 -0.09449214855349908
0.5515222752499511 0.1734968436301898 -0.13026084947328798
0.5565245018304523 0.14449579124540435 -0.13206316175181598
0.5516797559794497 0.19081298707347116 -0.09271771092488734
0.5494524807306647 0.1431181331762872 -0.15063637636919225
0.5489321879152698 0.1631209243874281 -0.105975482190928
0.5543232388587569 0.17665828759213298 -0.1072261336429392
0.5494592737396147 0.170062801767358 -0.11151414154846861
0.5077950069502322 0.14897689577651363 -0.09784907799736686
0.6288766985786793 0.18238467279020654 -0.09993448773862212
0.49291660491867617 0.10781633646448086 -0.07548075829977563
0.5317649701706699 0.15115635563591923 -0.11772393562195305
0.5127128190926129 0.15159018340781927 -0.10728267568769922
0.5037843331074896 0.15582609960152638 -0.10479686474801042
0.5412874194248616 0.1588132048909472 -0.13103205081691272
0.5068043824464468 0.2897538510550248 0.024132653006432747
0.5767273564217561 0.18976361300171618 -0.0011165543548230517
0.545862375768948 0.17675940813214197 -0.11214910561459135
0.6030386093901825 0.19877630732237606 -0.09014514276397279
0.5681513644036897 0.14152238721730726 -0.131324769269483
0.5029400767466967 0.1495844987786228 -0.10540695818760071
0.573422010250269 0.14929526168923246 -0.1546032534805306
0.556957850462453 0.2177582984133437 -0.04668851149574493
0.5240990742363181 0.1421108786865517 -0.13732241643403142
0.5510369763781 0.1598495059834022 -0.10274186230749649
0.5096598780382351 0.17244353846405147 -0.07959915933555806
0.48319097656650456 0.13262889142451684 -0.11714429224272749
0.5973897917530735 0.1691873931386283 -0.12620494433274132
0.5158493822278416 0.1982980230804401 -0.040599031762994287
0.5816127914145994 0.17031666240862364 -0.12460765335367796
0.45100152264268445 0.16541205081520616 -0.10546259956866777
0.6956689297223875 0.02784594951923225 -0.11610882529704725
0.5025615737516773 0.19227215470020553 -0.07531579264349375
0.386831523209338 0.16659840663743353 -0.08969340800821612
0.5714766940130573 0.15727464365106414 -0.14177159197745937
0.4872939171659141 -0.12066316962415158 -0.15479551912146405
0.4936128495383656 0.15813923107008065 -0.012061566523044576
0.5697551813444477 0.1784169906456725 -0.10852984373137531
0.4564948428130009 0.14662678227726644 -0.09101031021992867
0.550879280142766 0.15813432920042203 -0.19699863634677683
0.5269114606095116 0.15743056660259924 -0.09919772400814963
0.5453393360538001 0.16771167737259418 -0.06047645273261537
0.49945855927336424 0.16213598069676038 -0.05647313713772917
0.7117697516560497 0.30552033562872793 0.005760080332080975
0.621433657329419 0.16042787343685916 -0.15903648367654455
0.4617064364971384 0.09764584310843816 -0.13963656431816673
0.5607049315776891 0.1797824971573192 -0.10954529204184382
0.5654681708530092 0.09063106184693481 -0.16009963817853645
0.49767558548732893 0.19823766958427314 -0.06545350461856003
0.5265837830781521 0.1602212618932839 -0.05729804724872167
0.5413543576318034 0.06500909714671366 -0.22194005160389452
0.4252578523910131 0.17694253418470396 -0.24927557944116074
0.5226873013704676 0.1307650989313487 -0.11092145434663792
0.6304800667998052 0.16978667494974786 -0.13815234253753772
0.5877579617043267 0.19439060549859732 -0.06809194407102837
0.5450487642636404 0.1489201930655497 -0.10502847751030231
0.4443954187997434 -0.0064771918979431575 -0.09374221691841456
0.5503075149213856 0.12422498701306495 -0.1569076132875864
0.4435773068681357 0.12778285386784205 -0.1274733563309809
0.4730943552748954 0.16896050907101312 -0.1121111213566337
0.5446288434492601 0.2203891198634409 -0.0725319483745892
0.4901932128528159 0.10026879212172446 -0.14660548493246495
0.5754957227803885 0.17494797092334124 -0.08668885953086658
0.5647070857645105 0.14287634082759837 -0.13956652679006254
0.5531152113695015 0.1847381051410082 -0.09797140479668087
0.5941391172693642 0.16492323637368145 -0.13332832370029735
0.48940246782129293 0.13624203243527688 -0.1070386217773347
0.6808738064105881 0.25483576419935616 -0.14699997442870938
0.5769672146163032 0.1295256184614857 -0.15157259021641778
0.547368159883689 0.16328010711818308 -0.10646588430067538
0.55258359700521 0.15365843771590448 -0.09723858347594216
0.5100534871300084 0.19429761340988705 -0.056976010042944836
0.5132406803157039 0.15006995271642154 -0.12246601769061272
0.5232786830319327 0.16567806037102173 -0.07379095082511355
0.5847152199288246 0.25676223647144525 -0.021649856366764197
0.6488884381763711 0.11804012577607637 -0.1342107268216921
0.5846657242660882 0.16644435957594794 -0.12540022376926174
0.5502129386965748 0.16607297192739168 -0.11395494156951713
0.5565714385093941 0.14537926115202993 -0.11190646554291561
0.4763574914212114 0.17091932654339814 -0.11977504479082768
0.6405314266440456 0.2091312047809737 -0.07485692188802773
0.5956804473482151 0.21687521384228603 -0.06984533978285867
0.6121093245141367 0.208516396678462 -0.14576543205177472
0.5893494164399016 0.18839774733520187 -0.11658097843351811
0.5431454024119517 0.15820720877333372 -0.10865351369790233
0.5817725931164262 0.18635085009000818 -0.10273236358901272
0.5871833061833343 0.06030150459325512 -0.27879041211433275
0.5352277069103195 0.13877380647411997 -0.0966947691934621
0.5638886000470933 0.16774055963948342 -0.05268771159775554
0.4675108491629061 0.16596600233525294 -0.08086741522325269
0.49281678783411564 0.14891922726464202 -0.08836949003382699
0.5566653798552892 0.17463910502739566 -0.12170933369675652
0.46178360733262025 0.1378222332143082 -0.11093942572274784
0.5744264814440925 0.16975137957342668 -0.1054503747782718
0.5414640450258474 0.15007205683839686 -0.12586341083294883
0.5181869823814083 0.08663923755896974 0.003426544007453458
0.47841100784658863 0.14336449239067406 -0.09983430882817856
0.5571811395037543 0.1983511904476103 -0.08087410082239899
0.5158676585342619 0.17027201952134874 -0.111980134955175
0.6258400951482201 0.15427682343494098 -0.12266773853296797
0.562944732126951 0.15441985931013846 0.024251409641991017
0.6436620028110696 0.09157880286191755 -0.09076124549365261
0.517898132317967 0.13555214838486052 -0.11906469905130734
0.6477489912748524 0.12994997534858044 -0.14799880633478324
0.5455870632212338 0.3357047912798379 -0.09511475133952274
0.5297949535237052 0.14456653459696156 -0.11068393512435648
0.7368771635503322 0.11129474509151294 -0.14364796123439305
0.6165811338667311 0.22081705653182837 -0.05355934959517583
0.6585553853494162 0.16503560364698444 -0.18271333227333741
0.6383009628336964 0.1797146818401245 -0.08957684641873698
0.50360764083959 0.18248789689683065 -0.11778449140842895
0.5085055494851503 0.21760517114563527 -0.11846799093115123
0.6274359598416908 0.17580642920458445 -0.19162312393389414
0.488701661601155 0.20771006176646267 -0.003998495919944389
0.5391179645838804 0.18888547110630327 -0.029396030769319736
0.5852736946663128 0.1199375599815653 -0.17353282497631994
0.49465497616641585 0.14886204976336614 -0.09809269427502443
0.552095726310057 0.1569031472694178 -0.10419632988602245
0.5255839309389359 0.1613834680739359 -0.04318362303828849
0.6714582448109638 0.22800031606610105 -0.1349739491574553
0.4719429319307409 0.2682368343780297 -0.021113587934834754
0.6448434954873647 0.19556237617219097 -0.10171417206106526
0.5382674987450997 0.16820362964749336 -0.11866843686097184
0.6069790168579487 0.18727288951735943 -0.04952954525970199
0.5493503876828072 0.13185471197729726 -0.10277233163053268
0.6341594612633799 0.1952780133325831 -0.08507630164956481
0.5134980063128296 0.1371042949297987 -0.16400964572555665
0.5261997886345142 0.16141137940535089 -0.11266208852678972
0.5190790146968709 0.17070794571885983 -0.09417456845649497
0.5008580228053745 0.17926104319280967 -0.06080611565721483
0.5263410815821601 0.13501465088904752 -0.10643984493123071
0.4888544811515487 0.10627024270984009 -0.10034368491987777
0.4618683911699577 0.1247719381962753 -0.07641717526243497
0.6310385852153502 0.2557892980626235 -0.07497698261946084
0.6377307102651741 0.20886401643191732 -0.04651232121707949
0.5751177119736184 0.2061198783931104 -0.030354914150819923
0.6106861994744008 0.1821079705269284 -0.1254560312759736
0.5525136413108385 0.3162916243214511 -0.02496775146443042
0.45433139031845826 0.19194590856083948 -0.14167811170904088
0.6048973379549807 0.1741610554946078 -0.12256701328736597
0.466152308334955 0.13992662825499735 -0.12332542260391222
0.6280625884426456 0.19831635001270342 -0.06766470542407887
0.6869519885958795 0.20858908445079294 -0.07509510158526211
0.5363444637009138 0.18469178300846067 -0.06609559243224794
0.49874355186265973 0.1391237006640864 -0.11853986473832379
0.5295998752173574 0.1530023659543076 -0.11800021329661092
0.5450370727620566 0.1890703682147432 -0.05584294934961065
0.5943601952536 0.17643694576270263 -0.11330098818298495
0.5856237862738141 0.19855096165791508 -0.12596713773072565
0.24156583283394184 -0.21303970795631244 -0.10275723551733051
0.6251708291228084 0.2295542328019451 -0.029003577264091973
0.5631686370813327 0.17711016050995454 -0.09542654190339306
0.5508030552494745 0.13098352042518968 -0.11453241255880187
0.43657662416467247 -0.0569512077405534 -0.15702778389237437
0.4523084385896965 0.11102773720629955 -0.115249559405882
0.5570409233249194 0.12033207614584285 -0.16649159990194562
0.5466674102831917 0.15693777828975897 -0.09392202055887822
0.3962336213286477 -0.015072362955606877 -0.19182528533481502
0.5435243400667673 0.13995462356457722 -0.07813898697828847
0.5480180199044327 0.19793739725388093 -0.06239082952522779
0.5539712847757272 0.2064533025746158 -0.07993682235944277
0.7854193329528272 0.6424881477535536 -0.21578739110178446
0.6278498293207662 0.17719436253705112 -0.13960911580818447
0.4774385468685125 0.12760284632486218 0.015782116929088374
0.46978880900663 0.19034970628224812 -0.08335071097913271
0.5568181514598365 0.1704026302476933 -0.06955403339033239
0.5831257911942345 0.15467037952912221 -0.11632944429102565
0.4984442873704751 0.13946954326681293 -0.15577945616495015
0.579053486178637 0.257120690764026 0.15037608376488265
0.3566190608748059 0.15265521962166417 -0.07548091918530986
0.4921727223107695 0.10815002407572649 -0.1342857155444932
0.5979071910816032 0.16303358970822046 -0.15292628430242416
0.5406760772441288 0.10019501600599767 -0.1458428270923804
0.5241253193335922 0.1912873260826018 -0.0966714033230005
0.5973111445429282 0.12276063903610179 -0.209454426375828
0.49987071836633845 0.1362295292721143 -0.10610307681679387
0.5936143571564259 0.22560028364006257 -0.07646553305340831
0.49645912291381933 0.15084679732839845 -0.10237477456189481
0.5299255409898365 0.1282400267682533 -0.12186891045395498
0.5452923746664737 0.2047514066038616 -0.08873373209883084
0.585829234856476 0.25047922014569224 -0.04346897464496635
0.5257243258811002 0.13607086841655303 -0.15223522968305758
0.62412887664685 0.07821018811478098 -0.07190880840964553
0.4793580894525036 0.0012062049105878714 -0.17582952690987952
0.6225363400638173 0.18787756702448632 -0.14407269248552268
0.4742112464882098 0.10881634408224272 -0.15630757809746854
0.5599434540884118 0.15891751114172337 -0.12169992348876235
0.5517830265306287 0.14514538238755392 -0.1457174578927578
0.5322918693409662 0.135151784069393 -0.15825191296792696
0.5342143255475094 0.13968947626577233 -0.1392570102799482
0.6385130621829802 0.13563661282329065 -0.15761231322478864
0.5128587337548538 0.15719104281365048 -0.07203485546479271
0.5699447444583114 0.17599326744631583 -0.10204737511124051
0.5269772035006923 0.1723177953858368 -0.09318166835855379
0.6196360741844416 0.2131112572344307 -0.11165986099993574
0.5485537227013424 0.19077054725207176 -0.06366114886581897
0.5630062025154672 0.18910267510459278 -0.21559937757774605
0.44433996004872256 0.013081513508979015 -0.24725055301220777
0.5888480336176514 0.1794649588410948 -0.11540521523777159
0.5619329852782329 0.28949682722526404 -0.04311316446829494
0.4992564653317402 0.03133442436406142 -0.19099125509417547
0.5749537422313864 0.141630229292943 -0.091367074036242
0.5793540893909608 0.18175130807262008 -0.10337636247432158
0.45229809660250453 0.12864863411415683 -0.08238912414540778
0.7858878816401216 0.23845940166324908 -0.05448913418257462
0.5774153088816831 0.17288283791317838 -0.08607776698185887
0.5308760120624783 0.10878328414602834 -0.18469307866232043
0.5557860959520156 0.218518423496306 -0.0683278405321488
0.5237901891538144 0.15995959111498337 -0.1216920210985677
0.5239971682871953 0.1488701234869012 -0.13240315865979824
0.5259296587625073 0.16872043793388514 -0.10363542858274855
0.5491481348131799 0.16818251774567727 -0.11371060176058734
0.49339459548689035 0.22556911280209135 -0.03664609954800824
0.5541121595672962 0.16481734146201177 -0.08627729095081804
0.45350603232536457 0.13102426471327533 -0.09542976680893389
0.6384672986996094 0.2245464744421355 -0.08044752000441235
0.5854227122344327 0.1607956733458593 -0.09854092014454352
0.5488413438695972 0.173165246625004 -0.09356335394403459
0.5144012140464298 0.1290491749543463 -0.11954545118493343
0.4863705018394313 0.10462395682087333 -0.13367041431544635
0.5308237796157158 0.21429854463160325 -0.005324411162789033
0.518854031406832 0.16869512083283666 -0.0899052172502195
0.5415953929378787 0.14881525903972204 -0.09633745798615223
0.42428722245500694 0.1462146347555091 -0.06221791405111787
0.5132042016090566 0.12562599944114083 -0.0876104441461365
0.49540150335062094 0.09530171759811878 -0.2628300480356103
0.550054971079021 0.1611430596464345 -0.0910590156845359
0.6726471120684039 0.20073625701779463 -0.0812799586417583
0.5409688243790072 0.19205741489267325 -0.000622154689935428
0.5299527888614506 0.1529540823920712 -0.17191725014967574
0.467384651630411 0.14459029326499717 -0.10349051219581895
0.43518040394566526 0.1720850546964101 -0.053361744621653884
0.4711749534090046 0.17016860466253547 -0.06639321232178474
0.4956678103385599 0.10817694005606882 -0.10106936399071742
0.504352693693292 0.1264427956019034 -0.14802048100750653
0.5341953315828647 0.16223097196900937 -0.04699371576846545
0.5665227149759176 0.17999450456771626 -0.06512987177913487
0.5000855972186713 0.13686298043340628 -0.12455036054491586
0.5655088228129443 0.19454339617803384 -0.09238352494645596
0.5087136861603483 0.1514652138874908 -0.11251336631366371
0.5511708071960157 0.24902918854780864 0.01521370367107977
0.5294086586855968 0.1645693445067593 -0.10087252653354994
0.5347719205236103 0.13500647543969535 -0.11121822870062203
0.46601675714532576 0.18750609661468332 -0.08579123276926737
0.557754242036296 0.1339830209364976 -0.14604241377261928
0.84796946705643 0.4712624544645223 0.34527677706269344
0.5317819602365574 0.16548691266703486 -0.07270553018959447
0.5487092051253768 0.15629748633152474 -0.15058177071495038
0.4780492756031123 0.10914446036589709 -0.18140145765408988
0.5895098473398264 0.13896542258004274 -0.22118007370671933
0.5184902512206406 0.14931460011911213 -0.11691262356239918
0.44543373092926686 0.1677907705692121 -0.17979082212671926
0.5229721139081391 0.1398200673481682 -0.12998799417724172
0.08370805610414322 0.06010088101967881 -0.23582500988339916
0.5434652731769489 0.1934351528846605 -0.04977954747273827
0.5622858091377338 0.2076539993116029 -0.024757676540914986
0.548200674158835 0.17118176790144446 0.0035584776929766804
0.5674920990494883 0.11077821694485124 -0.21610576635733025
0.5395554427715865 0.17665365765543584 -0.09345188524181935
0.5463378431829824 0.17202508041104636 -0.10719480705040496
0.5063322759479263 0.13864912479384373 -0.16702873857011014
0.5228226027041956 0.19920289204321762 -0.07996781272275655
0.5542558401386941 0.12366107542302984 -0.1563534250805958
0.5025494627985125 0.16231349455068766 -0.11010265984684509
0.5504094842383012 0.17253523162496265 -0.08887378660752177
0.4972343468019176 0.13302852322402714 -0.09221660301678014
0.4837704770868072 0.18464099737069262 -0.056217287007072514
0.48574631001638124 0.15203054722880438 -0.08056802797452178
0.5437577309559458 0.15009419691379833 -0.09939556722893883
0.47151315670426186 0.1354019115845233 -0.07947979052603671
0.5495673493172006 0.2077450955505924 -0.002379472505111835
0.528102620690774 0.18017236375580126 -0.0392883876350254
0.5339880656394627 0.18837108159424076 -0.15165633797569456
0.5176465426898176 0.13671149162024676 -0.17454454347958404
0.5417561626445035 0.11368303223383691 -0.1876263475905091
0.5043049783860027 0.17896550455641602 -0.13198770066514953
0.5883522718535517 0.14279097925344786 -0.1695685546827832
0.5081890469563461 0.16662814397757586 -0.0675715033114841
0.5782595283928913 0.1514263490366261 -0.08558848116976492
0.5910805057318669 0.17780980214307363 -0.10780881979215451
0.5640828915676508 0.13562539530383333 -0.09896502461150192
0.526890862683203 0.1672803505138063 -0.10275690806089699
0.6496522292892308 0.1902595223643715 -0.036429256481596894
0.5194782878064217 0.19683912059620923 -0.06764532716464089
0.5139700162694254 0.13666868563487355 -0.10113883019120351
0.4337178850306316 0.12546234350575958 -0.05895752480552119
0.5434930658942818 0.15316836771405917 -0.08826994481712802
0.6127109496857202 0.22269993664895082 -0.07891602740320991
0.5940301867850764 0.07285901637432346 -0.21490321476842666
0.5873927178497524 0.16614115251633166 -0.1204312602192914
0.578166925378099 0.15552322723522138 -0.12038375941719437
0.5262274715408637 0.1359141784492266 -0.10186560121971411
0.46627802065626156 0.09477526683956228 -0.16655981422030663
0.4970933971953997 0.13144167949774044 -0.11452452169125138
0.5554519111853011 0.16152224601458443 -0.12046143194552883
0.5674778990468354 0.24343448836305015 -0.017734432173966752
0.5489538292948168 0.2000400636992481 -0.08357600192300652
0.5597833195903803 0.09216624378704807 -0.17429907658431887
0.5364698749360599 0.1387553479492567 -0.14782675822688418
0.44005077053115826 0.12505153065114882 -0.09140282039081171
0.5863944510618637 0.19076071451365806 -0.07637199554626761
0.5687548010193098 0.23333578603345018 -0.0013788744292497768
0.45154357976836934 0.3510718034331717 -0.0875731169766425
0.498590916981982 0.1576038487994964 -0.05773935903866345
0.6201412147707259 0.20655185522596753 -0.04330672112399725
0.5267894257616206 0.18666558239164033 -0.057406671817730626
0.5357345571747345 0.13684382366076875 -0.03842201203006823
0.371611405795818 0.1430217120772994 -0.11053654828589288
0.5443232215058487 0.21354884598902402 0.02321360782512727
0.6259333924059689 0.22449777457062225 -0.13791101057726962
0.5612460586834658 0.16438213900003973 -0.07922173742842631
0.5430902025902924 0.15440385042533933 -0.13126572251017876
0.597472394195151 0.1819888367702731 -0.09202077227969596
0.5481007565958862 0.15186759838105957 -0.11306430590921934
0.5719068208260012 0.2115662068241022 -0.05878650191354495
0.5215080030205002 0.10398304958363269 -0.1296249391476465
0.4679335878619497 0.15457497479398796 -0.032366840803859986
0.552979497558681 0.1395352869108848 -0.1153703993787758
0.5944695342161594 0.11043312968732266 -0.18090505902682708
0.5729430771951058 0.16996728216400925 -0.1130472878909643
0.5707496268595662 0.2439738807072871 -0.027049167345168712
0.4873812150192691 0.077631445581261 -0.08507387437586544
0.6254204658370242 0.1920668878481706 -0.13124542816241558
0.6111959382444354 0.211585474085922 -0.08027113590372892
0.5499553961876558 0.1559851232696019 -0.1091413112259687
0.609447437007347 0.23400840959818936 -0.07548580427601337
0.44241743992188276 0.038629050789538155 -0.24856234838919988
0.5749115436884864 0.10138198491685557 -0.1863916795232683
0.6664983433237381 0.1814051823436813 -0.11633842915561843
0.5442537618676369 0.16660203638099347 -0.06635865820852871
0.5364443644511852 0.14458373851498152 -0.13051566016086724
0.5701884398351069 0.1693326165723903 -0.08879505965811063
0.3975036130124465 0.09850613192394064 -0.12363544471725163
0.5911526978629951 0.10389113638461822 -0.17471657403228846
0.610024594700235 0.14010413347118345 -0.10244172354509828
0.5044941384189201 0.18939135655824657 -0.05518958722905154
0.5049389967012843 0.17185677706524416 -0.10696041256953492
0.5662595935993124 0.18361163336886932 -0.1184459273131182
0.535363125224734 0.1155265202414455 -0.15342150074508254
0.6457815995787684 0.22589981335465836 -0.09007543417348529
0.5401649346238884 0.12438219780922566 -0.15360193842920467
0.5661090053935425 0.18526133183074478 -0.02806249925563975
0.5803858144226268 0.13049908367749197 -0.145983662194638
0.4316095223522325 0.15847536812857754 -0.05486914593815584
0.45216563798493326 0.08444475455900147 -0.10127418893280549
0.47528123546736367 0.17206783776568102 -0.01987668037386925
0.5215095747907839 0.17880952928473448 -0.12021497656252222
0.6592835500998291 0.1754779524579675 -0.10535027212900161
0.5692422312024092 0.11957580116630595 -0.2918356666570503
0.6666048630511341 0.17835663633569254 -0.07462612611990949
0.5849317195847163 0.24897507803846963 -0.0855627955553615
0.5886601510989209 0.18143722402930962 -0.08257003659618078
0.5216616724455321 0.15900690623976743 -0.10753095169415872
0.5608198136472993 0.1274771421397105 -0.2085334658806346
0.5984852027845449 0.17889819329090528 -0.1335917208924542
0.5474459982943642 0.17139035030820082 -0.09255796683586937
0.5640630174249139 0.19481933319865163 -0.16692884887400794
0.5444351381701154 0.18262225377772268 -0.08730908102742774
0.5037470535013568 0.14479885872263765 -0.08505864205660885
0.5064042986515034 0.12693229441293852 -0.11111447233837168
0.5728879865911836 0.023648390565199406 0.060500448672669904
0.5837877750354323 0.17358990567518617 -0.12962313354010746
0.6309816799476522 0.1697182050384498 -0.10634746249769478
0.603002093979697 0.18173123769730637 -0.15719266128385811
0.5043524245008797 0.1823018578651272 -0.047953948829615456
0.4039139158355738 0.08776362493588863 -0.0982950685722983
0.615191548477469 0.16691892918990447 -0.12705383478581211
0.5273814461861974 0.1142986419223746 -0.09699189295416488
0.3553854169225019 -0.22159973876213712 -0.2122556749826856
0.5363736857802905 0.16463388050502203 -0.09535124385601534
0.5019844213993565 0.133992851618018 -0.13189401515751342
0.5683852560928244 0.260773137591201 -0.024955124328258194
0.5712546811229373 0.1751581708861636 -0.10405482420125622
0.5059674505843219 0.12731490122048683 -0.10540419567685433
0.5844665583253033 0.24929225715222003 -0.036951995107415314
0.5680466313617956 0.17387493260517317 -0.12976461582739773
0.5580972571431033 0.15924057912543788 -0.10001701551283304
0.5999061233776786 0.15406159223296356 -0.14062744982840059
0.5479305679326103 0.19974745015076678 -0.056422525051772254
0.6574266771593074 0.2556639306541655 -0.06416982900579171
0.5179735502672429 0.14253551177580448 -0.10132140020891711
0.5556436029881269 0.16262363834626115 -0.0639223340702273
0.4951591363366106 0.15575897125476956 -0.09658307927297471
0.5582812171580827 0.11711506660164162 -0.13030847938513546
0.5052898479179078 0.15709970723987965 -0.11161925951203955
0.6170205857002742 0.17153794148337909 -0.12971007837167292
0.5569516274211566 0.17820175073991606 -0.12496016885630468
0.5782425476369042 0.1919637186768739 -0.1933337812796765
0.5545492094129969 0.19546845573297844 -0.11345581788623349
0.6404354097225706 0.1732515665653267 -0.06724649609590472
0.6059215942985787 0.18784150307828895 -0.10971672408990685
0.588916261504238 0.016935902944922532 -0.10127481073030253
0.5091089626350254 0.14537166707056315 -0.09485591592465425
0.4952978243624244 0.12099163069119356 -0.14347464204549
0.5609796412988715 0.1711334297105509 -0.11814863567641964
0.6401954721109036 0.24744353137933217 -0.14423621183458124
0.4962973258436989 0.11686300252466708 -0.13283868508618468
0.6315749551990848 0.1588058624248987 -0.18089349878258076
0.556592183349693 0.1768200473699153 -0.08515253673165546
0.5033578376425538 0.19225448627719288 -0.09425812156769098
0.5417715637865115 0.1662916972545645 -0.10985033916676912
0.4599214761758077 0.05183240493882124 -0.19106362811882605
0.620149073430369 0.2280011380527327 0.03258561677868954
0.4350741217718195 0.06480032486852849 -0.17410832777865437
0.5714984737504949 0.17571449765911495 -0.0810795902984438
0.601669173195944 0.1724794584662135 -0.08890582549280168
0.3886339441711044 -0.11236370448405353 -0.3062824584209949
0.5411654310311036 0.18664097804015967 -0.09716706845607348
0.5170470034257448 0.12494652171636744 -0.11776723101145592
0.5441142114245423 0.1430128876505563 -0.16267838747542385
0.5867901657522054 0.19533741499034818 -0.01972245746765111
0.80686741958597 0.14493185950574627 -0.04971611834992018
0.5219646875924866 0.1185865518589111 -0.1522448639447873
0.48668236579938196 0.1522326366812905 -0.10960986161458663
0.914217964095215 -0.0038261443204703482 0.12413830911820867
0.5694882230513514 0.16332149264002283 -0.11061513808394352
0.5278231511707077 0.18021208501724573 -0.10559029530810449
0.4787945161770466 0.31739929438907666 -0.06790890753769929
0.45557320214290087 0.10717849409607538 -0.1288747699481263
0.6711316052288936 0.2031403211061047 -0.10812239452158678
0.5697161533369837 0.14938348508580646 -0.14578635133031526
0.5261542796489636 0.17448785795910737 -0.18748424732538638
0.5523674298457593 0.1552420787553075 -0.10944354928719235
0.34310271528410397 0.34991235027163725 -0.04958025214759232
0.5539222719313983 0.12961508176721281 -0.12903643120883146
0.4890297309437841 0.08600441614456145 -0.13604092002276502
0.5442314438764413 0.17713687480592455 -0.1016901856501704
0.5121277605381778 0.13912437413610235 -0.09625097197101695
0.5380905407110106 0.17921609382085535 -0.0893488684083934
0.555588861083308 0.12855845644504882 -0.12358889236548976
0.5356538217082374 0.13165303167123454 -0.16199548427108823
0.5593843532858358 0.17406861394313466 -0.09820432532886514
0.5416751091839558 0.1709888052761812 -0.09613847199720738
0.5912696158672759 0.207272206415837 -0.05821341650754164
0.4665501815416917 0.16832808946433886 -0.08100573790493115
0.5107172447720529 0.1262530988778252 -0.09162892486327223
0.538356543346822 0.19926599070248585 -0.030682083627553425
0.5296328170458793 0.16274505500774694 -0.10920302094231715
0.5394592528690083 0.18182796905708187 -0.1062601102851346
0.6639477683959711 0.20959159097522218 -0.15088204174317355
0.4542359599304717 0.4720759433439383 0.19270215718718475
0.6086654789958317 0.1944994888031033 -0.0943169917580775
0.5753816621535606 0.1850879654919737 -0.09880563248225371
0.5228908350577655 0.17091161921968023 -0.11021623287803095
0.6398812653387864 0.20024836054687967 -0.15916622942596348
0.5322241519448028 0.1664892510217726 -0.10665625979127924
0.5512368031316015 0.18313236887870232 -0.0709400370148785
0.6029550199932174 0.2650460878059562 -0.016017880274773688
0.5481078498639818 0.2517999243499247 -0.034742804655735426
-0.21046339409802783 -0.2850695525748961 -0.6591137764209805
0.5410809601669655 0.16947912450896752 -0.09007427747366137
0.5614710166176167 0.15148275292249025 -0.1111500256001392
0.5292190136596133 0.1667890254350226 -0.0852670602402128
0.5050008457635045 0.1423329845311656 -0.11370773066593642
0.4657658097165154 0.11161378874182049 -0.053453594177724995
0.46664035944806415 0.1066933723807324 -0.15329119013237857
0.567164780303429 0.19064596436700754 -0.061689549535643096
0.5333520236539613 0.14911544662300003 -0.10010911412420853
0.5643070960755807 0.1705828577068189 -0.13157135046921553
0.5604285594833556 0.20648931491946598 -0.0971281787581546
0.5165230087817179 0.12677595544268172 -0.14798507183698462
0.6181108586478814 0.1954084831664602 -0.10441504092230502
0.5444606252881812 0.18894779239525406 -0.05633779408758244
0.5476385551167908 0.09219389076108087 -0.13569436545380142
0.4141952417217709 0.10269431921889804 -0.20665498251989334
0.5423616964046971 0.2056155466324867 -0.03167396575332759
0.42993875659489333 0.23774254531996064 -0.01172629150012483
0.5688064970442781 0.18239067068353165 -0.10323158536702692
0.5313489021139475 0.1724514179012857 -0.030010869428849674
0.6015059628424382 0.10135602094095475 -0.1526349386837751
0.6040208253918422 0.17745694312550597 -0.16847081519087226
0.5630577700540869 0.1690163703740808 -0.07094812866374411
0.6026492416599183 0.1897566035341498 -0.11759224165655269
0.4922953725829302 0.13053327520275104 -0.18991389920287816
0.6021872475086667 0.16175612264758854 -0.09793611983526773
0.32020585315953554 0.09083318884289326 -0.06910881421418935
0.4504366929090793 0.1141505379869443 -0.13673422290094095
0.5601580345203416 0.14297909873313586 -0.14069090214910318
0.5890037813759648 0.22114667533119814 -0.07604658816107701
0.5402529057107586 0.15909959427229126 -0.08700043935188262
0.5397985097734193 0.14980237772913085 -0.10214977667635594
0.538522637821444 0.1574213740453132 -0.13898012939466753
0.6327494948445747 0.18163586958006306 -0.10403755748531296
0.5464675028564869 0.18407449301631118 -0.07311656414157142
0.5302756617469839 0.13965359950267953 -0.1622224657184148
0.560736337784121 0.14421956633671584 -0.13972634023512853
0.5605044225640086 0.15979711092786886 -0.09753570876365814
0.4908447968402214 0.10544886242058737 -0.13547647541837193
0.659391687505078 0.22041059256559947 -0.15537851823830806
0.5017027031500874 0.12521011842272856 -0.19154267810981196
0.5341628698385676 0.15645532427187447 -0.11683193914093692
0.5400714294744091 0.1685193919177692 -0.11068658478833981
0.4969576035657468 0.15160615891159068 -0.10560611187949576
0.5550050875315833 0.1983288654367641 -0.05914991523550839
0.5108684531352878 0.1021921974011093 -0.17320937515647472
0.5827462649386916 0.24391242274752756 -0.08112860717108106
0.5363761175855188 0.15926495350679204 -0.09503604220624595
0.6018545448432064 0.16446116861308724 -0.09221339909618109
0.5215785707629266 0.10788715382393832 -0.1364642067929509
0.6070377477018525 0.17399719121625878 -0.16511199422706113
0.5370715370269608 0.14672840189467706 -0.13742709453487123
0.6246751559583288 0.13775764300221738 -0.03619740150817563
0.5563589009437067 0.22718049355628978 -0.04203391733928186
0.5938090227249262 0.16728472036851372 -0.10084846993336782
0.5075943194318455 0.19172231717411137 -0.037928626077203376
1.3330869005572055 -0.12908797398054617 0.19950697986244847
0.6085765259224445 0.23990937561428893 -0.04448366427646988
0.5129527151916307 0.14711516415559345 -0.110325785216844
0.589957713995247 0.15406832442214125 -0.11853182893590031
0.499122527341612 0.11402889690633344 -0.24254069320598148
0.5374585331470882 0.22511513416051798 -0.021371567568806427
0.5790738570855467 0.19454318696385542 -0.09877012732786739
0.5429643093452512 0.17092478698364744 -0.08793178342473595
0.5554760507791769 0.1943451814775159 -0.13883177835496952
0.5315655344635672 0.12413493753470561 -0.13273609996187474
0.5084623105209829 0.13062410388666024 -0.11638805509730332
0.4813226640435886 0.1816916248170628 -0.07182598241506355
0.507499151577278 0.1636141085224807 -0.11443354592613275
0.5772824462577262 0.16482246927743915 -0.1067429168139995
0.553533391135602 0.21537083320235695 -0.058979382799705604
0.5198264810033777 0.12616704664392842 -0.123164088467135
0.5762136036073997 0.16459021379591832 -0.13845799490805177
0.4622362979564656 0.3175525650736546 -0.036317394541470094
0.48371998322933507 0.1747790217814753 -0.08125777958424862
0.5276213795020936 0.19117334670403352 -0.08752844932169523
0.5648901003862932 0.1690132659816328 -0.10883693124381466
0.624536303353068 0.0444132684583991 -0.2038452548760432
0.5669122462728069 0.19771154159137438 -0.08220064859452236
0.6640768877919072 0.24238041924610343 -0.16623077857299506
0.553960965384448 0.15224491295388987 -0.10600776868797368
0.5437203234801586 0.16664968790057344 -0.08541028756673086
0.49681001480693965 0.17741656580095366 -0.10563698758045348
0.5435227169275834 0.1663277861329533 -0.1102606421809611
0.563838410019045 0.17030483448550626 -0.0958830820590606
0.6088484020348801 0.18264238034160485 -0.05662194148732169
0.5193638128521911 0.15324648856233125 -0.1022005883990289
0.5101175284227253 0.11380530537442723 -0.1230738847144579
0.5610297226309484 0.19324241242613027 -0.08035342262931522
0.6201065324153774 0.1408786599009204 -0.18174473354918064
0.5743891315753586 0.14804514825442538 -0.1067138876334468
0.5127451438947901 0.13113693768301005 -0.1266034881351885
0.7628188567280887 -0.0002037733302415745 -0.4478725793246525
0.6630540135388259 0.23479023781659691 -0.13803895692707613
0.7930606341606818 0.3875130007406682 -0.1667454564470603
0.48304001403549535 0.10276659591053772 -0.13636542371428106
0.590155611728477 0.1743705205587247 -0.11403107956851954
0.5418925736793909 0.159832982338159 -0.11099570422300076
0.505333263469339 0.1508193790691621 -0.10526640951505328
0.5572077946872582 0.13260356264825646 -0.1113366331738348
0.5528687411398039 0.2172451480602433 -0.011560273853078229
0.4747908122252227 0.11562724441380112 -0.08687736151551917
0.47709823769213244 0.12168802680464808 -0.03745256090644489
0.6702687664873679 0.7298998053030488 0.281961103627566
0.4783924393187817 0.15124498600197 -0.1336244696034754
0.8045580685040932 0.07045473363173471 0.1159397781490128
0.6337904748635452 0.14926974937472437 -0.2161003592077435
0.5857282920606792 0.19261811450402888 -0.0639061902085416
0.47535808062890794 0.16786456551727724 -0.0635035381478275
0.58270329850221 0.16508267269327348 -0.12449995778848688
0.48919076100418124 0.11707977216315157 -0.12509866448594664
0.5753951045181935 0.1655659511434635 -0.11956043255504767
0.46896285513832936 0.17459205129273414 -0.11942984815520674
0.5571134913925135 0.10347261465622637 -0.20594658347090444
0.6143225867726727 0.19943680428205823 -0.11616745634604797
0.5051601595780397 0.1223828966749636 -0.120435489683274
0.5079699850368087 0.0980130363205518 -0.1708767888269307
0.6230797196903239 0.1396318415331308 0.25272704712574523
0.5421382123633833 0.13400389350833564 -0.11433177012628448
0.5515481973570786 0.11465799687687195 -0.19760967480615932
0.5395249791996406 0.17352289667633158 -0.0722545687992806
0.5596431980707166 0.21244789882227622 -0.03294671155863682
0.4873579331821958 0.1419183033739415 -0.07833817579397362
0.43183994442729556 0.14656397935979726 -0.03856973488454685
0.5674754349191886 0.1346655549024547 -0.12561027453971008
0.5103042610829931 0.11220443108499012 -0.19012604833598346
0.5371627076400785 0.16174939794784393 -0.10175014335732158
0.5760822280108755 0.30499807054931694 -0.06485037080761913
0.5249940552825905 0.13839608919020918 -0.14493111185019814
0.39845419348202427 -0.12043089533983675 -0.28180410101664677
0.4933841575775091 0.15650027707111747 -0.07709245490977423
0.5745285161908242 0.21196003804831776 -0.14017591132289908
0.5784717470405383 0.21030735287584434 -0.1160212745300413
0.49277722763930853 0.22149796872884053 0.06804115236620589
0.4953203543185083 0.22270754019149308 -0.0328893866370521
0.560332004782552 0.1734626398639847 -0.168792005681496
0.5202117683467122 0.1827585136448846 -0.07642116525065035
0.6605284688418891 0.1335140187709527 -0.16042471338151643
0.5402797047438099 0.16479771265966292 -0.10293980800334168
0.49901386827812644 0.1378011303085458 -0.09123991942507814
0.5205672377231139 0.2034962751671543 -0.10342625169195685
0.5233783964680327 0.1652288429174007 -0.11216580676021692
0.504738782272824 0.16553319237097242 -0.060965988781291
0.5781966170678174 0.0949427957318818 -0.19238835475496785
0.6492156076630522 0.21527974920260817 -0.0894809397174754
0.5419062928552592 0.1820775145922653 -0.08147644275686616
0.559778349395387 0.12143625941133962 -0.14335189739141185
0.6031696159927407 0.15857182071972886 -0.15270644136612077
0.5380968207259258 0.16703314189827267 -0.09185430036350795
0.5434763819245205 0.20215228931185436 -0.07415562809876519
0.49449854063101384 0.16486510731277804 -0.0637190695295402
0.5818449898350195 0.09946872631756776 -0.1687875950393476
0.5202571873878128 0.12341951423425712 -0.11538034344278003
0.5354014501901645 0.24803360357475412 -0.02559357772237547
0.44410907019316426 0.13123171779250242 -0.05556490056923735
0.6107484280465911 0.17615471298435637 -0.12569606218892204
0.5377444550702535 0.15143573734572158 -0.11522290652786182
0.5070260680778915 0.1444636930519465 -0.10605499943963537
0.5480990261594627 0.16029434304620338 -0.11666814166930806
0.5357553285314509 0.16497402556476004 -0.1230619223574081
0.5387209547292002 0.16498619652629998 -0.1165367849354908
0.5343403318653941 0.1501533002013531 -0.08503358665159055
0.5474627420286424 0.16293025051059828 -0.11131669015126988
0.4961598028163081 0.01266226429798678 -0.1957765353882479
0.5500212953921277 0.1732498018970574 -0.10113509344770932
0.5319639788827857 0.177825120647654 -0.09089361402139673
0.8792379190189195 0.3506365554627706 -0.24145185518398193
0.5493680702226555 0.1754900005454374 -0.05723447453215158
0.5885058931874738 0.20748570577028147 -0.07242073928640025
0.5216560455961172 0.1489804356699551 -0.12069399228934685
0.5345200390539304 0.1555523591206054 -0.10854913371032637
0.5696285127328196 0.1993510610852951 -0.08594015930856358
0.5436624224933411 0.15140060904732877 -0.09748602739563239
0.6661104891758498 0.15318390007348626 -0.2961277230181736
0.535594604475989 0.1492818676854455 -0.12897018372814273
0.5073389484983295 0.16474200268177697 -0.06829546447166024
0.5321468885659897 0.18297911793126787 -0.048754152686740326
0.4645124775985323 0.1342634954096269 -0.09629594334340652
0.5179605493925123 0.18266645531936376 -0.06576820320898946
0.5493256164138245 0.16569597241787903 -0.11028238612392727
0.5315772513244355 0.1266805506883486 -0.13892351760114252
0.565974307119177 0.23281297405482348 -0.08519718784626207
0.5237843551989698 0.1440643148849432 -0.13903412143957894
0.548757140425991 0.16299552953353214 -0.14178309072546824
0.4338291899011466 0.29909249492247625 -0.2180092705013692
0.5653174749141954 0.16967983860514835 -0.11101658866989794
0.5605824542815725 0.19914010408871263 -0.046511690083576696
0.528066050679854 0.1482796042635357 -0.08841211620109846
0.5837974005425224 0.16564555945839743 -0.09758480405709236
0.5479147122753147 0.1627944282220426 -0.09507963870728986
0.5220859409847236 0.1844143012041286 -0.14193917830131397
0.509378717416638 0.16141451247827376 -0.09024046603055069
0.5604030981697576 0.1525219870457022 -0.1393268111173711
0.6053643231825845 0.21258060347129515 -0.05471799207683148
0.5991064335213423 0.23391503842324823 -0.0444693794481168
0.5706800680671478 0.1394917227250687 -0.008557029523458937
0.5881271523751082 0.15128871377670805 -0.06447027950828499
0.5423521947334535 0.18215843140558263 -0.09759782935232408
0.5780681851398839 0.16636051940214713 -0.08956791261380204
0.48374153441349677 0.11642337618758347 -0.1340671192678684
0.687315801989385 0.2716196101077344 -0.0746424319555814
0.5447524095873888 0.13849392481752432 -0.1477068393905654
0.5223763626934215 0.06882475764845708 -0.05387416636001774
0.5491083001638088 0.17498666852372935 -0.09914234636606523
0.4613295671731663 0.09662475929958703 -0.08742171913837637
0.6025159585371256 0.19136184388142397 -0.035455673043344405
0.491205388815942 0.17224385552810872 -0.11635228417937071
0.6718701130321136 0.24971516944646055 -0.08870151360800094
0.5822585135223619 0.14166155826090687 -0.15078455698001392
0.5588538807479466 0.19463684002565174 -0.09491166913089444
0.42193954315914084 0.08290769896034078 -0.15454549811971674
0.7026804980722829 0.17239295126144327 -0.230407864915108
0.5392175903948839 0.18012923368202394 -0.05906971899587177
0.5707323565049336 0.2017469287445408 -0.07984603589021333
0.539951714807799 0.16847731470842575 -0.11505990894434603
0.5462239953287877 0.18837454244838625 -0.0795492704266536
0.5331515180525486 0.0944452178614199 -0.09301847583247991
0.5727883028170453 0.14806211617614906 -0.1508036861279578
0.5610880061632315 0.1890396034450248 -0.08236091777560262
0.5934508614936789 0.12436024992413763 -0.1771037766278738
0.4688650443576563 0.13351015897983132 -0.07631310516083545
0.5496841053101633 0.07132487782232033 -0.18785240506853995
0.5031961649036703 0.1147195214246608 -0.11710241459057613
0.5602590981444706 0.13980362269961688 -0.15013272880634077
0.5970612119145784 0.25102694901303835 -0.018224298813976247
0.5456210328834175 0.2300441863963414 -0.042467037457385004
0.5410977064401123 0.12356048150694221 -0.132062754427821
0.4892644406765072 0.14126871552629439 -0.08433046557628643
0.5749639568155658 0.17627817666992485 -0.11590283504006038
0.59546622810889 0.19130911783841498 -0.10357739253153397
0.49232870508534177 0.1563504237087301 -0.1202719415601905
0.5742145064534441 0.18739112099828503 -0.08558131268759439
0.4786674676561944 0.14227387096558175 -0.05951378622745551
0.5317093023407864 0.1631741996989291 -0.07120738377416558
0.5032322323001353 0.18287130985316935 -0.10328570679234872
0.5711692118222373 0.2302100568968939 -0.15706204480190422
0.5403420370530796 0.13104315571654013 -0.1219981458596493
0.6267624047124798 0.19983519931749072 -0.15941450057555073
0.5781122501999363 0.1827794453499365 -0.09864996453300989
0.5176149276631321 0.1541722905253522 -0.10253479518749486
0.5655445884975876 0.12411160823707235 -0.18834898466694483
0.5107866253845401 0.1520359168981713 -0.09935536290802816
0.456838383457395 0.12590503797551378 -0.15544611832713429
0.5191959599958125 0.2072892505297972 -0.013065468661295654
0.37782890905486965 0.12801711097684176 -0.12550246469459125
0.5481273041662149 0.18492758889327376 -0.0872237333518342
0.5453469926312096 0.08558414162546057 -0.12161475547129896
0.5811991889960098 0.18057314504538624 -0.11243788829629864
0.47846980336798595 -0.034102858792522284 -0.2702670326146972
0.5993831550641602 0.21102450991253363 -0.16580720593057663
0.4653920941788954 0.17866372665710628 -0.09001340214574327
0.5486820843473339 0.16773144747945423 -0.104573094511764
0.5359582059797248 0.15520774576181395 -0.1134557184913092
0.5652776689321257 0.16828174850839162 -0.12017149115480663
0.5224947402029727 0.14043326695781388 -0.16833073172874435
0.524814117410699 0.12759084566839363 -0.13767390235270227
0.4759309691836222 0.132922325810938 -0.08411021263222551
0.5627504815351472 0.16981725464511044 -0.08120562732389658
0.4695507097050893 0.15025153327516705 -0.0864406718859243
0.5419895590746364 0.12248644616485649 -0.12554803625870647
0.49373691032667466 0.1462133775459762 -0.06866659291563337
0.5029741916583674 0.1194183771578281 -0.11806796296515643
0.610771348528047 0.15741234308377727 -0.12080751687879854
0.5148126090935108 0.139283956978403 -0.11923313556624748
0.5533722551866731 0.11576074661239488 -0.12912606077026112
0.5716186751593284 0.20431437857061496 -0.06996677786187888
0.5098759540842508 0.18594133145921887 -0.08704796611162635
0.5232298812963876 0.19939601327023126 0.0716719757429587
0.5560469269389046 0.17079682881279723 -0.10477929878118175
0.5079324964876122 0.11191805015619138 -0.07251965200657651
0.583019391072213 0.1898897008565541 -0.10481351990793542
0.5556991818064603 0.2088983695898179 -0.06582726493861912
0.5343576490814144 0.16264858424969475 -0.12696851141785714
0.4514264382555666 0.19870315848999098 0.13693618313818945
0.5095152863970469 0.13146689674962886 -0.14501581553142273
0.5470500720672646 0.10828987212326524 -0.1579704011973746
0.5211298860428997 0.16641404157631712 -0.07713723889563084
0.4881894644761928 0.1415611822607019 -0.08419882609992158
0.4798348083020585 0.15548126783622251 -0.06336540078497421
0.5335093210416488 0.19294192956417078 -0.006246260013966776
0.5708218789731916 0.15805835245073752 -0.11261930329574454
0.6024925849377638 0.19435823182698186 -0.08565379398453388
0.5301746498024045 0.19808491247384552 -0.06816149644311054
0.5348800795875235 0.20013484998676745 -0.07008573133586538
0.22078901200967493 0.30245515623650476 0.4127052263494875
0.527331381661341 0.1588993075230576 -0.11100595263231128
0.5227364073213465 0.14825684010251905 -0.11843862980526865
0.6086697544234454 0.17675543449077225 -0.10202869949482363
0.5185929315512396 0.1063345161986291 -0.106651878413075
0.45447360380518376 0.12150337233229891 -0.07579288322060052
0.569561291123847 0.1958870065953704 -0.027662580066774467
-0.34268198520918247 0.46492317679276596 -0.1787154625858136
0.5510296946163749 0.12581729723379453 -0.1599194530123782
0.5185397571955406 0.10573707406186372 -0.07771356599661772
0.5785908043430794 0.1013961721864689 -0.21361920162637205
0.6179007105692023 0.21124500779282585 -0.11908034876111628
0.5085381264998574 0.14195795686896417 -0.09806273788053943
0.6998048054130521 0.23488162094096765 -0.11942750730580087
0.5512449353765874 0.16947018983182716 -0.09160711994289272
0.5770736480302361 0.19689381549531504 -0.06063245961453845
0.46968761186863617 0.12616371928885428 -0.08695264309888273
0.5189211541688934 0.13250747666930351 -0.08522093438153888
0.4414458495565583 0.1267897512120726 -0.1329108413267619
0.4628239831034051 0.11547701702792779 -0.12834851345263587
0.6166453004748149 0.22364289631612166 -0.03515071138453152
0.5118105151057222 0.117463786179826 -0.16726986409945255
0.5436023653012825 0.2176805574257088 -0.04442746620166815
0.5626902809152483 0.17890269671666204 -0.0905153837572783
0.6332105171328806 0.19624301512297393 -0.18219527262456836
0.5438588736848828 0.2212908262469 -0.025618822306967104
0.5535511587521142 0.08050149496233416 -0.2830161547747423
0.5271691521652428 0.14019233540709308 -0.15498706166913223
0.5571785895585464 0.19089301675133186 -0.07719285746323123
0.5364472743814872 0.1153380079471873 -0.1688930601265639
1.3722444812413386 -0.24519296105663102 -0.20881800841523557
0.5072008602615057 0.17058345863503632 -0.07099282497534887
0.5360312448018618 0.19761388273316527 -0.03779968563971181
0.5294338327908861 0.0928891975185735 -0.16173747716133846
0.5382773940313399 0.15086012841908314 -0.10943452040214652
0.5718494712198492 0.11873311170373313 -0.12340469894418504
0.5906393703626094 0.20069444049768492 -0.10033410389010555
0.542288065248016 0.12269151103623699 -0.1442794973368393
0.5604756270995637 0.17510952213052633 -0.2791319798259764
0.6314766775943212 0.1841118470277081 -0.10781610084799809
