# .PCD v0.7 - Point Cloud Data file format
VERSION .7
FIELDS x y z
SIZE 4 4 4 
TYPE F F F 
COUNT 1 1 1 
WIDTH 802
HEIGHT 1 
VIEWPOINT 0 0 0 1 0 0 0 
POINTS 802
DATA ascii 
0.4324942167435353 0.23882120115482053 -0.1204894550663056
0.5113520564062952 0.13339654071029372 -0.18773236843647112
0.5643819042485063 0.13081876859861552 -0.16746553578134638
0.5397863143016366 0.08062071839316332 -0.18216348945630045
0.5553802174180476 0.17892278408628215 -0.10426917023866622
0.6073679832976637 0.15203631512785876 -0.15392168845424692
0.4272087078752804 0.1375655127651072 -0.1295402533160228
0.43792091636773023 0.049098648933735944 -0.19537200945332245
0.44543860672416713 0.08677545301942757 -0.20410466769358493
0.5164872448070241 0.10681600889488152 -0.1222596885746583
0.5726158324121968 0.1625606558981616 -0.13638322132088376
0.4542246416476843 0.13009021433165913 -0.04974553174136531
0.5732615025628292 0.1999206225037824 -0.11048728675343966
0.5132844673882602 0.08201710676674168 -0.16099764656269144
0.5126329121453637 0.177294043988951 -0.08314702116348371
0.47562228587456445 0.17902526782980033 -0.057934884604534886
0.5406195421842881 0.1113001470975803 -0.16655493739388305
0.4762820301010464 0.1981151776178507 -0.055331546389737696
0.5257591356325975 0.1444161913052966 -0.11644621899361596
0.5264344964401602 0.16417769384371184 -0.1006614523265057
0.5091208210231883 0.1839562689840335 -0.08591186607650059
0.5131840073013478 0.1425683844924066 -0.12065854789554464
0.5131328858347501 0.1601990401394744 -0.10144261507356589
0.5384759757750714 0.14162717852317996 -0.10207331041911516
0.479568038035211 0.17764226459235033 -0.03982037897762325
0.5421343201845872 0.2040682618333136 -0.034136002500900986
0.5910282937083053 0.1899583524004811 -0.1331448759604683
0.47601210626625345 0.18099240961510077 -0.005554487293593979
0.5196056569835861 0.10561630233181063 -0.16408930923084597
0.5791518444681856 0.1613090956210499 -0.1109102252581664
0.4649618016515973 0.0731864700892686 -0.1338387104217702
0.48005348708898055 0.19739550356725033 0.014889621509354356
0.5584933701931902 0.22032101517633862 -0.034997183726133585
0.6212879413950247 0.19748419836437847 -0.11418986301119105
0.6367325888120661 0.18104794241193645 -0.15129511286023956
0.593698148183023 0.15903277644738978 -0.13640288517780164
0.5601852791715913 0.18937341612698333 -0.07555890942204257
0.5476538226053691 0.17401400258576416 -0.10820860560242807
0.5335859147192537 0.07293862513320448 -0.13363335469909998
0.5081112489270652 0.15092486798103266 -0.05969668160111041
0.4956969945051526 0.15101675859217778 -0.06286095050823803
0.5721859489980972 0.16286574848417956 -0.10745075144285465
0.5583768681640322 0.15399152294065743 -0.0858416533422286
0.5438496915808315 0.11477859845473404 -0.16178416973426124
0.5591378535331586 0.17354041499322648 -0.09065197432676086
0.6211929891932471 0.14715640142330244 -0.08856245171739374
0.572976802972363 0.2081232602876355 -0.11060181928928614
0.5266365639970161 0.15580046007039527 -0.12744240899229453
0.4714625572550233 0.1535236985445465 -0.07917407472567106
0.46235792820776567 0.147478269488019 -0.09300376037548119
0.48013641781884075 0.14553952989440688 -0.11505269225966686
0.5450059419594879 0.22750589341335115 -0.09740595200551638
0.5782877250024541 0.14642333038973732 -0.27044837416798373
0.5549625551324624 0.2032187599357087 -0.07566123502211042
0.6323085513921711 0.10145389739025745 -0.24853636045858707
0.6195358548424679 0.13734172885210683 -0.16393596183017678
0.6323711407874981 0.16650438135698664 -0.11836339765621062
0.5537266329257591 0.17194497500975103 -0.10941388605384361
0.5348583899079529 0.1343372714641049 -0.10126712945849192
0.5563859685057793 0.12009052540923904 -0.11877207587966154
0.6661431345659423 0.15674102030298798 -0.13012317047498811
0.5118519942410558 0.13647956703181308 -0.0811047286110238
0.5466397150475046 0.1305440357988914 -0.1151110664299182
0.5897588387918233 0.19636749857797042 -0.07151787623160999
0.46403596924461965 0.19302380422135457 -0.021893918387448252
0.5059122163072942 0.01735242834605799 -0.23390382339093208
0.5890288416134126 0.1984970907608954 -0.10001301739431767
0.5484182177177672 0.15814366829405913 -0.11306215640320261
0.47933756833143093 0.11569498280134383 -0.09037387494434768
0.5527730811804048 0.26666694957995674 0.0005512010065018558
0.5387542957593325 0.1588275195097566 -0.09305322936336324
0.4824192396025637 0.1360787354685442 -0.10338834529861174
0.6094046253237906 0.2413839889550644 -0.03875239690887611
0.7120312182177457 0.20415062712717713 -0.024715100215232155
0.6198615591214178 0.22679223224228906 -0.061963867783646265
0.5415284124882902 0.17324822444662402 -0.09551491102604359
0.5342918494783078 0.19932426260967873 -0.08931080129470104
0.49703747881798677 0.12214160393101281 -0.08902616259003082
0.530274691181404 0.11504941384912115 -0.17574069028927397
0.6111243280012388 0.175719827244464 -0.0607461095989521
0.572384444856155 0.1940843889909445 -0.10232378963146971
0.4986375090346087 0.13683902781858137 -0.11372194369002386
0.5003775645050865 0.1731609915728285 -0.0690655274262042
0.5482548486673124 0.1462889924344637 -0.11874581130534523
0.5015986745031142 0.09878077792946272 -0.21186228722918088
0.5109229985774135 0.16600349229405253 -0.11515620389283754
0.5991725664195684 0.13586038355512642 -0.15388932181258497
0.42329709945855143 0.17149878775443028 0.01550901591090792
0.5420787774588121 0.24851198182453516 0.047199906616555154
0.3609993382221859 0.10129623889862671 -0.10435363955397747
0.5349123579447337 0.12461417321624424 -0.11582432516719621
0.5527128468647646 0.1451961590250619 -0.18457558537861019
0.4665187317493462 0.04215443573137634 -0.1369260336224727
0.5504919581999275 0.14588529207959766 -0.13874125853098462
0.5413139932774698 0.17808883441686874 -0.11137475724565604
0.5205363909918077 0.19846003614922836 -0.048041693334965885
0.5671787858706097 0.14166796044794694 -0.14903152164374944
0.5372030556127925 0.15742677554160878 -0.08672077362074049
0.6792677440195121 0.1919564547454371 -0.1735963733233774
0.5250195243351499 0.15411036102875642 -0.11234254532142529
0.4924873831891574 0.14346780156851935 -0.11394203161594874
0.5431029926390636 0.15071836390647775 -0.1208400981509925
0.51415279417985 0.18096977880232146 -0.06520339000108777
0.639858670046948 0.1880887571682308 -0.14521158726527972
0.5099255338192137 0.158347968207309 -0.10155851029269058
0.6432240752383791 0.18560310907895428 -0.0658694503386954
0.5426220713062264 0.11963501469556093 -0.16582525056017516
0.5863494663300486 0.15517020038016938 -0.15825323552711268
0.5488045361210965 0.09725152983527607 -0.115701122510103
0.545967295012133 0.1707381318281449 -0.10010076555231251
0.5801145987811367 0.15996212834600954 -0.1105021916867912
0.6199368544794055 0.22153125768252835 -0.08414693182726296
0.5062912276193003 0.1653948486464003 -0.08982464488357778
0.5343774012348916 0.14635521163111775 -0.12114557246106017
0.4750022878249638 0.13295594928037247 -0.0692426261422554
0.5426970172204761 0.21207347429233891 -0.04499508478781422
0.5291773139592806 0.17873731341332189 -0.12605878237225454
0.5443788071803084 0.18809789456582848 -0.07929425945008006
0.5440545963983539 0.1721042717168615 -0.08223337682551346
0.6042230023512332 0.2289404588415067 -0.05030782268951839
0.46113009703204 0.15430459813757125 -0.07497575975801851
0.47553041327968515 0.07068908508058769 -0.2575072170880617
0.5176216971689485 0.12849897263293997 -0.12264216354589053
0.4751654247275212 0.13428749062519785 -0.10671965870905353
0.5555396985023435 0.1605091776412877 -0.11422886319763847
0.4281086419115212 0.06866094045014393 -0.2795475983814555
0.5129880793007402 0.15317403329241586 -0.10682221849425844
0.5536528173768005 0.17354744182649995 -0.11440649359748534
0.5274760549270496 0.1343968668021347 -0.13700227561773204
0.4836984765052392 0.08671981481381863 -0.015484629090423141
0.5250436435722321 0.16026395372122693 -0.09882203129228628
0.4812608409678205 0.1320344779263536 -0.10981490415002781
0.5111094261425819 0.17216176686581264 0.002990440378610515
0.4990238089401231 0.14699262408258562 -0.09867880466136114
0.5631700041305692 0.17053216920717773 -0.09890610279197176
0.5111343365538232 0.10862743186252999 -0.10508043159744318
0.4779743948753321 0.11627476985115948 -0.17887063298583428
0.5365762159673721 0.13895142544372163 -0.20927154662636838
0.5593847870161994 0.16765391328252122 -0.07680440763274987
0.47023629896636976 0.1361907900988939 -0.0753747620629639
0.5075362654839921 0.14488128911322917 -0.09506450974207326
0.5065184936261744 0.12035716476286495 -0.13244640594017199
0.5285744637324115 0.17239695935100485 -0.09782439248330377
0.5496876086318991 0.13608622818482274 -0.1548593923959345
0.5056822085025487 0.1282102662509601 -0.11569076557370295
0.526605203146687 0.17158822889552994 -0.054008894045978195
0.5175263987996033 0.1875306383057307 0.007605228584367296
0.6023450340040597 0.1598483993358002 -0.1410109819437082
0.6394630795925451 0.18080296153222264 -0.13489530186613763
0.5339571244669514 0.13759838174325978 -0.12664766745707823
0.5521986642751813 0.1572305471556774 -0.1331774669335033
0.5606123074303895 0.195469208824548 -0.10364676961731334
0.5789913874216239 0.2101793576552211 -0.07759678496110212
0.5858185966030618 0.22731004569709512 0.105913098674975
0.5783873557232369 0.12493781001280979 -0.12403449613282191
0.5747892750216721 0.15807406819794778 -0.11341633886718228
0.5434328822219641 0.15584944695480374 -0.1467196636468202
0.5723783620424712 0.20044418103817918 -0.11926347274587101
0.5629872224017873 0.19086714352086176 -0.07233718558342161
0.6513278913746063 0.13437434608140109 -0.14219763605544244
0.5119046574607182 0.13913378444054558 -0.13521262909716825
0.8045965831918949 0.48008350750191653 0.1860503731973182
0.5521588720445152 0.1947816224955261 -0.05785508215355151
0.4087186009824535 0.1539612625057316 -0.024869799585360397
0.5833726649029103 0.14470116989595283 -0.13212693681042254
0.445450928391935 0.03173492021622337 -0.20092880540713054
0.50166986179606 0.18500920047958402 -0.05079651459786305
0.5231986775909547 0.1587373034814874 -0.09740350249026619
0.5097770103821802 0.1278188972241594 -0.11304741117487538
0.3381361073057576 0.1223283578747072 0.18312213274421651
0.5394278261979792 0.16894535433795 -0.08639816155354652
0.5887361748292932 0.174170466979362 -0.09658534861213752
0.461200093580004 0.174601778922991 -0.117395385808436
0.64595890076329 0.2083425980476079 -0.11465463194399206
0.5007753424513055 0.13972546746433068 -0.06905150096282853
0.546546157609356 0.1701408016531758 -0.0916187158739632
0.49196503256878543 0.2176913783408736 -0.07891302156861002
0.509073927465991 0.15096440601810457 -0.12590863188640355
0.5889064904698387 0.1951142508626873 -0.13265322351395525
0.501420209284916 0.16392092915248213 -0.13652519046181055
0.543319503597985 0.18039025435945177 -0.1388185612807149
0.6120932418119907 0.13503298006109787 -0.2501559907218507
0.47447671541905834 0.1758362029522118 -0.06082311651724126
0.5239088200323607 0.17408388611276848 -0.06548171599213504
0.49464477035940035 0.18637997007942886 -0.060835719359346285
0.4817029365697607 0.09391359128709098 -0.12882621896858382
0.5357663456671986 0.14106363551792356 -0.09716598067295479
0.5789234681711548 0.1754625634668372 -0.07608158916511343
0.5598584576201375 0.17515510863853478 -0.04863357539460367
0.8625576892688258 0.305089391904545 -0.26965011152788065
0.553540052458203 0.1424668744579236 -0.15402726965133695
0.5386048653380442 0.17677522221438835 -0.11224402026903135
0.5673600091198097 0.17362574833353506 -0.20574310890749814
0.5526908412915645 0.20941505764282908 -0.057053735834841746
0.5741299117340617 0.1253227780568409 -0.08704195809211512
0.5086064913926833 0.0982754620147972 -0.1724477871416923
0.5547996049940451 0.21855548324060692 -0.015221921361899149
0.47897001867094957 0.13720909082347532 -0.14972905174023765
0.5310407215024355 0.14940257510990307 -0.08868628974592241
0.5264678434853494 0.13492582634290784 -0.016930150310287218
0.6383994874967129 0.2062378537446392 -0.04593610582611518
0.5489078035115256 0.14300666559934427 -0.12228628458980495
0.5567960372294039 0.16858004677561667 -0.12587491768911718
0.5551874213664973 0.171508719452234 -0.053611204841615745
0.6470095264138962 0.20984918640867534 0.09746438050231632
0.4659708363498254 0.17186680170939894 -0.09783519561601395
0.8000928693250273 0.7341674088165888 0.13297266918822004
0.4979332861207979 0.10583407565889047 -0.12550424386694203
0.5585071823015966 0.19532048764899912 -0.08819947737566736
0.6422298110754383 0.18704695439240027 -0.20418063815274934
0.510955959581068 0.19096572700533443 -0.10989201570444607
0.5769643965152511 0.512709450413908 -0.07414980899839918
0.5413333568754553 0.19843828401775454 -0.026695738220894327
0.5702971451223959 0.16125908820532686 -0.14241806442625204
0.5621205290866271 0.1881973129647747 -0.06838739194790833
0.534986467674301 0.1739981347861459 -0.06116800863452454
0.4510694107423632 0.14447897340509996 -0.0865584400317374
0.5824099550341231 0.18572614633328044 -0.10354878519750343
0.5618971050592876 0.13389818975399237 -0.15550654683296727
0.5692812279650781 0.22086053657902482 -0.06862350314203525
0.5185595702528332 0.14516285279586327 -0.10815323326580994
0.5209614365592898 0.18283785908252526 -0.08150990035514383
0.5822645316912798 0.1586315185412417 -0.11145818987144196
0.5429030658607843 0.1954157973156896 -0.06901959063057461
0.5795289855439876 0.06760185873261548 -0.16879559000345523
0.5715345217812313 0.10454638986499276 -0.13613906657415953
0.5914870145164315 0.17412620635897724 -0.0749705230776101
0.46469933996630175 -0.001976916072521817 -0.26512386432604274
0.5579813406564398 0.1608151121729975 -0.08678818352616702
0.6085120955282264 0.12497300687014956 -0.06863941156635178
0.4745349564976067 0.15571866882319796 -0.0858944698102988
0.497739469788371 0.19048770204985033 -0.06915922983371559
0.4656925170203863 0.2093068800552942 -0.01807440109907077
0.5289486416344005 0.14132902264790914 -0.07059065626125971
0.6201119778142186 0.21799884335133868 -0.07621480699060612
0.49887751386006585 0.10881550131249185 -0.11336114177740342
0.5513192999462859 0.17928794910505985 -0.10579518407205057
0.5114128715516983 0.19009981567002399 -0.05709206816827361
0.5645626132492367 0.14440845973396677 -0.08523286109678452
0.5213924094827576 0.15513178126980165 -0.12547240926141967
0.5585501528292411 0.19762940330076617 -0.07891393870880847
0.5677330435794801 0.18586878071413082 -0.10947944614612481
0.3679714043824589 0.1297352139273471 -0.15323528116046248
0.6093226671618766 0.1744468710413969 -0.135938608854687
0.5068421189571239 0.15267721463531814 -0.09006992905972311
0.5106658144921283 0.1853193500161865 -0.06383579149509444
0.5765440259614678 0.15400670815037643 -0.11147230202308833
0.5454276858272351 0.17051655326055482 -0.16683004971648074
0.6312531257240721 0.19514236653616024 -0.08153200415988238
0.550137199806116 0.20330070907199627 -0.1017816249323289
0.6203887551681362 0.18490313441418493 -0.12354519003312703
0.5129685923775043 0.1505218784634792 -0.1267648766704923
0.5069665284023017 0.11648894478167904 -0.13878361950284557
0.4776027976973154 0.11103686287874837 -0.1166575060091759
0.4737138414947708 0.1860295958521334 -0.05713864270536817
0.5565675942579276 0.1471291306551734 -0.10029707963759904
0.4557478421175176 0.06626776800912637 -0.1574502294582487
0.5554651332762575 0.17203668198092714 -0.14566016311434282
0.56819204578008 0.20483633070868734 -0.07699599433550475
0.35330160489948526 0.11348125512861884 -0.16959930916119959
0.6783430721581567 0.23562831960198594 -0.10960439717250381
0.5442429881330781 0.14512253127509211 -0.12339424344797578
0.47511892749295725 0.07689020748595965 -0.10668551479399468
0.5265708326813723 0.17028434071656307 -0.05398607989781112
0.5549298623947436 0.15626860887097394 -0.10954567151922845
0.5929594923610324 -0.07250261763711308 -0.050057173975716296
0.45471238275186465 0.17662571359601031 -0.06267561772732222
0.5309924245193969 0.1301269622929624 -0.17515266382146422
0.5093591732383231 0.1962339346380162 -0.19052587320369696
0.7315986872173426 0.2790896482374734 -0.18854999106679315
0.48529106079051587 0.10098116406905433 -0.11574391347510016
0.5666126111660788 0.15795583870605867 -0.13668492299269985
0.45895609458652586 0.055402638196923704 -0.08869700684543602
0.4649586587939467 0.1381595670831075 -0.09674822341055744
0.4643660666347387 0.14871562483519085 -0.05186359956319109
0.5921931328276315 0.10911616803133484 -0.2793582142123654
0.5431480081284832 0.17951436583884117 -0.10774932753163569
0.40147093536442924 0.08452396044049237 -0.04727026096993825
0.6228506591257741 0.1568546105554134 -0.036583189792196436
0.5516663803093138 0.1307867085029102 -0.15588341362021652
0.48645742551700266 0.16766709350073938 -0.13227275718882936
0.5099398684203464 0.16103452761991832 -0.0889999881374024
0.5299916356985932 0.13577272328859635 -0.10449394655509536
0.5906567908811695 0.133844977263891 -0.14269804807092612
0.4035609537239253 0.009338920481297919 0.5412417630152362
0.5313784746255266 0.1456041640299901 -0.09970529149495633
0.4317674985884139 0.03389433105547823 -0.17379902835914152
0.5986907920153755 0.19167227708530277 -0.10251358709784597
0.568411948101982 0.11638820213461543 -0.18600366652233902
0.5364437025525319 0.11592445099068982 -0.11449559717861746
0.5800794107769178 0.1209612984815891 -0.13251493783613455
0.5149861641293967 0.17793917673839132 -0.04964282224436545
0.5923734457421546 0.13256108907680186 -0.1716349559299033
0.5240170685897283 0.152628846891119 -0.1024388358756596
0.6583476813208904 0.15074250317289284 -0.06305550855068986
0.6524536651772337 0.12631553685129404 -0.14880516305332492
0.505597444109199 0.15535125779480552 -0.09431524785817658
0.6191081215894627 0.16379359160093543 -0.14819304018216428
0.49773923685712873 0.0967481025448933 -0.14654538147033236
0.4356020843332544 0.17482693661602866 -0.09216555140011451
0.594065953545666 0.11211962761483107 -0.17321366370242686
0.5915351894305729 0.2413375211351223 -0.14094934172085516
0.5105769427372877 0.16456630776147563 -0.1615270568010061
0.496248774969672 0.09024954753832048 -0.18121654306055746
0.5436732149255619 0.2198840812395133 -0.03675565583701257
0.5620581933517883 0.1569458300389499 -0.08903368906818798
0.45414659952444936 0.13875120163194765 -0.044572442524653866
0.5305394953199425 0.15880407451089695 -0.04507355274377289
0.5052951654774063 0.1506532892306609 -0.04981931684635299
0.46134843231730827 0.1306944340363856 -0.05623959714314708
0.5405468230151484 0.18932326411960787 -0.06084922832124562
0.497046054200851 0.18281797060124916 -0.06169846532274903
0.5553999485550918 0.17057468690337885 -0.12207469846804031
0.5344411355139584 -0.08995961402733599 -0.07461457791868042
0.5158074001029149 0.13774947554186667 -0.11593937478616567
0.5978456279362234 0.2022092279499219 -0.031582518678874294
0.5521845414871507 0.21009852164213783 -0.07056395130692295
0.5376418479796712 0.10772658543403679 -0.15174748576367847
0.5534522986604031 0.1096816636967759 -0.14514107253305042
0.5422430958287805 0.08098114571799897 -0.11756592814086275
0.5432150771646178 0.14822298915301246 -0.13545637301757552
0.5049302039570591 0.08013376955287299 -0.14940066129129548
0.5295610767404355 0.1885669640133898 -0.046247870783560074
0.5302486691775243 0.12576377871202737 -0.19396009327820707
0.5160021788648095 0.17072259206449303 -0.08847517548348094
0.6681470129814926 0.1973375883208206 -0.10158006193641711
0.5657461939013899 0.16032909584133392 -0.09860217775099045
0.5409360578294695 0.16137683842745787 0.1729401695618833
0.49274315333066454 0.07561397508254686 -0.19945433421406733
0.5381972152177354 0.11811686109454911 -0.09251779476906563
0.5957391079968772 0.12139096261195448 -0.25527156671505224
0.5074895162862418 0.15916934526190119 -0.059499987008265975
0.523600338253047 0.20655666931162386 -0.08121968175630911
0.48905076696493666 0.17250957395113176 -0.052696638384645667
0.5372064218974657 0.13366787689483317 -0.1301600280214359
0.48690280975515066 0.0668321589578369 -0.15256971840277345
0.5238924367189526 0.13425665437364387 -0.10882566147235195
0.5182689619746981 0.13446039163225976 -0.128329951811736
0.5199934541641653 0.1542653349891907 -0.11915439368256386
0.5744487565862215 0.1231079083244424 -0.1685503431200459
0.504505249782838 0.18910991655380371 0.004042636069939931
0.49434389980123683 0.1373243396592585 -0.20173360260689321
0.5516703668237994 0.22863617970352834 -0.052691677988548236
0.5249945082408942 0.13748669117008205 -0.13125137607171666
0.6660629932265607 0.23342361469761386 -0.20124374806344747
0.4676677918631498 0.18154046379871147 -0.03210957455065966
0.6303148020920162 0.032038424600784765 -0.19383737888354347
0.5756667238136117 0.2498299481465267 -0.04102445923676612
0.7823859501333743 0.20714922261760194 -0.1294079403402577
0.5790894702385572 0.1221190235172287 -0.14167826899551983
0.5399010709609797 0.0991862929238323 -0.23384108165190298
0.6585607651985583 0.21461412135487024 -0.11099300407047963
0.6550975785673927 0.26616748633951204 -0.06669498739769608
0.550361854335975 0.17185131113727437 -0.10094002607600316
0.7476051321956731 0.10325674938329144 -0.08162130437212056
0.5373364108764918 0.12449139195379644 -0.13703780666941157
0.640419417266429 0.1792889753517244 -0.14904541479168643
0.5123662961986497 0.11052722665020553 -0.12281892451458987
0.5772519977350186 0.16428894369421698 -0.13741628156478214
0.2811435819093333 0.4237860600732688 0.17243429451507097
0.5521629722733365 0.16644641782808378 -0.126414353804293
0.4798546387864775 0.11919702056869141 -0.08820378915685012
0.5578809921678669 0.1790720989217931 -0.06835425511245319
0.5669363077390557 0.06048206623489705 -0.19558584337259788
0.5726667080239167 0.14483750928525296 -0.13203423647307488
0.5431198828448913 0.2299445526578836 -8.788876597520812e-05
0.6420238086615058 0.1193774772331011 -0.10330306577547788
0.6767088071427878 0.19147821540850885 -0.07296032389432128
0.5509917014516219 0.20352959192818787 -0.11078803318726216
0.5489666411612149 0.15984758585970837 -0.10051095804276144
0.5202243996852189 0.12125885531264657 -0.04763014692684919
0.5861933286003733 0.15729093666664085 -0.11154605298156639
0.6132777431583065 0.18288142803278618 -0.10787753795885635
0.5364319281284367 0.1687751798807966 -0.10202060573571714
0.523177616291207 0.16740228610524355 -0.11240257513986762
0.4627026098074367 0.0695231366997433 -0.19251218926898161
0.532312936953474 0.16210023090903292 -0.09949562752208863
0.4409503155536214 0.10300794310339256 -0.04841672335953717
0.6953137580274245 0.12924623336390084 -0.2202608814367295
0.560664334975769 0.16133197850425063 -0.1186251386291417
0.5002704331263033 0.21003648924633467 -0.04231468192175214
0.6047067248187261 0.32055150969962654 0.0901255117830857
-0.4609531240549245 0.2656047921474567 -0.6487212252050085
0.5704498674741387 0.20115105054691185 -0.04634377288893177
0.4668119510356519 0.12388467115640367 -0.14657484082658812
0.45715477268616667 0.15805484018862614 -0.1209602287776761
0.3949130374695926 0.13571729030482516 -0.18145847468211684
0.6594352143093687 0.08823951344085401 -0.12470217165775921
0.5223340207281524 0.17483369998572584 -0.08998678322598153
0.46467512124073096 0.11760559849663821 -0.07515293484401298
0.5036698892630085 0.10167866461368646 -0.07990605004002305
0.6143910202357574 0.12025462265511067 -0.14906045668868728
0.4342864476149657 0.07377248205112608 -0.1234402216660726
0.5563088525606759 0.11894400988923337 -0.14180957474427203
0.5299565361952574 0.09677717942373931 -0.1466573950397816
0.5086593511443169 0.1399457581221526 -0.0858753152638485
0.5322010867636209 0.16141565872837305 -0.0633284964369949
0.4816253858417525 0.029857027028725724 -0.11296984851574621
0.5829617653006949 0.09207635676347081 -0.17926577919176623
0.5915469417176809 0.21627130734759703 -0.12061001298927465
0.6099963873937781 0.20078799805850167 -0.1267045239917337
0.4487032174115484 0.009367854924519747 -0.14527922722884057
0.5144226800678808 0.1584259719642631 -0.13060472438455406
0.5595955302896414 0.15225163954292498 -0.10257236392678237
0.49136542835286434 0.20893098107829644 -0.029950004789370155
0.5418381214458208 0.1539788405097653 -0.09286596429473093
0.5028960681059544 0.14892814219656714 -0.11004039189957382
0.5301939646288787 0.14212079868461558 -0.12758595147080598
0.7049629216671605 0.23858326124056362 -0.05929855589168653
0.5237110953508619 0.10536051000029545 -0.1800244572344809
0.4409240664373897 0.1468533098056497 -0.09755370312764455
0.6125990725283827 0.12588585069973135 -0.16765000783288997
0.5537015723003123 -0.03307086198721265 -0.23762998515387324
0.6438572520408741 0.22386317044943382 -0.10586947705532168
0.4779662827552471 0.1677932236181192 -0.06220775127444256
0.6091212592181421 0.15853757199018048 -0.14395649394965915
0.5656995134893492 0.16542189793776174 -0.211536552272932
0.6075130043101069 0.12704869790320572 -0.10729641004908785
0.5286711774399748 0.1493090624459228 -0.06098156427351853
0.47134238126558614 0.3454815342746542 -0.09214076868636312
0.43763754522028364 0.16762867843560514 -0.09723546159601426
0.5262361239979185 0.15387807022463562 -0.13206938337597762
0.47715787900921214 0.15192325584699518 -0.010990820560266457
0.5682382536505628 0.19581333601044548 -0.06517393817883033
0.5231740911610672 0.17442823833479792 -0.0859702000613396
0.5310377638605956 0.10036883590218793 -0.07982367140147062
0.5320979192908339 0.17275264518750078 -0.087681337246309
0.5131469424196808 0.16639253595218406 -0.11195294728491945
0.48032098279647073 0.19589446433880653 -0.0203989318188178
0.5317403165722965 0.1757714244262587 -0.04790858758461525
0.37787966846903487 0.15917748449130897 -0.04856132888298248
0.511928808934897 0.1466795684844442 -0.09792902214002197
0.5469758702824521 0.11898819448313702 -0.1679917893349483
0.4668559936621648 0.1919130942818441 -0.02417242740862946
0.5106633333442545 0.09478226884885999 -0.4379086454402028
0.4297030763702594 0.09785428207706559 -0.0710276490934092
0.5401414467929158 0.16399871557274537 -0.12415791058590742
0.5463950166541593 0.1675123699315293 -0.10889873030693309
0.5555049823524172 0.19602075609009262 -0.07895656545237273
0.5542480218366421 0.15455316687963716 -0.08283747430429855
0.5665942764264571 0.205281857788691 -0.0431474999224406
0.5336726318261924 0.1620178023683252 -0.10606307939966086
0.5207172262481947 0.17883184012592324 -0.10607982701279184
0.5875648543132002 0.15798921334771876 -0.11058320057669846
0.5723869681781082 0.19856161690627516 -0.09992659151575367
0.6344420356821701 0.27091353992425127 -0.1297699378842765
0.5518833672704488 0.13544962618277623 -0.1175395080251036
0.5091845570503608 0.14890608831079533 -0.10366765259203703
0.5995721531984515 0.1730073633999467 -0.08450093027506966
0.5608796692027767 0.14055011855458588 -0.1312639168995986
0.5776273336559541 0.1129000829909046 -0.20594943549539835
0.5636390886857754 0.16827611683092414 -0.08335345036903163
0.4668234706375216 0.019163946818324007 -0.14664220503276226
0.6033236901908765 0.09727431286900412 -0.15358012325771142
0.5402576726146862 0.17007471412293285 -0.10957888233886592
0.5420187731350268 0.1109521487599352 -0.11728297196374626
0.49947058802547417 0.1249344719104073 -0.16134342786308764
0.7185632590642825 -0.04706518609084753 -0.3568721272242499
0.5815874614577154 0.1684471567775745 -0.14197860745098012
0.5269365995409174 0.15019835177493235 -0.09201966886551816
0.507168711835817 0.15601231703412566 -0.08609164570360406
0.5337513081508263 0.13407722692501522 -0.12092294594037867
0.49231044716388794 0.15873568750429 -0.04386230986247597
0.5390103082712869 0.1067361130754847 -0.17906665923351284
0.5320933626486948 0.1620166442658757 -0.14297359962681355
0.6018446627627441 0.22004798287073868 -0.14065564342057257
0.5569047332353847 0.149496473615784 -0.10120926404457009
0.469924565266183 0.13636256872199226 -0.038987087566468404
0.5164148094577428 0.16867126185117343 -0.10198265962880271
0.5274400410928308 0.13998453409814715 -0.12702389960257676
0.5264226881212153 0.15323014233572962 -0.0899070340706487
0.5196016741848268 0.1106756542444316 -0.10361594330852597
0.6156662597971234 0.15282160383691235 -0.11685968837184646
0.5551503517495888 0.12905465047344933 -0.12226559773174017
0.4901681520608321 0.11913862836435385 -0.11489479552784587
0.4354342225343828 0.14229230328552944 -0.09573774239066779
0.5539272389844427 0.17149715376967833 -0.13922665786137145
0.4349626408911007 0.13231113383791637 -0.10554690787320453
0.5383493245131632 0.1588129199916608 -0.10603170096125325
0.6347861058232951 0.2876594391926517 -0.03573463341015781
0.5696816253236534 0.21419879866924418 -0.01000270752791721
0.5977509730457058 0.15638103550138283 -0.134912391051472
0.5116146687040128 0.16586840612474418 -0.11367234341810217
0.4887899938121336 0.1951107002447401 -0.03895614312099838
0.551543519967737 0.13184402198848488 -0.18813940293735243
0.5163105193076092 0.15899745992733472 -0.07861679892826601
0.4576750667044962 0.10064377870915564 -0.03299563076465972
0.47933940241244954 0.12396131686102763 -0.12833019413682223
0.5605290833693459 0.07742620251693211 -0.1959806680440721
0.4940422901784274 0.13251687702705794 -0.16519335721427808
0.6058799386916149 0.12712374244354407 -0.12548171664171548
0.5614268952255799 0.191788453227133 -0.08531152257400265
0.6353677373803208 0.19086157404515802 -0.1306600501638968
0.4825023673264326 0.05875090862554089 0.06208116102757799
0.6191836954287169 0.23732175104643716 -0.078297312904823
0.5621175066387991 0.1242802701870005 -0.08727979764903182
0.47779031283556606 0.13068999097637857 -0.11190823244332648
0.48498955172679814 0.17490407349293946 -0.06771255989390568
0.41459727612397046 0.11397407456084352 -0.08704957162106552
0.5240672936385238 0.04541474914765331 -0.16307888761288325
0.5314455411063932 0.0661891905556189 0.09784726332507887
0.5219211634798029 0.144593206223405 -0.07895022868486024
0.6331194304049461 0.1752299308890315 -0.1575203531223366
0.5750003511861337 0.18762270471643205 -0.08986098631081063
0.4436904922806377 0.17710517715026697 -0.07027022362724722
0.42469362794865617 0.05514072943852 -0.16449219926693104
0.503055188597699 0.13494307621019175 -0.13749783835800145
0.5504317646331884 0.18740682684378385 -0.057362832536952624
0.48538243273488035 0.15318475753758776 -0.10011315157538547
0.5137454300158453 0.0860627620532739 -0.2132343246138646
0.5136438240520249 0.1440465899131027 -0.08258355952727925
0.5069693149543752 0.10804437870663719 -0.15480450829279846
0.5768343958106072 0.17211844999054904 -0.13273253610039148
0.5642243623832996 0.17191631516116956 -0.05530612878278873
0.6072109141276911 0.1438953177610216 -0.06743211064159027
0.49118246060002946 0.08880613568760509 -0.16659416875222632
0.6083454948976055 0.18471176426089642 -0.10122360390214169
0.5369549298531666 0.19306017580012735 -0.024233785791196283
0.5812388996306765 0.14734951867625057 -0.1458408486065963
0.6699699612085794 0.32005217973997446 -0.09512872532975791
0.5526550543471416 0.16570121503163193 -0.10303916655951184
0.544845245173093 0.15849135201152365 -0.11002347818855185
0.35053638655726616 0.07659280577850325 -0.14289532229345525
0.564088843175341 0.2015022140324021 -0.08256581226075355
0.5770054567273775 0.14283680757588968 -0.06885579689547683
0.4679506523499981 0.11559318611824665 -0.10252651733981111
0.5574819655241896 0.16872489152036962 -0.12369296412904873
0.4897693372209062 0.13475135697743212 -0.12424175239905821
0.5436416834699003 0.04007666580137936 -0.20512443467983132
0.5755962179838576 0.17684306710312114 -0.06012523938122172
0.5348934995229371 0.17105736037915165 -0.0826741147831882
0.5487768228279322 0.09758454572707365 -0.18311776584127415
0.4762450137742036 0.21770244084800083 -0.03944456537078622
0.5113830216675694 0.16531546890175264 -0.07929439759239187
0.4948188167067258 0.11900989570607123 -0.13434575698067874
0.5513959935550474 0.14555998763917444 -0.10965606910606596
0.941568923085029 0.35826550248805233 -0.24917904432965088
0.572458813973725 0.169219618533333 -0.12607387348406007
0.5686246913204087 0.16696801546363815 -0.10360851209911459
0.5451203612307722 0.10612259242166999 -0.15859998557004928
0.48450796180850375 0.12681129424339588 -0.04675195834983015
0.5633610993121465 0.12846717499189708 -0.16551770379864195
0.5451463134289298 0.1971158433459692 -0.022585644445342723
0.5671678921111152 0.10551467116407309 -0.1808482854784046
0.5229412930999331 0.14212766828772772 -0.10548472897052363
0.4870765544805238 0.13836909955868748 -0.11536811416802095
0.5543780431630125 0.16832153844384834 -0.07605668413475541
0.5488471947733728 0.11244985451932621 -0.15632992903931608
0.5342556613330061 0.18414694618923022 -0.09385204942101666
0.5227498102313746 0.14519615468353209 -0.14199988933641805
0.5433200950515698 0.1900459664437193 -0.08501487664895535
0.5036137850074311 0.08978206054243287 -0.18817942069641447
0.5152904700418475 0.15893715478178194 -0.07965025077000121
0.5900763619528533 0.15465669848981634 -0.06955881631840555
0.6273954245505564 0.21611265252990108 -0.07793580092302932
0.5666489738352709 0.12044016821330672 -0.14862106067255354
0.5136877072242214 0.2113993798823941 -0.05504792449904983
0.4597779796660433 0.25624601472605946 -0.22861186440907488
0.58047591196204 0.15713355924535222 -0.08000210898273963
0.5362650181779287 0.22434356817471723 -0.04799838461471495
0.5590579039998147 0.180143819010965 -0.1179082102555924
0.5847841508225144 0.19049289686040538 -0.11968796819093086
0.5955507628935379 0.1389773334233837 -0.14238571554959378
0.523677126966632 0.14366038308577345 -0.14581322421607013
0.5722893133688274 0.11073076801054071 -0.16162070729342304
0.5797946888338714 0.19922226321290282 -0.0800383649000338
0.5882967338474998 0.17038244064383434 -0.15903523277381737
0.566222117189966 0.2024122723660895 -0.06039220981068638
0.5184108327637205 0.15466647410804057 -0.11603881991450749
0.5903473902406233 0.034590949421641426 -0.2219239038812617
0.583552504038849 -0.04374739191824517 -0.18388654251977243
0.5442330829033324 0.1305013812868765 -0.14597154296745884
0.4917481074454457 0.07737248629402416 -0.12567445121217702
0.5138727306925404 0.16767151928610247 -0.11501749015704377
0.5739062576951284 0.1362200183666289 -0.10114839916883511
0.5568076730601064 0.1551503460888881 -0.0761247868935726
0.5174342303148904 0.14904393742638433 -0.1063034962054843
0.5308788820471904 0.14484397184847353 -0.14526185047274964
0.5115513565035172 0.17181857455378235 -0.05437796223944247
0.5236104146007108 0.11292045412307061 -0.1301677023524377
0.5407346930407329 0.136575254852616 -0.13246182063075196
0.5637793799987634 0.15313487083129473 -0.08108150729138686
0.5336710719709288 0.11409108064695772 -0.05835710576951669
0.5737162282122767 0.1553232858716882 -0.12439953422904182
0.5439459370258106 0.17514828701442298 -0.0883423782085373
0.4994061100431111 0.13374168698842936 -0.08857858380038408
0.5103222859370646 0.1229934536049484 -0.07948860180576389
0.573238750687139 0.15613377083249702 -0.11386719067081685
0.5915523507013631 0.20177154927274898 -0.05881301684624418
0.5776589978204498 0.1740915794065785 -0.1324832102686031
0.4994644609046901 0.15375444308743624 -0.12351690398746484
0.5500788234303968 0.1454487290403108 -0.12147016401435451
0.5654092320426258 0.14760406924551717 -0.16822029268018923
0.5834486838933657 0.1020667649898428 -0.1301516117367072
0.5327447086251311 0.15656512799722577 -0.09067875519177448
0.7190600795137385 0.2786253041693669 -0.1589091764932391
0.5814570206472638 0.20865817992380187 -0.05952003872620537
0.5424731357181543 0.1562224840102573 -0.10201025044820256
0.5502457257197477 0.1771503189969792 -0.09194926912189771
0.6146565799777619 0.15576524175550333 -0.09704665614330565
0.5606684833623348 0.19783473542105412 -0.04649103522247344
0.5953962432772499 0.2319454251402675 -0.08336347635051311
0.7058411500167097 0.3424312225803021 -0.12891443330317998
0.5298945225441116 0.13987193995524194 -0.11661897705893409
0.5243890916053005 0.1665688354441528 -0.11580140843685172
0.4903688299612554 0.09288223328191236 -0.25775316598638653
0.5946153238076874 0.15310669647058717 -0.1701837972182858
0.5319092011445434 0.19146807375112473 -0.061728021707949665
0.5334177559031161 0.22807908385094322 -0.03271984455732024
0.5127242340596183 0.1507370736376572 -0.09742826353114253
0.5061439761461486 0.16355934273791206 -0.10828605707547467
0.538040958766203 0.16188951845840904 -0.10632314071011706
0.5277753468923407 0.14521098512257424 -0.12814511528657135
0.5156775402566467 0.31615427868378276 -0.06874255791011308
0.5759458314728931 0.18674101880503713 -0.10449624453697481
0.5028601138853048 0.13725555158077896 -0.10443154220955364
0.5945473519088722 0.1761436474320135 -0.11460590954560246
0.4638785700564938 0.15136053033094754 -0.14907165965190927
0.5251236142055973 0.17976535496161716 -0.06564186065267563
0.5444267601511257 0.14291897135426268 -0.09636646122871184
0.5269950548837841 0.07417878410120693 -0.16234369066783927
0.5339648150688276 0.11078460401259349 -0.22563311076969228
0.5253798922926478 0.14573921127612266 -0.12504732313371392
0.5137422837785408 0.2156799893511021 -0.011519452025964938
0.5107021245582359 0.06595887014478308 -0.1872543490776053
0.5909137465764474 0.15454864978157445 -0.14605808182236046
0.6443755418842727 0.14348902732369595 -0.1643264977643497
0.5163695047518502 0.1678170506128538 -0.11269948206951597
0.4188945239524884 0.11266714853942972 -0.18970675741702792
0.5484841284445423 0.16776786669460364 -0.08454870334696807
0.588702098683143 0.11795550357065565 -0.15583479896679364
0.01831913547202646 -0.0927493601233067 0.2322183811858025
0.5674885465037391 0.156940526991022 -0.13276344938597617
0.4699253245185133 0.15182532802091941 -0.050256851106581735
0.5728305284809778 0.22077153924279003 -0.06393940732715464
0.49025392251886046 0.12530945184619213 -0.11987653917204
0.46419637717409046 0.14617096713267586 -0.1415121979501066
0.5011638605313493 0.1675730268626694 -0.11037758110357743
0.5990199956998623 0.16885254350862056 -0.1341266201437179
0.5256764775237031 0.15132373379806552 -0.18003329360946907
0.5152683083886416 0.16250130575929234 -0.10361899112693607
0.53515681494072 0.15676969548664488 -0.09554770485279107
0.5264892736799283 0.17148249127815518 -0.12111332556833077
0.5493390792578339 0.14979100144141455 -0.10718906961334085
0.5886453510557033 0.11534245873774296 -0.20464202877917614
0.5283156679780348 0.1752215071454799 -0.11128757515000132
0.4915910632669096 0.21052504324191545 -0.02324967057653282
0.3736287253216517 -0.02636139005721816 -0.4298764212166901
0.45390605941562967 0.15703054684627205 -0.07879766999670323
0.5504943301363454 0.20773180211595843 -0.08946852083242618
0.5001714426861383 0.0865836273020335 -0.20174503826304147
0.6283840344253093 0.12773691021432398 -0.1461943062220854
1.6267394317113713 -2.4528061415989413 -0.06095594497901402
0.5423834955136186 0.15161924344093336 -0.10781012726201311
0.6355055432271968 0.1558434678484133 -0.049939599559124304
0.5464974770019779 0.1752173008825082 -0.056931260104164494
0.4964650474440475 0.08286256911777912 -0.061488850336573364
0.49050444083772504 0.14772053562452925 -0.12044056119785296
0.5205476757009393 0.15922897371628153 -0.106869757575069
0.5403433123803154 0.16183439390536591 -0.10241795221139682
0.5506169775512433 0.1681053636397536 -0.09523831804192184
0.5931688952480982 0.18840789108844547 -0.0917955306557019
0.542022675824569 0.1510077225549935 -0.12000242032280539
0.48065806047031856 0.1648408638920671 -0.05610353228300369
0.546025725722572 0.14658166316436905 -0.09818080926649486
0.5289297932020816 0.168348858046258 -0.11611455986995622
0.47204586922437386 0.11734490406310272 -0.12613785444341374
0.542038131846752 0.17442826038013948 -0.09255788490888506
0.4699486028376043 0.12029534023949395 -0.14353499048999652
0.5647942229109901 0.18330396125416826 -0.06976308690217081
0.47104093508060885 0.07030946297335561 -0.1517104323602041
0.5303051879550651 0.17791169934872642 -0.09584394936628371
0.5432106725710213 0.17308336258271595 -0.07617613261612632
0.4375324703604804 0.04007434394544873 -0.13490541638772413
0.5915265582909228 0.23605058222267417 -0.13544000824221314
0.4880607175023641 0.22828947760031326 -0.04548135781625717
0.5732784892920364 0.1935882342093862 -0.060928048979533855
0.5225493415918692 0.1548499461438695 -0.06125871361848567
0.5295488463816866 0.14979193823714354 -0.03611735800868132
0.5633701698477154 0.06275332330854155 -0.1932785431086188
0.6333886130630617 0.11547229989689356 -0.15492369580351806
0.5435406179896489 0.18978122468330128 -0.08706857989322714
0.5280318789038319 0.16828134946369744 -0.0804872125977596
0.5796662358417706 0.24413166281334497 -0.05892391683062215
0.5819724137814148 0.16333921113204042 -0.1430330552453256
0.4890789519613037 0.20318196947899025 -0.048102997396156866
0.4907349134913517 0.09998905931023216 -0.15415406784259744
0.5810267310271797 0.19543649653247996 -0.05397733603510346
0.5404624759221832 0.2002686277429433 -0.065022442153861
0.546481381003062 0.1805184451544335 -0.08431797748127678
0.5511313691144437 0.19209912908392823 -0.11524371132965427
0.49966163005672115 0.12633794298686496 -0.10820235691269886
0.4657715868685699 0.08312218448025988 -0.15686845203137523
0.4393631014576016 0.19606059736557313 -0.11693920191497398
0.4867243648794357 0.19127134859483874 0.011892132923009058
0.7933718800473599 0.15393677690028085 0.0007439804647759729
0.5414482600640582 0.08670107543851202 -0.09561540237694999
0.5597180794696612 0.17079061390418815 -0.08250888026422842
0.5797828958709204 0.14819230277086604 -0.13300635566835695
0.5406101119406657 0.21412133931843869 -0.057639361090579655
0.5915795904995349 0.11246456894564005 -0.16986860457579667
0.511063778631339 0.15530952958123123 -0.1722791354062565
0.5514762298846563 0.1619573486334076 -0.09079633449714208
0.47459680957862815 0.06892741895445909 -0.08073118327401119
0.46532392049860505 0.18524065402016276 -0.03945710599269603
0.5143625531316047 0.15266357194802538 -0.08278564713832282
0.5055190793794253 0.07760436553927264 -0.08815852694125681
0.5526460919460305 0.15224016979266253 -0.11061327370849483
0.5928500758833479 0.26759215563795635 -0.09230976782177436
0.580604990853189 0.2123814565487976 -0.05319499360869884
0.41081416098795387 0.181272243891911 -0.14083122492444033
0.5572973321738317 0.09361044330474044 -0.12296433002534002
0.5542479381735461 0.17404625308276422 -0.08420509894273209
0.5700242668142863 0.16199208123913422 -0.11250996996963636
0.5400251457665632 0.16830678223526263 -0.1011621288546678
0.5885398846324819 0.15245417815853557 -0.1672791198592165
0.5474397156119011 0.16317856165903777 -0.10417155602809203
0.509517731467156 0.14841830954439672 -0.10480014738003263
0.3972930284313776 0.14168296850512263 -0.06461335404981128
0.567998169855656 0.1778152039060643 -0.0505177623591635
0.5600922151011218 0.20215386022483983 -0.07262919921642208
0.5392131429126152 0.16048393082856194 -0.11141521802173315
0.42015449215264766 0.1670359902112608 -0.019879093637896972
0.5360451000185407 0.07858204901462784 -0.14294928114689753
0.532235193919476 0.1171583553699378 -0.14699912884033495
0.582666871450428 0.14544808242959562 -0.1446893820750006
0.5840173246893272 0.1958984792405971 -0.1298703170026272
0.43219783761695396 0.17016588939165445 -0.10908360492979341
0.5567689703542271 0.1980734089462146 -0.09539209419840233
0.5915946902932632 0.22037862380558693 -0.08176878626817086
0.5639235257795434 0.11186457004801298 -0.11747701078395778
0.5896059914109486 0.1563877259744686 -0.10235668428244082
0.5910944389388106 0.158526481433654 -0.11318595161763767
0.5628348113226025 0.19839682825221416 -0.08320061416705471
0.5347811156152318 0.13714511581250122 -0.1274936838469074
0.48686007861630287 0.0809906588966669 -0.018452939976953076
0.6010696915456606 0.21098932709861629 -0.17990514155322046
0.5124357546032883 0.15126054280425194 -0.13611505280528036
0.47816178636071527 0.18269570612353903 -0.05547852082808902
0.5003602098164066 0.15106001680743475 -0.07082715451862498
0.549490314526409 0.2227383960929501 -0.06474571650460348
0.49865347018987904 0.1562168927473806 -0.017428104299028746
0.577884239746993 0.19723684152830856 -0.07457574288403634
0.5742139882487578 0.1809480059505404 -0.11262088740868137
0.541567183803366 0.1982148711210101 -0.0846944320581855
0.5196307071490054 0.15901822934199572 -0.10093873225922323
0.5428658204225769 0.15547058084241883 -0.11100015719753742
0.604300193291536 0.151372259542228 -0.16706914674523432
0.5141671073329377 0.39687174013990045 -0.10471702510410807
0.5634782559105389 0.11365285578392559 -0.1980456413615741
0.4777118202743367 0.17014721215396378 -0.04233537765507833
0.47799857283381186 0.1258004304296918 -0.18850809134445967
0.5010460436331527 0.16768262119755661 -0.12141116622601089
0.5123360709367972 0.18563506402719554 -0.05058098629811525
1.3648601179346826 0.04834357888479701 0.281981041231802
0.5030836729088293 0.15403790345784785 -0.0954108742655535
0.529353586247268 0.10662337089068785 -0.07648434568196194
0.531499336320195 0.21506121466183004 -0.07777743624501454
0.49351885526094463 0.17135194828800593 -0.05453235123547984
0.549329167996774 0.14359298178609947 -0.14670738059579946
0.5578925832787718 0.17851060187473422 -0.03717363142109775
0.501378243642634 0.15325192275875565 -0.08515885747840457
0.5554245857230171 0.21603669348721155 -0.017993507609489257
0.5087862304141879 0.18062497087126417 -0.09141692825360792
0.5254369624917246 0.13714948430002494 -0.06266842974262943
0.40063263733291876 0.14447653178839914 -0.08586509543872012
0.5491018920553472 0.16690370693955003 -0.10750602543082266
0.5804700632224211 0.19682457267147413 -0.07353699460405494
0.5372790514390431 0.166886493058783 -0.11384359502177688
0.4842047833402461 0.12743156373129239 -0.20560011362218233
0.6442840558993197 0.18013062888590525 -0.13848490629639798
0.5154432139939331 0.1534936639071134 -0.07436628846876658
0.5376626970033413 0.14522393641986753 -0.07989304576118172
0.5513825630305718 0.17233567196871036 -0.08379482765204216
0.5842516384976619 0.1370676506431323 -0.11727180700624729
0.5662913324501062 0.22282920335848644 -0.11490763380309943
0.6495604262346859 0.17777061992848076 -0.14007698043178607
0.5595735355318823 0.19570389428737656 -0.08496347894920575
0.45105038420163623 0.12972343015111676 -0.041101303172695225
0.5466773088213159 0.15607619918706916 -0.1023933798360872
0.5438822467506554 0.23846923018797384 -0.28570725901381877
0.5275474213897979 0.139752769602012 -0.07778098232283526
0.4475619443904435 0.1526782761216765 -0.07717340959462149
0.48932751837439525 0.15243628382782504 -0.05866119138437398
0.6237099078776396 0.23887358879336773 -0.0905313007027786
0.514573704811994 0.13927542659939718 -0.19058810999979414
0.6261370988909789 0.122583718028352 -0.09853380132867073
0.5429111126607182 0.1562182365612017 -0.11463880899617607
0.5039453044673081 0.15011117108944916 -0.12594745015142905
0.6644507878614831 0.1313557604659792 -0.15566782875995955
0.5387195383606098 0.16658238833858263 -0.10294879544218816
0.5359974613532756 0.13365799269942613 -0.13185839139572408
0.535711987973059 0.16460765590485948 -0.1195240860448763
0.491256648673172 0.1486309425567498 -0.11281817589137688
0.4917257191934823 0.1412159776008508 -0.09823277478206194
0.4289568757531441 0.1347804189143318 -0.10680143434608169
0.5433124083480152 0.12414847848216937 -0.1451068951634511
0.5750503857323963 0.22565674690419257 -0.06258289676080153
0.5424233356209527 0.12833445325499326 -0.1131606998079917
0.5300418777081859 0.11110471393858745 -0.15987337881365704
0.5220864913255383 0.12576031016762101 -0.15548476661612654
0.5361415628394042 0.1428788699145258 -0.12434710236715318
