# .PCD v0.7 - Point Cloud Data file format
VERSION .7
FIELDS x y z
SIZE 4 4 4 
TYPE F F F 
COUNT 1 1 1 
WIDTH 811
HEIGHT 1 
VIEWPOINT 0 0 0 1 0 0 0 
POINTS 811
DATA ascii 
0.7075215518667903 -0.07153498157671834 0.08605940549941238
-0.22979277621581673 0.35001975565928944 0.3999348082665506
0.424713638990454 0.3946530586628967 0.42341487702256586
0.2997327407241528 0.4221515244594656 0.2307362669359918
0.3402986389085356 0.12911360904311664 0.027214731443621076
-0.2138563581513182 0.3306737652277434 0.4924627113940119
-0.054830462317795536 0.01501005514231224 0.09827456326797801
-0.13571178728415134 0.3220910295220989 0.34193722732736376
0.4127614524554133 0.24048111411605078 0.25448090369062015
0.3630540538523235 0.30834346934710766 0.20797527955762973
0.36099115680272575 0.36452144008217147 0.2600867302046481
0.3433594069578305 0.2802385936031868 0.18353123578297925
0.337216906781137 0.3172835651994461 0.22966282446179775
-0.16691724718056378 0.3093164618028368 0.3222532244726892
0.383095448828243 0.24011571367420004 0.17213754879458065
0.4080505397798788 0.15244911540287376 0.06047215775681991
0.3642113649583365 0.1883800650917209 0.07255344510382145
-0.14653253072813754 0.3504607064259062 0.3439650543117523
0.37532113448480686 0.2502548396553692 0.16121753879120604
-0.19631544723692684 0.2600433969632121 0.4110733650922356
-0.327629490052459 0.48386117080207214 0.49694826334911113
0.2761988511891218 0.316609315650453 0.1637119042027564
0.31282997081217445 0.26433586652865415 0.20702939263426856
0.4144051717027395 0.27886494194424927 0.20014055767006766
0.004936471144674215 0.2865803093389161 0.2950189289462912
0.4052228871672696 0.19824223346222425 0.17030181887827212
0.7015242962067418 0.2119721859826882 0.3358329952570642
-0.06037223217853693 -0.18846262388379387 0.4586464680721605
0.388312338929353 0.19373198389823187 0.10948657624658154
-0.14960366338598874 0.3659244788900935 0.41813075379907616
0.4141448778017178 0.2375445422465674 0.20770398355659836
0.3829080741474655 0.2515327837223964 0.15089423539131985
0.1869023569134356 0.13636094007340205 -0.08225884296493291
-0.12807434614524027 0.37214172057518624 0.3020564159126735
0.786022022943996 0.15756961001021352 0.2198800940010699
0.35272908147676674 0.266007333900518 0.24808617600712068
0.3534374169905732 0.24930270842195057 0.12708648274565348
0.3970574908190372 0.24974380041392408 0.17101328261736626
0.31895161153880736 0.33650949108078976 0.17360040741436933
0.4694111934741301 0.15113863570800845 0.13267575631087425
0.4365201419082041 0.21336127182553355 0.08675947819355656
0.39259553727762864 0.24959283364441376 0.17980011224081238
0.37578493113423406 0.33565345155125215 0.19400110209119248
0.5316370634038918 0.4438305038449073 0.11396103294563886
-0.22481968718062717 0.2660284340085468 0.4289441033313892
0.6565031365040284 0.008487327021740043 0.054493518688957465
0.7041089763757213 0.11817816901805145 0.16223574138930985
-0.10835750357239249 0.3264373622660628 0.4049288457175919
0.4127786885375997 0.2968546357757873 0.21622501912293046
0.4275982449196931 0.11650263120907312 0.13804959919204407
0.41166173770135117 0.2780004030024372 0.18478680702219208
0.38038566912676686 0.31249564164578203 0.2142442006455667
0.26669906455572345 0.4043507483898736 0.3667783798968429
0.3497090096808222 0.3183923376635249 0.21919456111524482
0.47519247369956474 0.12221406007141411 0.03603765945000248
0.34438709566742887 0.2649171591165498 0.15578961149023485
0.3349683365530609 0.27566618667503917 0.23300747617366824
0.3725364159589617 0.2885435873415645 0.1426236314368623
0.3710840309108505 0.2601829332322012 0.20168497241033378
0.41043454497389575 0.23863262575825672 0.20362503591238124
0.38915000529652843 0.21874690762146543 0.11696626087467621
0.38870327762998613 0.2471156590085286 0.1545787152491016
0.499300956549078 0.07330591109366935 -0.008230993353322447
0.40844326156252464 0.2708551287487069 0.14176587724784895
0.3996370145333117 0.23290680720084822 0.17580596042105867
0.3808275703096342 0.24575368150829036 0.13771357361227388
0.38357191242940303 0.2957068574300621 0.21431930038126268
0.35971602516994494 0.3722343484312063 0.25823183168012065
0.3819856882331578 0.24543141798510248 0.10725858388960319
0.3737517583351462 0.25495465983200916 0.15565385601628634
-0.11541857022680801 0.3014281397499019 0.34640732173357947
0.35503629321837593 0.3031438910877995 0.17707096018143886
0.50602800737758 0.15276420313793437 0.13644198833861765
0.4133823331500679 0.21625185446004025 0.1387034957910771
-0.11313481256769364 0.3267335265007745 0.3378917715394607
0.41458091720008383 0.23971128120822982 0.15588234638178733
0.815805816568286 0.09345893589502907 0.21911437513094256
-0.161665919973899 0.3067529603318633 0.36415350046843287
0.3916324090926082 0.25985070136202637 0.17295364822385295
-0.09782528022861925 0.33940546499461277 0.28814087697796253
-0.17314077074922807 0.3299341720424991 0.3486211699030406
0.20485528862397473 0.37755401844495395 0.171977008512755
0.3779098158961176 0.2669372673029784 0.17079607628829763
0.44937303936137596 0.12724193302911146 0.05828119083201955
0.3995027881097428 0.26472330362612695 0.1436764091370435
-0.12293695037425323 0.34319392446010966 0.33739454550735104
0.33334688883476815 0.2641826002993355 0.22364299011363187
0.3337011161100918 0.2591453570068438 0.15491767079302576
-0.06578964903101792 0.32266010375715837 0.24890745498460376
-0.168963460968925 0.28059341769863977 0.4045851742054083
-0.14560094645190702 0.3162297967607657 0.4392474020122279
-0.1259822962519337 0.35951169936936367 0.26303315627896495
0.04468647980567653 0.2855874868697441 0.29409097019387787
-0.25290366524126284 0.23559056472925022 0.426544354497878
0.3409792471270805 0.2891493146960329 0.2100786223946045
0.4228719609002667 0.2212580071884247 0.16736518846406057
0.386679636299732 0.3055678416864396 0.18782727049554637
0.31348248499281794 0.3477015585861096 0.23341477812439848
-0.08302281321563498 0.34759215542916877 0.40158813522506875
0.531859690881646 0.12980108529939116 -0.012086935910758712
-0.21766619577536517 0.24942304992319464 0.45931841008214747
0.3453573837540773 0.24101832482681118 0.10241887813369033
-0.10192578742083924 0.35200865974539397 0.3522002518324143
0.057640896956570487 0.3309524984524046 0.2619985181510174
-0.15735949876024335 0.22001048058581318 0.26260648173487766
0.33552682203918494 0.2169739020697108 0.12446668973129249
0.3812626713391438 0.4170959398783367 0.2399738196776724
-0.10027495318831825 0.36148010084851023 0.3148443252968889
0.4115577221426605 0.19733072117520578 0.15877192091397774
-0.38867285059158974 0.34054241105363303 0.6957193757217794
0.39800265589977357 0.1368186053726106 0.0063658186554391705
-0.04974138814264961 0.34684757078630923 0.2838057141346155
0.4809965023598295 0.20151553660817 0.14122035982072134
0.557062021783338 0.07114385696930015 0.334300668044591
0.4085639899759599 0.22966798757667561 0.21560132316959368
0.4259478114486228 0.3640833786676154 0.1762419123179484
-0.1653364959696404 0.35183339493173094 0.32156115906795435
0.39526308378123076 0.28015544115493185 0.13234343408473137
0.0018378358164881092 0.37312462072641495 0.2796826287742249
0.36456697009759864 -0.03787006876930832 -0.28198549389811944
0.36637872439519015 0.27319688774608153 0.19535338157061233
0.35167655639332907 0.24609439806140188 0.11570073845510365
0.3560450999389104 0.2835316957591516 0.20246983802272212
0.3403654402240761 0.2210271614427768 0.24623775040549845
0.5014561081118245 0.2594037300325027 0.17892063842997175
0.3931989020527169 0.2366891727002951 0.154661073960483
0.43267883976997723 0.19222307334518973 0.07840696228927868
0.8014778996899423 0.3364458230888374 0.4235931291249244
0.39572260327571485 0.25793416314839135 0.13230153526865251
0.2633122080326018 0.40923358655913944 0.18538105872339372
-0.1314583478517477 0.3305061788663295 0.37897336149717376
0.4039868279552934 0.19574693886789873 0.16244309974322846
0.33167295197017665 0.29122717516558794 0.26247777414884865
0.31215253936943554 0.3107484132278131 0.13132882055052164
0.33988118699912206 0.2547663108296945 0.1432371078789174
0.3140025593143605 0.1911953242835125 0.12990769191526397
0.37316437553619153 0.2572675232129882 0.1601241508159319
0.29030320680685406 0.23569916335904395 0.020640132695774582
0.4289001445590941 0.08259290681819209 0.00034265589216886383
-0.10422508448453982 0.35612712640320865 0.33440786544512946
-0.10659986312870728 0.35907724227654114 0.3120088684528355
-0.16818944397148528 0.3875550576401565 0.42729793539285765
-0.18265592734789493 0.2843956727319892 0.3592041733633664
0.3880184334115171 0.2183038571159699 0.1285966079737335
-0.2677484347010619 0.3391296119824432 0.4787549824063859
-0.17138973413977965 0.3282296064284509 0.41693096595929546
0.16638890473198842 0.25679701300182955 0.13997300457489814
0.41742826052973214 0.20415550942888672 0.11782372706036881
0.34845535000540906 0.12673523411112342 -0.009946827216495535
0.3532513375999713 0.25077864629682267 0.14379179485081295
0.37575273351444594 0.23184975027440657 0.18564141156412006
-0.15990909050540836 0.32914332626191367 0.34221328902751225
-0.14740525608999633 0.3401277061306871 0.37376341529662227
0.04166032426192601 0.3395602829721156 0.2837220224290746
0.456325254829423 0.35684445129317055 0.2377107194536734
0.6085590987922274 -0.5071723303754254 0.3011364693009426
0.3605608321091722 0.302470229918697 0.17975754868307092
0.4078921686235475 0.3200834154535386 0.21689654928101731
0.34952965418655424 0.26266853741331886 0.1506331736186013
-0.10878180029476425 0.32796032180161205 0.3553127545147987
0.33998380472829126 0.1395165449147555 0.025053654032092254
0.2883687140470528 0.29388609794173703 0.28525115390579003
0.44608832676604493 0.22464111698693046 0.039360069030820455
0.426997067110932 0.2543946416163294 0.12399122149410857
0.3213682048284596 0.3445550398348729 0.1929579898837801
0.16153312492352256 0.30980633534866797 0.3976779077868855
-0.45096643661283053 0.5108964286453102 0.1769012390503235
-0.13945316244758033 0.3037674310654097 0.43548694107803954
-0.11748216063631389 0.3153895358183689 0.31842339171441836
0.42257229216771464 0.2638391207384245 0.19767385768263068
0.5100756375365592 0.3070265602094082 0.09112612002840592
0.37504726538041666 0.3290922472196627 0.20022676107812742
-0.17774817951367083 0.2299361162955904 0.46554104690659415
0.4638803397477318 0.2391497993560847 0.21012662356568512
0.3504524168047851 0.2811867256717733 0.10722910358177273
0.3787487197964907 0.25589287266423355 0.16478305463036236
-0.09853231273473284 0.34184548490640054 0.2730425786116939
0.6145138946895372 -0.5097100905007892 0.2958940209302625
0.4672385620259263 0.6360646347525858 0.2174829249427006
0.35255051815552463 0.3104003225554095 0.16380747161699105
0.401511869081844 0.2288103750723849 0.15397928349648282
0.4014881597777844 0.3260726722768652 0.2234910175557161
0.3532094804865267 0.03529205052245743 0.021305938910501254
-0.19291977243190672 0.27323822964302735 0.5146979959674525
0.4192309688692859 0.1997762992805434 0.0807211978537623
0.3564709233724841 0.30217585204476904 0.19220847686352727
-0.21584355742125183 0.29075977372433215 0.564360409752851
-0.10517615807327729 0.359633473303262 0.2919069527355447
0.40652580757441115 0.3083860677594714 0.2766736707037296
0.4246309212545185 0.21210324876852837 0.1785138040675207
0.39202260002753064 0.17675273190999974 0.054786879400623434
-0.10539611448119501 0.3282726727861558 0.36297852722698565
0.42126664240853984 0.25095702029831557 0.18628455613998085
0.4042425850742575 0.23070200617912917 0.16505266854335332
0.3500454214868114 0.2666339012967285 0.16573573014596832
0.6064100556070287 -0.03336587290087323 0.7559576515061082
0.3334838836871086 0.19654563991400664 0.07441073427503397
0.30851880708297585 0.21705925879112442 -0.015126182937507338
0.39564786987912726 0.29353073866252544 0.18155611889670809
0.46092200377577797 0.11419320122207921 -0.03547937157088654
-0.18333491452743544 0.3473955974917544 0.364795836465845
-0.015663633072122707 0.3436243322717871 0.24891796628105567
0.3613423473881312 0.2698807564565584 0.2990793753451726
0.43985854149448755 0.13987995711684675 0.07116026716141732
0.37020158347959864 0.2792393972420655 0.15947601272596046
0.3789088581670228 0.27238426300701235 0.15358658325970964
0.4361099513762099 0.24210598224027535 0.2241538447654534
0.5966726317791995 0.21959368237823185 0.2379502228426702
0.3575969833411392 0.24108536692398275 0.1386776177359934
0.2984607253910667 0.28379966301228876 0.23482682200688032
-0.09606767201086086 0.3518600915147516 0.2979392381343331
-0.07181212986273522 0.33996915510638814 0.29572809900054153
0.34808083480638174 0.277640850656951 0.20328397581664603
0.40308655110671054 0.2527137545383198 0.1505648117497742
0.3753772145802543 0.31428688781647907 0.15984370071888065
0.29414496098533505 0.13427180980127673 0.24297577679598703
-0.15779287593375102 0.3022369223925523 0.4062423556424619
0.4670455246517804 0.053030178380595316 -0.04151653972715508
-0.11970156489843475 0.3537561633246753 0.3257656585445261
0.3619208414407922 0.24066279257876033 0.10660655818824694
0.4486374975071499 0.28879191787328296 0.2137495162771188
0.4596181035390572 0.22832485950578985 0.14110997229161626
0.3712274648251537 0.27466395150403855 0.15471858510417746
0.3540018371836311 0.29180292500578275 0.16708258632547768
-0.181269321647477 0.31522585175665085 0.41328504921003173
0.393403718952527 0.3038017652186369 0.20795322159787588
0.3810211432852668 0.2676577789575134 0.17907646476965056
-0.12764091004406453 0.35938008934977006 0.4198754666793576
0.04822920585618817 0.2761864904178992 0.33323105767576067
-0.255792960774869 0.303623106665583 0.5531019309064646
0.3393928870127354 0.3010485932377662 0.17162579076907036
0.33979798661593463 0.23772557988034748 0.15988973633028536
0.4188043843171556 0.244376623002438 0.2011753555308644
-0.14270614325607767 0.40016721228064966 0.29775312218237104
0.3219120647563898 0.3683036741209378 0.27560690850449987
0.023636440192149166 0.13925764626574733 0.11653471902410217
-0.10736170979498638 0.33931770170926256 0.1682257666135456
0.04310741473551616 0.36996666857777427 0.30572192405657006
-0.4116318683572615 0.3039768182369471 0.5226796157668048
0.372542644223941 0.18660293221522295 0.4300735648271683
0.3865393934477481 0.3119528026865055 0.21658155004737978
0.572052594874151 0.06394225568399747 -0.10077068340964956
0.3906304238525138 0.32881690432569144 0.19850218968400668
0.3347962708677983 0.33315332464141534 0.3414255512279283
0.3985527166714746 0.16267350814045756 0.07488852906699606
-0.42262762726163317 0.21812442452447556 -0.05957637096724966
0.5387258505635941 -0.054734978775258014 -0.020082335560815068
-0.17732636721670758 0.24183107789764335 0.5472896279900112
0.2580802062684313 0.29663169762385166 0.3332752831363166
0.46128278370564146 0.12055076624969274 0.008388888666388539
0.5062711584464097 0.06675899078786074 0.007531912151591769
-0.22661965677195894 0.3196728816542702 0.4396464244822056
-0.5367731487519336 0.5188939859223183 -0.16821555461220328
0.4564873023651046 0.46788417176128405 0.5273003702958761
-0.11749962317068707 0.3059692306135844 0.28201897052511526
0.40293302073035875 0.11261951969501638 0.10870404561177338
0.3810097596155799 0.22643988456079 0.17434839611645714
0.690842555514223 0.06449230417251783 0.12975930969514593
0.42861643584615194 0.21116071098602163 0.08149509821092238
0.4500319260643124 0.2554104793702834 0.1620296664484755
0.11865895795017423 0.12679097084787827 0.07085882043153902
0.3665691194557468 0.17764949363878202 0.11796518829657998
0.33145006123091036 0.25283492664163987 0.13645621301495225
0.4329397684694669 0.220998417696606 0.17284262081125235
0.2703683797126075 0.3687192302409983 0.17768984188201387
0.35767637721332335 0.20892812200688127 0.17557527568470732
-0.12102135581372409 0.2971426283618115 0.38016669747486276
0.3673841613907598 0.2980992697144558 0.17925358974787287
0.32318598066629534 0.361465687838745 0.09203357767722764
-0.09548566120074042 0.31086669160231395 0.36000829617387353
0.285751308600112 0.027112394893407554 0.20636949412796923
0.5213220266695089 0.1031506616569402 0.041096503796708816
0.3816541735079255 0.23864771714062272 0.1475493729527102
0.012493928645682217 0.36404079109021836 0.32054068392872637
0.3342717220222369 0.2737253918685809 0.19070914873690015
-0.16180602509082576 0.30692674515610463 0.3672463806205428
0.6326541578981448 -0.02187572658880299 0.2924807333346706
0.3047715320353319 0.31740323160462935 0.19476663161778163
0.4201831316700009 0.16612949386204434 0.07956425382565158
0.14835786204402268 0.35952324788286205 0.1373856891694345
-0.09261750547875636 0.3259216582540887 0.3659736673333214
0.41641063488887653 0.0829221816917709 -0.0010877655678456222
-0.0533378017436803 0.3568839424010122 0.29227468587878036
0.372281015958265 0.2912222216615703 0.305326836772295
0.6530008209554978 -0.4706352151492865 0.27337538996235367
-0.1779316349206539 0.2938212470267558 0.3745586365990903
0.38243071453513267 0.2380914693140852 0.16268527882942863
0.4112588928110199 0.19966979652218697 0.08281658459482344
-0.18723471911114586 0.34067559887323284 0.48332154512424097
0.3253499011401857 0.33147519190774233 0.1789876411664295
0.3899846477226845 0.24865537336741284 0.14938945467594067
0.6274261437994539 -0.4867640552633645 0.30904119974124455
0.3744355688476446 0.3014411733080067 0.22327987644459313
0.28980733622351806 0.37149558127134696 0.22684529027515055
0.35593783783684785 0.33746809154339985 0.2510479058101538
-0.0012823246605080385 0.29565828333950606 0.3008189694433554
0.5308259889446703 0.03587514979344064 0.00910134247442329
0.3376853803983124 0.2846483103683113 0.17990655587058768
0.31616104393926037 0.30371353272315105 0.18784020512335076
-0.10866114572098695 0.3373600563699881 0.40638696912382954
0.3424956936887611 0.23181430848899254 0.12973012105277348
0.35327954873680767 0.2944487178693862 0.19167049141728398
0.36121305037869433 0.30132198199498816 0.2252861757237099
0.27666802217027 0.32903451016053964 0.24189568054435995
0.26344388502792526 0.31316196725038026 0.10703398077438919
0.28175189019992786 0.31342137739625286 0.13023567217440757
0.3755023171047327 0.26685093705734175 0.15719357278879897
0.3985653770533588 0.21530599270880657 0.13524504607309495
-0.32564357317511394 0.3718457851560686 0.6006640746424097
0.33391068134882573 0.27796500056902573 0.168430238409627
0.36730083808771496 0.2697140703662342 0.1622638060268713
-0.18611330934773207 0.29908239393424196 0.4175645417431042
-0.047510891005899225 0.33380388856276966 0.2857984602297563
-0.08844722552157691 0.349113209861855 0.2653970055353625
0.4715142662507077 0.33517499794756134 0.10032737862580632
0.42179690833091854 0.23463043284759522 0.21315321225432626
0.31442146293474593 0.27159008826899367 0.18657442207323527
0.38716327409946416 0.27289716194287905 0.16359496654013128
0.4740654372375559 0.03968579627851909 0.011271188917078234
0.42565479520627036 0.2325251359717413 0.09841881028179955
0.36080913856173424 0.28546196644656163 0.1452764494097778
0.3705144851602711 0.29991546262836266 0.1795049777366131
-0.12886257782393784 0.31874483867898107 0.35129167803593475
0.3788409312784182 0.3028242092514688 0.20143361257373726
0.44596084514385836 0.0875789933263178 0.21597781697084883
0.43223293964007325 0.18130457908912945 0.10799140700203225
0.3404418137089351 0.29119592077805123 0.14640249319288046
0.3755109655766944 0.306207490903347 0.1710496163415769
0.5712420149116042 0.19510917445043674 0.0864889204922008
0.4281546531572076 0.2175540356691954 0.10281381873033979
0.2689690041824804 0.2663291458821391 0.0908355116731201
0.41509479059178034 0.25248092165426783 0.16226035139038686
0.3788126612797953 0.25182505302788627 0.18340705473724483
-0.1124647495301474 0.33973509969617055 0.32588430683497904
0.43651089258128195 0.17836862042017287 0.12612237078425892
0.24365727690189942 0.30425140673361284 0.25098230166838675
0.38210789247776233 0.25555185225337596 0.1391801947253697
0.40132522547520466 0.25581274726486924 0.16204427544580824
0.3772025008606761 0.27312503376978725 0.14775327886042078
-0.17286045962941898 0.3102442254168807 0.43878211333442607
0.41748857730023303 0.13705744035077316 0.003376656442867443
0.37988866438061564 0.2632621202061216 0.17107400420115937
0.6070293626254966 -0.020035573341544932 0.008336613993520814
0.34756666187699636 0.28367460390096255 0.21646519055047975
-0.1115722672673769 0.3195406687372184 0.36919907425382803
0.261444251802601 0.4347282548125122 0.42563369794936534
0.37915171568604933 0.2271846378770448 0.18232716202113863
0.35038689259488365 0.2513474957925723 0.1218147870131645
0.3985515453646542 0.2628478018340843 0.24566842421117485
0.3629775376202389 0.2569180518325709 0.14401314556477018
-0.12080587660781816 0.24677084581014697 0.38184875137235963
0.4281207208955209 0.16139721232755733 0.11377094048327763
-0.08058820482875717 0.2765068854229753 0.33210308795180765
0.47020718771469205 0.36392022779689626 0.3567769860898977
-0.12262878495610607 0.29378506558441586 0.4224010492160346
-0.09128852652850128 0.2920499806675849 0.558813783176717
0.36031390043460476 0.3545681355198269 0.21532451187965762
0.36429290847894436 0.31791704519790187 0.19451925844202833
0.34163170992808034 0.2747678175503552 0.15724642402972222
0.40561042491904686 0.1582937063713814 0.08705916561140725
0.24443102680037043 0.34340860274591023 0.09693125219004628
0.612772672599931 -0.49681442573682943 0.3039124411457266
-0.18466444677517302 0.3098478739737516 0.41268027079480873
0.38175447575657984 0.26756931980631293 0.17230265165058256
0.010454596592438747 0.35715122474464067 0.2728578602427376
0.40225710546928894 0.2601171542914784 0.16384774233235078
0.39374170556314425 0.2564317586907521 0.2003072235655452
0.30508703937996984 0.1568548705885746 0.057633107583413334
0.4481168560185722 0.23145525974035763 0.1464033815863388
-0.17106610263675748 0.3378530695086255 0.3217081222834963
0.3940628440422955 0.2252550675371623 0.13679194633529335
-0.1129043617281269 0.3448415884812164 0.40925788928413454
-0.15822708031274146 0.25747852055360454 0.38769309775194927
0.3418879439013125 0.3204012577148063 0.1909709223384226
0.4202312594376849 0.25449942965218497 0.12496077671102057
0.4117697046316664 0.1287486611334856 -0.11101841449369942
0.4326761454655923 0.21671652049599288 0.1668662870110893
0.3703575866833262 0.3150555802971269 0.20505263913834426
0.35724366208134484 0.23655603861600127 0.18541603490018588
0.4192518703210055 0.2159048814203146 0.12857853458470458
-0.15887173294319723 0.2800757985411053 0.4799027543015768
-0.18152245138270473 0.28942142273625393 0.294286323134898
0.25114017501735475 0.33970121916399876 0.44422515067770973
0.3738033248901189 0.2720550349365283 0.14840764486424973
0.5011694362666503 0.14988179664993595 0.03186602047168208
-0.09989122302434339 0.3563182998705656 0.3785231879303268
0.2411959704659381 0.3191257662952012 0.31501440811834414
0.3807263401543679 0.2735583898098355 0.21511001716170597
0.3575818025302624 0.2852361726590118 0.1593396308266648
-0.16417541472667097 0.2946908080723034 0.411153534986596
0.33358197842974846 0.3260163160497598 0.22448512439294177
-0.10292754318426489 0.3396228560571757 0.331437743496366
-0.13293293066972467 0.3503854253534513 0.2618458153360166
0.39218092027883245 0.2581052457692721 0.16824825059862292
0.676852432877709 -0.40452150352278693 0.26947388400931516
-0.10853741018971164 0.24669821593614927 0.41814204453007164
0.4251608421979398 0.23545070136526647 0.19942242434828472
0.4195122318883193 0.2261505616282733 0.1448161013812097
-0.12101267764330714 0.29603815628532004 0.35158031701038794
0.42783672965593667 0.16952409356296982 0.055352837012037526
0.38351067111470627 0.23368198279368357 0.1418358122487291
-0.12530495387167662 0.3235046166160771 0.36714442510907475
0.3263002273927498 0.3043456179673001 0.209177223749208
0.6773626830110118 -0.18369127618990433 0.31246561097250947
0.4763105720928422 0.043726536829780116 -0.0932626695151697
0.35144338687202037 0.25202751835035997 0.12144182943757187
0.5346600539348856 0.07267179679874403 0.022316629030399326
-2.1912626465020253 0.851559733494355 -1.8189698715047484
-0.14626364550031212 0.3403134426878154 0.40952018190685635
0.3959766479489275 0.1588323183227942 0.15648843426104975
0.2908304677451383 0.38606729320807176 0.18096976675519727
0.3769643184518543 0.2671031633766745 0.163458411113254
0.37641754696910823 0.26416258691813255 0.16752156117530603
0.38941212097523703 0.25652248286954205 0.16464764309495195
0.17929026231712442 0.3914663367025639 0.2758204346404085
0.36773164190304897 0.18645465645892045 0.1265662573645443
0.5339893815815628 -0.6753556298653223 0.35531501581455416
0.5952939148793917 0.10564560369779485 0.1778476103333162
-0.10905693562048668 0.3178976336165533 0.3493371557279943
-0.14390496764781346 0.3247009266033274 0.34503063067433004
0.35042016068638304 0.2514998185081936 0.214924928074268
0.2076500793988174 0.383426184514434 0.07275082191182491
0.34028937724994535 0.2933024130377362 0.15647976991482437
-0.1786318003265137 0.3086189347231283 0.47409340290136015
0.41349351266478607 0.1944915705288679 0.14132858755461086
0.3491395017012451 0.26315105567013575 0.14358075591934494
-0.2084090218511534 0.2873552645611994 0.4601716240120908
0.35876300056713717 0.2924470582568972 0.1649729621125573
-0.1770824146817631 0.32154470840961835 0.45219427260565226
-0.10802979751687758 0.29998652990842345 0.23530795900413182
-0.10313452802078871 0.3182645525371015 0.3797321264870561
0.32159155674702333 0.22770708788632987 0.10226829580204821
0.36403408678501137 0.2911544409382003 0.21617278888891178
-0.05250629981097177 0.21087289982753532 0.517112878378498
0.6272910761844059 -0.44664821066486127 0.3305543825144497
-0.09824892441156408 0.3381134980314897 0.2686201072001211
0.21925039467969043 0.38984554797868043 0.337359217403872
0.8578884283302415 0.5075064776686702 0.31967372335239475
0.38367748821180214 0.23531188836071237 0.14006458466053573
0.22952854793149413 0.14090618780419106 0.29611837237285954
0.4523703916646298 0.15874023904444812 0.10579077831869199
0.2853104416846577 0.3018762590738362 0.19733493189396256
0.3340177646930158 0.28842483416622144 0.24717072531248618
0.4097226849250717 0.28892096983250326 0.3390553442780231
0.13808633842504037 0.3200262810831447 0.15239079428104674
0.3805866170166041 0.2641381601586801 0.1510233690669054
0.2827092538222331 0.27984085927869273 0.197604990414618
0.3930170194629312 0.15662531412363023 0.1537850930725142
-0.19363668487631003 0.2472986365149552 0.43210938312984126
0.35843170737575747 0.22561422359068217 0.1931529249599464
0.35498965191257525 0.35076298753217827 0.30108978051291047
-0.13315326420811857 0.26698594648951257 0.41895835084339694
-0.12751887436496645 0.33130097126669966 0.35114148148514346
-0.12421031251309955 0.29953978849238183 0.3683087637351292
0.25037450082183454 0.3094331229329441 0.21900778188279446
0.37426411912449 0.2994630118866439 0.19430138986828638
0.3699192704718399 0.2567191005775413 0.16030891409505443
0.3953526163381298 0.26866929916937465 0.18857451873709863
0.36399350342159664 0.24967854089865682 0.13792396852227284
0.4300983944068122 0.1997532369427688 0.1481626906107465
0.339353079942299 0.29058100032094103 0.1602406031712178
0.3774657351865045 0.26905004648250497 0.14349651997514457
-0.20438909190366417 0.3274345769880682 0.3695131233206439
-0.18610865451739755 0.2982591565065036 0.45795137573298916
0.3686221701107115 0.3198349317081295 0.18588626407215258
-0.10955580812179733 0.32049622433916625 0.3479170024657918
0.3999839375326246 0.2563583072288793 0.15335874270323302
-0.10770517399683399 0.30789269878019354 0.5404666242605742
0.0017487453186646462 0.3033243007615454 0.30159054511517525
0.3463188639519217 0.30196524388264834 0.14851665136990277
0.38775253568479684 0.23297332636931856 0.17344442421881467
0.3713410387609457 0.22442570672103557 0.07597522702027959
-0.1093316816919696 0.32168587894949496 0.32469239133163796
0.3868977324876255 0.31047412364685556 0.2267976207553204
-0.06106736453959627 0.39409689496812916 0.30306258776748507
0.3466243718985993 0.24239643335248218 0.11985959456868045
0.38957035035066667 0.2234027544289745 0.1613277162837079
0.33982584771318614 -0.1942552970781577 0.4781084433798526
0.4733571325465391 0.23079220400809675 0.1540443209821376
0.3946548007936457 0.2520632919988799 0.18343418252982246
0.6680725495680093 0.052289709073590984 0.09257291868976836
0.3496558556609415 0.28651647393776614 0.21861199773312023
0.4105695219881369 0.17870862164141954 0.13665633264761823
-0.02980911827411603 0.3236086139111052 0.29355400028623535
0.7797446012867795 0.2744372974923408 0.34161455042563205
-0.07785014916169075 0.4133187001995111 0.34671116341985453
0.37452099154762664 0.2774645643309981 0.20966218386919877
0.353663175813665 0.27187790363305453 0.15103269775786998
0.38753900803151 0.1545764097915594 0.04077729039428846
0.410423826896988 0.1498047208195885 0.06365543467597945
-0.3096040443783039 0.26470362190059404 0.5911807053327323
-0.3437987864885912 0.3055911895164485 0.542203671693045
-0.13460414638790041 0.39046452709995094 0.25551644389219064
0.408952871346969 0.27886085747888956 0.16192378870366042
0.3914789620796455 0.24593973181679019 0.15284394593106754
-0.11579003157065415 0.34632547493430366 0.35884086139814997
0.3965866540629719 0.2696905113411674 0.2920987260648502
0.3753884881179772 0.10302178390517724 -0.02078621180578466
-0.09843575248061143 0.40393968201442476 0.3333012411835057
0.28955208038696867 0.24878570197742533 0.1633792158941958
0.39949172801031807 0.2588608006790878 0.17473750111008712
0.3669834037115436 0.3488876234442557 0.225863712535741
0.33377354610088616 0.377565550667029 0.28416614284951436
0.5894013557340543 -0.33458205274118313 0.314173399951045
-0.1261490613146492 0.3196675340379329 0.3460932031686781
0.37672050063532936 0.5447980259171317 0.505358553364772
0.39723745001963096 0.17364202053423128 0.0602544049829703
0.40749598236000395 0.22014120601104992 0.18554590765198498
0.6264057172730446 0.03896271985163935 0.027458839344475905
0.3583839558178994 0.26618000146171994 0.17894392309480622
0.3667898082255334 0.2358809559713677 0.09926407635673229
0.45168420303133416 0.25601660519468794 0.0710726709505991
-0.1888333927262238 0.3359722709326718 0.2767632271891216
0.24385980689143594 0.2858894032802368 0.14698241171618065
-0.11600239261839818 0.27751297136683206 0.41709636931327054
0.6153143047361311 -0.5373856921990523 0.2901780258408593
0.4177483378918936 0.26650965138563265 0.17331012301977466
-0.11114329314253268 0.31682096687714534 0.33127164010377896
0.3288921441826176 0.29710101836701597 0.17245134018736508
0.35433986854152977 0.2110511239582138 0.11311219473162737
0.38108665840488243 0.24832118004533754 0.17241685857781874
0.44040158412425967 0.148375732986338 0.09627888649906424
-0.11594530418867066 0.32770134701327436 0.34512149169751183
0.3868973883001843 0.24880655715253397 0.16671818123384696
-0.18778306932372857 0.3657955578192116 0.31025806782201926
-0.1291136393068939 0.2815865947721363 0.39163990492397716
0.13730635490458099 0.31263487355387554 0.33049620221203213
-0.15664082755654363 0.2708885197633748 0.4650717143255463
0.35511065602545955 0.21425786244907385 0.10090521191037283
-0.08487713750187709 0.3856415119274885 0.3035032660415169
-0.13079869236710806 0.3564242968163569 0.38533246052482184
0.23454242612100984 0.34437790588761175 0.3097193337086992
0.8261603830136153 0.08662846493223242 0.17478452219991425
0.3110634349849022 0.2792803410201543 0.17762893216955433
-0.129108253326919 0.3236819174856862 0.37905013350410854
0.3240260356819533 0.2944248775586118 0.16547734035370354
0.47977820170031293 0.29804362839657017 0.1357539574242992
0.3083804443110978 0.26664377852614507 0.23721302898428576
-0.11868314714730843 0.33547677323069536 0.3680720548129557
0.33528226873886524 0.30145997328750695 0.18552338187512873
0.30744941956669436 0.274806464445561 0.1824271414094767
0.3138643906963807 0.22659434075100648 0.1705568494451768
-0.11248275770935834 0.3030772171637466 0.4198319873924845
0.40388668591867827 0.09822363907201748 0.060963555543025905
0.3548773181399554 0.18295473103087545 0.08520745418758224
-0.33338301006619986 0.31569831336165066 0.5487447895951192
-0.1461890434366495 0.3191296362513185 0.3067625341329574
-0.11019875655711076 0.32489002641349884 0.2579158424016157
-0.2172133549642581 0.2793896059160943 0.5319651407215957
-0.08421554213455806 0.3752412299379557 0.39674980948549887
0.4304333272278029 0.28202982108064134 0.2144109089915105
-0.1636572077420908 0.2291870986936999 0.4384271577220886
0.18163303707304124 0.35904767545248717 0.09644519016285358
0.549779331350905 0.054118348765143764 0.02599985291438145
0.3834152340006227 0.31227521250464463 0.15939273976482582
0.37991884625759553 0.26290635158508735 0.13650872079712428
0.5227943128932395 0.2207746374779589 -0.08004907697176122
0.3385789062697313 0.2737822899651121 0.11016546615283573
0.36074835423789864 0.2160319511778539 0.0022506211875850113
0.37910398187278815 0.2650724752543283 0.15378324673758925
-0.07431056626062116 0.3617363556605113 0.2834770329017431
0.2013539550852954 0.3861833667834844 0.42789643272840294
-0.1489865866085438 0.3272946300168229 0.40916279481140805
0.40250465508435695 0.30454267035320015 0.22032162406904376
0.27444485454381606 0.2327527703419605 0.07561147959026471
0.8007345506812271 0.6541532833260248 0.6020396085288837
0.0687553735332358 0.2980755843571359 0.2692449009882125
0.3687643248907335 0.21515498279867984 0.0750025565827599
0.36287447073480905 0.2963434272789698 0.14838496634280318
0.34075696673282607 0.31734461958401994 0.3326953107683721
-0.11094056119640072 0.31609033417331034 0.36359137189541
-0.32089462071982666 0.3427176767138178 0.558511471861749
0.3757656436287107 0.24221811477580957 0.2214620665109237
-0.3301545534363868 0.32568924914529873 0.5392809180251561
0.5987786763636791 -0.03167935718771275 0.03523256649356199
-0.1070061713031123 0.31698019816084866 0.3633379238335408
0.33119815651373585 0.3218249013213921 0.32902994336117786
0.41222227977853265 0.3582546825495285 0.11259095628274451
0.37772099876463017 0.28126051434207966 0.18034282751764863
0.3115107661713523 0.227704067075976 0.08721604369725355
0.4661638130627921 0.28578444743286013 0.2815206971984452
0.3909258166959546 0.252871601548847 0.1584335247101194
0.45240643029967487 0.11276574981766885 0.034802963523077324
0.45626724108795713 0.09106535970573759 0.10581934594782183
0.2957475012026691 0.311878486235571 0.16389560335761644
0.03131330683345368 0.4097044807379291 0.42147397641720374
-0.30325699124053074 0.2713693332672449 0.691530487769441
0.3447481874120655 0.1769257217937934 0.05055457657320517
0.431314521884957 0.22603315940551738 0.1543875466478113
0.5043683905119991 -0.018900196054758567 0.3312499845097392
-0.11980208722920338 0.36431912916651754 0.43658015630552427
-0.1028839196775948 0.35550174390414213 0.375531889131139
0.3543247643201113 0.33645373187715677 0.1904467501266538
0.23299606598268952 0.31411760994112115 0.264047635480523
0.33981686002181277 0.26142023229846245 0.1571741585806592
-0.10430976575020168 0.326710115998722 0.36527635455391305
0.43694093661306965 0.16714059410415416 0.13944843051581302
-0.11968133156662475 0.2993419513714173 0.3855269442606186
0.02854471448964091 0.31070366462164145 0.2903705881464873
0.3618692928943119 0.00610313010119512 -0.04503566013190152
0.2722222388054547 0.33523846688700587 0.13772849592197645
0.3349996778746913 0.2769187088857734 0.13998145112893212
0.38068973550048213 0.2745480283730046 0.19474816680593676
0.3584470210525126 0.2669391192320205 0.18819995172037807
-0.09286857057577436 0.2954308090612301 0.3227674522843955
0.45812812387418944 0.08196069073150625 -0.027512333383029386
-0.1955364939858555 0.35094569265311293 0.5557269576593455
0.3543100981505347 0.26731919652749525 0.19545678254019094
0.3240655358262785 0.23385929265963057 0.14232037183819557
0.07833158931421735 0.3408988663574348 0.25721926862209443
-0.15443461209515874 0.25290308768020964 0.474402819796893
0.6251555253369787 0.4094082606616496 0.32857250143173644
0.4008704877668947 0.240697204193566 0.1667516340337727
0.39560830840380845 0.23891831959616638 0.14968654794682834
-0.05448856295785731 0.37291941784431515 0.2549229515494744
0.375916150696213 0.15325398078985586 0.1960692480288344
0.5032754426152053 0.18951755958593708 0.050728183812225325
0.38400320532190335 0.2736496721722119 0.1656477420033866
0.3207998271043948 0.3145893957962471 0.21402943090176052
-0.3100634833042051 0.21244174883747746 0.6251186425835442
0.36951649176076273 0.2769547522663913 0.22859685131930974
-0.13122191638473168 0.40847855635982455 0.338118038150796
0.8581562566953238 0.003063607774635102 0.1816171507064297
0.5366947844829042 0.1058932783179074 -0.0410818020971675
0.39341005622227954 0.3181654958981426 0.22205411600154434
0.3657100392169781 0.25912582757737823 0.16060633424540072
0.42188026228382114 0.19090935861765956 0.14743046243023628
0.3766851284347723 0.1867642591266616 0.19060971497006562
-0.42188609869376137 0.2838899189134736 0.5322470563988873
0.38655410350267516 0.2530945789091845 0.15157007079113782
0.4643938733194517 0.1822303372896812 0.12089499773722423
0.10424747509256349 0.21560894813873688 0.25931280288949665
-0.19907171101556287 0.15459405987914465 0.3989061421926863
0.37081942507126087 0.2613748097065667 0.15616689825597518
0.41527510500216636 0.14069580318280828 0.10344613574818595
0.39194469658259834 0.20312439870031085 0.18120750941687902
0.3842759159917364 0.2895931594788834 0.16489438484633467
0.3792940171094159 0.2915416680831697 0.24817451686092795
0.37187708790284546 0.2561073401609235 0.24152029684830723
0.4576380894943384 0.2730841771368091 -0.16110196627860773
-0.15404657424346624 0.26030681217673646 0.37421071619718305
0.23608643535297347 0.413360724025182 -0.027941442048529552
0.4060042642576178 0.24836281321796605 0.20782228418036652
0.8014536183512178 0.11376712169303005 -0.0405170203949865
0.3665424464467151 0.3736969704508937 0.19859936316574078
0.37882738781050307 0.2545977871548928 0.07889839272479549
0.5642312859168328 0.24419700290744117 -0.013006791978995125
-0.12257166030356359 0.3203325678852593 0.3482384823410598
-0.053674796312719764 0.362183994538654 0.2597342336541999
-0.15232121031573342 0.3852078015560494 0.30880841037978257
0.3579534072391368 0.26560916367208165 0.16572828132424888
0.7061742769165278 0.4029361529930213 0.20769951887771754
0.5806786133594954 0.32796066399212975 0.3912265519965956
0.4482487638550907 0.2633194060137214 0.17538617816646251
0.4155090840467608 0.2201963583477209 0.16562619284744073
0.35228583420598625 0.2855852600623905 0.18026556210472222
0.41416862079108796 0.24059773367844173 0.15976465723045408
0.3853189855568644 0.29381527266099283 0.22500054086950172
0.08465909913603298 0.186113131947792 0.40451297849675427
0.3737349107103114 0.09501563829839199 0.168365047081096
0.3863539006851511 0.2471528566326242 0.19928469486873723
0.5653014965739231 0.04226632427148047 0.034438382674466084
0.3824490418800224 0.28306238208108425 0.15503516405883033
-0.0010925044017255914 0.40735145405724893 0.37186676262460594
-0.21029044530871488 0.37659877808278 0.5477476709963156
-0.16929692581149425 0.33560961892624164 0.36193163036486453
0.3815973756258586 0.25463863012336674 0.15659420328417184
-0.11167738609670153 0.3404870018501214 0.3375935151956355
0.39976615066302656 -0.05790750373374465 0.03269575777866862
0.39779057438654775 0.3161194615330629 0.241620893094165
-0.3122985583564173 0.34310708453539007 0.574310366070975
0.3231783862367763 0.2922716183194467 0.22062071998287536
-0.09119838089125665 0.38674641879012484 0.3607085373533607
0.49430135427425625 0.338276786799554 0.34940442253747506
0.4931174260823923 0.4642265376822081 0.4555222825845817
0.31360365076506014 0.4598053560879123 0.2150381239149226
0.34815666478650087 0.3397743533327713 0.17097670740500348
0.3805503060930562 0.2616311494563064 0.16199822289327415
0.39218103762624423 0.26507102095797563 0.20429223798808493
0.417215674461886 0.20334985750433532 0.15945805068120933
0.49552228997438874 0.10701026499251043 0.09560816284283646
0.4076997394861621 0.24822701608334796 0.15138760934667062
-0.1302083433768928 0.2791159923230566 0.3243786377145028
0.27183144045709184 0.3121722385007786 0.3029661310914662
0.5047883075339996 0.5664619284690531 0.4783023382719733
0.5540846778417858 0.3323135097141403 -0.03665248264982779
-0.09819737876472345 0.3226536907402249 0.3561293751205028
0.3884418993335146 0.2818089798018093 0.09879461174632809
0.2990373659578438 0.3227497741930563 0.1492157004248611
-0.1165166773105426 0.3675270526386214 0.3507339789946684
-0.3607530264270906 0.44296627722502535 0.4294300169192127
0.40184065771846633 0.12816336645201432 0.010006948676050342
-0.22189379799215203 0.3449600171751257 0.39101114494634714
0.40858193689049926 0.17247957442779693 0.14454044459534998
0.13501278816298168 -0.197693409417127 0.3249053358036349
0.350996467028736 0.22076291995267638 0.03794749223267502
0.32615321539250886 0.26074988195287574 0.11250803930403208
0.3881211929860058 0.26183146259074874 0.156342273094495
0.3599372346986627 0.2621625116219519 0.1252765118975816
0.3660879369519563 0.3099078852789887 0.20749966076292026
0.24187689010980762 0.4085010979506336 0.2409310579245414
-0.16415999883588483 0.3160192120721206 0.28841042606009637
0.4098338559256547 0.2486514552007293 0.17638831117307063
-0.11432107860156293 0.3293881976333637 0.349112897393411
-0.04440416676280279 0.4261480986817787 0.4608990305779912
-0.09897758686653901 0.3207037218408004 0.3282524121474353
0.39098565214959535 0.24346256701005586 0.15512593058582524
0.3216974702700668 0.1611158515581792 0.10126731640460207
-0.19000868716190666 0.32094326816132934 0.4249441046479774
0.4269531458404572 0.16573090016082404 0.12634924840226347
-0.19809662295912744 0.21317695331673292 0.40791456555677996
0.08857283130492988 0.3405939249320227 0.33086590479041433
0.4117359027508627 0.23335746578159444 0.1505093384977556
-0.13977116259694355 0.3484884399568102 0.30460319596734564
0.3678837070856531 0.2921157008371722 0.23421745388559145
0.3732776330500087 0.2951998281148178 0.23839272953587454
-0.42269843438616306 -0.16929625583532015 0.24698656147580778
0.4014228696400153 0.2634689312163516 0.16110123873590965
0.3732130079623204 0.2918442576536222 0.19751841497037503
-0.0967852129252833 0.34568379652532144 0.29809187088076783
0.39820719911602964 0.27797453392537363 0.16494808044592446
0.3804048759626255 0.27219825275548715 0.17732162802903417
0.3391683147089708 0.2839143263255153 0.21413048664162204
0.38671951063979293 0.3550928011050587 0.30699459742015733
0.40099583976925146 0.22159648238064733 0.14205023966270858
-0.14214790059304505 0.31451299627246954 0.3070270279982452
-0.12468863626233428 0.32857598402443955 0.34298414463086146
0.36830657526633104 0.32938440472945274 0.28636012253429044
-0.19469998691693036 0.2754743029176723 0.3801943837118529
0.439021529284247 0.24648114349476202 0.13189550139077255
0.38254295282600026 0.059612824521906305 0.030184701272602865
0.43709120691208625 0.23067557422081109 0.0985414046720905
0.3134693474183905 0.39527315548596675 0.20163867466933993
0.4587630338814961 0.18076299564677356 0.09870150507342146
-0.1723786754345582 0.3547437851530333 0.5274237563444899
0.33540940418055243 0.2070898411376163 0.1301222042146435
0.3431833331696197 0.3229705685576647 0.2965912320591997
0.3782710740934192 0.24132232633253636 0.11268173320171115
0.3076454427570354 0.334565505100727 0.1257807419127488
-0.18290967225073018 0.300049324411475 0.40853275346518103
0.4110173373416899 0.1971955173163309 0.12298576891873836
0.4246020076986099 0.2532987109107978 0.20615524723724832
0.711790501649034 0.32750691612920946 0.30499112724189104
0.4003684361032356 0.27502784483266396 0.10311706921891073
0.4500347322562561 0.26610721930401837 0.2372012105652459
0.2896933283952876 0.4432250809425824 0.39567731775278503
0.4102314576768151 0.2395888847323988 0.14372987368831502
-0.35109824414877266 0.5265237468735933 0.43069926806639103
0.4218171983245327 0.238602637095795 0.20279855347446585
0.40566295006689757 0.3213660014009463 0.14068684889397787
-0.17356748594383475 0.3517702892172707 0.2885104581279876
-0.12033044300599727 0.3261170232928947 0.26398065110936386
-0.16654982335893465 0.371754571661441 0.5434873489444954
0.4761634865836868 0.28101489869257534 0.13063871512781589
-0.10859683690318889 0.25979590899180494 0.35653977649377566
0.3234647872937728 0.26977090938720494 0.1926900851454718
0.5570754057494582 -0.04266130441297378 0.006796241793637137
-0.13805247988722158 0.2678400679572235 0.4690807887832875
0.5393634857401537 0.20560582195642496 0.23315190965423938
0.4299079801986352 0.23835856388573973 0.16002522518576257
0.4640524900150922 0.2655619706651464 0.22445438419376273
0.6249133388486428 -0.5398945785493083 0.2905944404342904
0.5080291179129404 0.33792301654852963 0.0742925221571511
-0.1339560266730473 0.34631924549343296 0.2991911710251287
-0.12270376456288545 0.31252437883686923 0.3639371393379065
0.3761487320872874 0.29917836461939373 0.23580682899594763
-0.16189520602463858 0.4111192484100741 0.3807572336485521
0.28260755016779626 0.38385073214082865 0.29238523208584866
-0.200176914029484 0.2980875478988594 0.35205982882436615
-0.21648467307731778 0.3207375149737146 0.419568404657781
-0.16636156818168502 0.3053994363876029 0.37415397683987806
0.32680334823356816 0.28734524487943247 0.12520929955228155
0.5777314760161261 0.0028405888937470536 -0.051823454301057836
0.3428430425612987 0.3110752021933081 0.25904679864106583
0.3826807985525136 0.2600412169853996 0.21930668361210337
0.39295712847957986 0.2347841458122133 0.12838588298555464
0.2809171538101367 0.22830205262144432 -0.05184202684112904
0.3237903523722423 0.3377232760886528 0.2104621555038193
0.3635777781320968 0.2669560832985951 0.18992437103909765
0.3424888863078195 0.21767110272081425 0.19059442112916258
0.4095072677843916 0.23204226740843126 0.19939401309433435
0.6100021436572263 -0.5212907348020792 0.3075248596729807
0.4053642595379472 0.20197139289545873 0.11443918764430805
-0.1522528151280369 0.2616537243755488 0.580601402317285
0.48282602944674125 0.2293156487046275 0.11968757208933312
0.37029587853209023 0.32629941411551044 0.18957576693409806
-0.3970560718237266 0.24027693538022277 0.7054213809461061
0.6851969882265792 0.30366174736951734 0.03620993203142575
0.458275744064224 0.2384235359294138 0.19104973762431143
-0.17379592773770014 0.2614598950314644 0.5398598686069676
0.41574692341040986 0.21312851747836703 0.14993325018065207
-0.10191619237248517 0.24475616468140515 0.6080700316224608
-0.49077347528066184 0.09865316019181591 0.24655820661430994
0.42358014503423647 0.23750668526515994 0.20832557691971942
0.38264998988884713 0.2322355668468532 0.1216640180787465
0.5970486241371589 0.1617887822125823 0.03185190053318365
-0.05368319029126667 0.32114296981245616 0.2535937312388228
0.3520400332248812 0.3631660437799411 0.2696649226849104
0.5031675012892549 -0.11107415185425396 -0.16755238190307864
-0.11997667484456542 0.3068718690748824 0.3425832772385604
0.423778481237747 0.22375691279432885 0.17407359718070836
0.26688093290235315 0.30821812003478044 0.16722013365847488
0.7940048523634005 0.3183453746865439 0.3604830922547677
-0.08096179709741591 0.35159925236226286 0.3092308150426817
-0.11567975884756265 0.3221904424976856 0.29971802822444715
-0.02389789733769021 0.3616650046160004 0.32604156598387135
0.38554071367994425 0.2416835991981543 0.1763183418347012
0.4552512009464067 0.20075721117120793 0.1508134441842941
0.37972921312035623 0.30485830934665614 0.21894598359844508
0.3846566613454314 0.2656896796600279 0.16440973126773883
0.34292668395258374 0.2336698516248532 0.1767284588860889
