# .PCD v0.7 - Point Cloud Data file format
VERSION .7
FIELDS x y z
SIZE 4 4 4 
TYPE F F F 
COUNT 1 1 1 
WIDTH 803
HEIGHT 1 
VIEWPOINT 0 0 0 1 0 0 0 
POINTS 803
DATA ascii 
0.6477631809908075 0.26724171242781836 -0.0884940532432239
0.4596583145665818 0.16641473198552603 -0.07700343752976835
0.5960180504878565 0.2686453227672274 -0.04443691154185103
0.5986313756846471 0.18083770292437862 -0.11217521084692805
0.6034893489848514 0.15784910556116927 -0.16520859810030686
0.5529928654479761 0.14430116088425393 -0.1284255499658542
0.5353034417246363 0.13054515266459532 -0.11850875400752159
0.6095600279900282 0.1539270763006897 -0.15987557748272252
0.4293688228254382 0.15166998739501025 -0.10421443238010397
0.5361052212571735 0.17758201973514076 -0.1410184221447821
0.5850780369652853 0.23342751360596026 -0.02726074479406293
0.5644029859078614 0.19868551185412286 -0.09655428175457814
0.504363131007409 0.1661154045810349 -0.03468641676246875
0.5504002175572964 0.16606577928719446 -0.0696704356865041
0.5617637822283257 0.15950256140661168 -0.11581247055723054
0.6007656019198464 0.17808268111190273 -0.1037359936094191
0.5476091691046179 0.17588367939181637 -0.011355207999969252
0.43751142074555105 0.1584371845410999 -0.06827953199498893
0.5754132729427681 0.16777702606918865 -0.11283220715931463
0.5618688798249991 0.1558839210018732 -0.10879326211515661
0.5075579035485873 0.20793788307169336 -0.040405874092826366
0.5753806492815556 0.19040439976579648 -0.12201050108865275
0.6701703165705624 0.20690824675331498 -0.07706831641544909
0.592834753950001 0.23285400333693929 -0.06263154126098414
0.5493349095218036 0.15442877035427216 -0.11621927294220313
0.5667290787718002 0.15199477270050465 -0.1303200513475673
0.4984970280126504 0.18206769946581858 -0.09146017804248174
0.4966959607658339 0.16219213920143716 -0.06972723472267717
0.5430033316261529 0.10053272942015212 -0.20762218001709698
0.542586411352147 0.14148153326857482 -0.15271281049736274
0.485495685652495 0.20280382159448607 -0.11845891317751978
0.5363117543750207 0.20797075518594 -0.0694442642281814
0.41366120287247554 0.08117825822769476 -0.06517098577036506
0.5937991000004388 0.16043699258635513 -0.12248560309572554
0.5052561527493253 0.1496258405104527 -0.09951823363277867
0.6456966976570016 0.14646737236837737 -0.12065139767759092
0.5385859471157062 0.17541977098395023 -0.09313071897089742
0.5792722408965858 0.23654193634115472 -0.0887593501360584
0.5921693984304284 0.14655680188390363 -0.11253631275755538
0.5230354923152163 0.19013080160385698 -0.06829710035702874
0.5337488762586702 0.09611464236277811 -0.21018848915345245
0.28467881878000867 0.3707273597636629 -0.07267496217616554
0.6674056193364777 0.07384791107871536 -0.23135677204086846
0.5779672458155005 0.15753540282524625 -0.1989124222887284
0.5333794050078495 0.17830381176743515 -0.08305306928301093
0.6722960932075068 0.2246410196316475 -0.11578736509129328
0.5620253652698182 0.18976983769397293 -0.1033440233077556
0.5111396190302457 0.10335492944282976 -0.150323321432694
0.6035223522981994 0.21405379398369462 -0.09572570505396527
0.5587224435706446 0.19228405675843874 0.02876227188706082
0.2650778294841132 0.0611413353434358 -0.18229041169138327
0.5644458833504871 0.1568553420389378 -0.1263915887673761
0.5344981312355515 0.09518799443513615 -0.1249792625542483
0.5138622152122423 0.15081273245030502 -0.09446785064901064
0.5070179224558728 0.12236263771602296 -0.14601291308774478
0.5693621879671298 0.18851833640432858 -0.08470820278479607
0.6003152151414497 0.2236237601584179 -0.037391856778228316
0.537415446055661 0.16609926991066004 -0.10797932185143111
0.5731518619419376 0.1645121398776297 -0.12090742635770368
0.532103237800527 0.15845570427656241 -0.10849637912147614
0.6207810647787255 0.24727552744235481 -0.10568931440916174
0.41104522208087246 0.14508685759790296 -0.08571231135880453
0.579368895778515 0.19712002740817525 -0.103324448982832
0.5957983979936898 0.14362215627002684 -0.07658496374048696
1.1154156225117333 -0.00934918837462817 -1.1537128603852125
0.5419234246323015 0.1703751053681941 -0.11967415978791962
0.48378111676441904 0.17436177229436112 -0.14426277728910009
0.3943789211244564 0.07015196903569176 -0.13398366536901563
0.5492536184181631 0.2059924290445423 -0.03275316473798284
0.5523644025783483 0.16022898682199127 -0.09657910260148128
0.7287169764254884 0.2284682420039701 -0.13236324389244203
0.5069998352764173 0.09971309347932333 -0.1719536793897447
0.46484504315682784 0.07180290595617578 -0.07233014767517432
0.5474984786044388 0.13719298717988693 -0.12472025962814826
0.5595591668119937 0.15611300546194684 -0.13974257756474628
0.5699977000986962 0.16229158451325532 -0.194528451454147
0.5988838945612542 0.14102216696797143 -0.174230501259089
0.4793936793072362 0.15219439505727905 -0.10700143871602563
0.4760182979819092 0.11587222298075517 -0.0012878157592126627
0.6358583153443362 0.2230865751521094 -0.14965463357351894
0.537359173557661 0.12267493350658754 -0.1395191531004656
0.5391455872099868 0.1513153187580798 -0.11570028907851793
0.6757597429159432 0.26646786480444007 -0.032339862121176566
0.5090140741774292 0.11708461363852507 -0.11247963997477939
0.5384543283584549 0.09598432054036721 -0.16238667770313953
0.5979417917770604 0.1226291429120181 -0.17414715765455924
0.5835457058501561 0.14495170800937274 -0.21169582372709783
0.5549537030952081 0.12783757319638767 -0.148913488262977
0.6394358249987704 0.08216665881485596 -0.16185941841020224
0.5760491898755333 0.170754346053954 -0.11201603562898299
0.5564588897268266 0.12098962141345737 -0.10302683981787197
0.6810041976992238 0.169878623772604 -0.11684024145357341
0.5050137901570793 0.1589845123630056 -0.10117045124276558
0.6049402268124027 0.1343822743198615 -0.16298158447803246
0.5901666943489943 0.17012220278623147 -0.09487182236388492
0.5685262952625578 0.16234148576346286 -0.10114149387301552
0.484144847356788 0.18627661363802872 -0.17222083276473654
0.6104561818810907 0.16866999558591544 -0.14738473216945636
0.5905927359643783 -0.08489172280611967 -0.36512543694560406
0.5840320333255136 0.14754114075748248 -0.13253044329022146
0.5423737151718342 0.21216985464259608 -0.08773049256733145
0.5340960995695241 0.16335568648854348 -0.08580308081650401
0.5495376537684251 0.17049201889682308 -0.13487222072231475
0.5660479126163978 0.20561160355258323 -0.07123670792087466
0.5111977270903765 0.11405999133218359 -0.17053842129556074
0.5741606247116522 0.1748015325337633 -0.11898984489657494
0.5510804661850273 0.1370691631384915 -0.12174203937992445
0.49805057650129925 0.1629448656172343 -0.0684528805315523
0.5999558565782763 0.1759957985253351 -0.09331962466252719
0.5426550575100748 0.15205961272612 -0.12885411499344457
0.561062496209189 0.1747677118255524 -0.10800192764929761
0.5164185905584588 0.22977515959674122 -0.011692312775423375
0.5670401870763726 0.13198580485983769 -0.14511223578372778
0.5844916832182037 0.21104707001364886 -0.12866383325427933
0.5201173868345279 0.14677756700784528 -0.15479944802096668
0.5220329599943625 0.16021577788619368 -0.0826952918915822
0.5145751074963982 0.18231526578830426 -0.07155030786792338
0.423254152828747 0.16695621671364336 -0.10141761690856299
0.39449144653499957 0.09053116110594317 -0.10116463097195094
0.5807100626107058 0.21854584804222554 -0.08233671168395063
0.5585885228087761 0.22339888641081984 -0.019661104610520397
0.545063464009246 0.1765964386004839 -0.09414061779636995
0.5621980469763628 0.17935150296331415 -0.11097543731355586
0.5728162025064023 0.1648807495475637 -0.0857132708848809
0.5454721959085305 0.18540259544434434 -0.06911036680645566
0.699103614879192 0.18583263263788297 -0.13675248089022318
0.5742629044892453 0.2096747847328544 -0.1195244088880969
0.4669438802047239 0.1454195150605102 -0.10050338340285236
0.5278811674714063 0.14538665006651286 -0.11904266672931385
0.5999463891193386 0.1209824773619772 -0.20417327311695033
0.6098848840136668 0.1717405547851314 -0.11931656946370595
0.6136335309385572 0.19054289238027877 -0.10856618985212663
0.5357648398264416 0.1839790209302805 -0.08627996988123243
0.5135198661731408 0.14810252199862362 -0.146358395549413
0.5718314634056014 0.1868189734400687 -0.12320163951498841
0.5428247880661843 0.17340813319442816 -0.08082397693465282
0.5915278246319815 0.11885927108737349 -0.2002732341364606
0.48430484278969743 0.16519697996716332 -0.14365562580853464
0.6051733979500398 0.15877205915784032 -0.17331610349127402
0.44505560764906704 0.27165097501286084 -0.052040082498166385
0.5625452466791216 0.1659555842704208 -0.1423989255563214
0.6917177421176177 -0.0375467940638714 -0.20869907773364105
0.5606623060553488 0.16588354843044328 -0.12276055269762765
0.5296827723595072 0.17052966527189994 -0.08658254983023994
0.48198963027101627 0.05099574951907471 -0.15172022634527593
0.575420370210594 0.17860104645325237 -0.11359963675202778
0.6001246000032836 0.16496470796457174 -0.14483049217102462
0.5720054391816518 0.09933799684634437 -0.17863581191981837
0.6792928931790527 0.09567956033004066 -0.155223910961098
0.5418832481811648 0.1680674081702591 -0.10919065166439168
0.5827544266365408 0.2098741414737333 -0.06663954523702387
0.624945773490964 0.1965048521073811 -0.17286735452867674
0.5612497424189655 0.0733911515583543 -0.2058102735121281
0.6447125635003488 0.20307177825917222 -0.11581124310899327
0.5112801158790319 0.13364493084610274 -0.12376942807578928
0.5520854953040839 0.182982054464901 -0.0856381660399137
0.5468001418762753 0.1593071531168988 -0.08215605844178242
0.5818087775795675 0.2022472370487094 -0.09041247708465505
0.48654606663922095 0.16652098152397343 -0.010037514921194202
0.551571909270109 0.159038968809611 -0.11937121957286934
0.6698627287602221 0.18509449001375344 -0.11444490573532562
0.6162323938901864 0.1467326196493417 -0.17520696763376975
0.48266229479159506 0.13708195912460042 -0.10356435009455822
0.6120214178091885 0.2380545062883499 -0.1580756612925569
0.49469035340752043 0.14831358059140598 -0.08482241937828405
0.5528716652033552 0.17502477343695944 -0.12037740754848869
0.5040133658275749 0.21315799697339344 0.026507886653334367
0.5412793314650912 0.1899499060852321 -0.09487292053279361
0.629658008912287 0.1520604712628284 -0.17692643087166005
0.5636025287229813 0.10156468076482383 -0.04968863702080739
0.6005382128882673 0.15809262868084772 -0.14273810151242117
0.6288063102718695 0.19526559070757799 -0.056333749704336356
0.5883340622318087 0.08106288550327179 -0.21665774359303214
0.5820640603099321 0.18137911147690033 -0.12669885142656767
0.5464687224282443 0.16253457106890323 -0.10408069066036774
0.5163509282082259 0.25524389614214726 -0.03515664856344358
0.6079475883334737 0.1147504060250526 -0.1591466837332689
0.542091614831719 0.19135312018407546 -0.08544074370827559
0.5736206417873575 0.14170185906930044 -0.11663854654368322
0.556980061298816 0.16087919836563458 -0.12579372496381325
0.46621182430357067 0.18492411120880092 -0.04344684372480856
0.473222766250899 0.17000331082506648 -0.04408442683319436
0.6130211623716946 0.1855600936198698 -0.1966038099739933
0.5983237520840987 0.10830097799498617 -0.178377354961043
0.6013028888330041 0.1784699329849957 -0.16140245633344819
0.4812396944115278 0.14970521244006818 -0.152254652980659
0.5221130089304609 0.16497194452470865 -0.10181903657924352
0.5274479830324026 0.08048020341014706 -0.07786632478212141
0.5512426908435941 0.19130035415099655 -0.07246691158154306
0.4274744986792882 0.17295565737629204 -0.10753964046072895
0.6006369191051704 0.1472654952101351 -0.14032519014561728
0.5655612725579715 0.24846167986184753 -0.0376451444131618
0.5416932548925217 0.17304803996988483 -0.061578565094606574
0.5400400363781728 0.15076047818088512 -0.0994383902926188
0.5522074295980985 0.17479722277440146 -0.09717101588596222
0.5102281591132112 0.1993945652082374 -0.1298028555266768
0.5868573838615418 0.22746513173893845 -0.015071247929384413
0.5077857430307233 0.16991159494943986 -0.11599949629976436
0.541226610717132 0.1140565540064955 -0.11462539795576276
0.568753458751786 0.15988587001109522 -0.13075821207698368
0.5437478439970107 0.17425092690987753 -0.07835552825197567
0.5086119283076584 0.15087680070644183 -0.1186491309378539
0.5905334295198088 0.17710919531228342 -0.12112627243763541
0.5514588011632782 0.17157496761421953 -0.09928938752287308
0.5707190653853615 0.1839029468902993 -0.13476364227496163
0.6690784429633823 0.3317271705017788 -0.16209187110425205
0.5214473822785237 0.16768717363353858 -0.11072812369475571
0.514556775911359 0.18756227934748892 -0.044650977164138794
0.5801860515121575 0.16153420870114132 -0.15446818951191688
0.5151331160362247 0.15728387943048006 -0.1348138762342188
0.5579400588763122 0.17166773658959755 -0.09645875240052249
0.5874964506980405 0.19380096294605664 -0.0903289894575039
0.5175655551745706 0.218003171170551 -0.16193971873863688
0.5514779208827179 0.17563201623514146 -0.11268662535542262
0.5205466853828966 0.1617178371195962 -0.09875303687269366
0.44228728469605016 0.16813357494201853 0.01334985447313386
0.5822372021057731 0.168764500240016 -0.1036961588355183
0.5444732627083511 0.15674748425853124 -0.10599845764248528
0.6034977154056094 0.1809953649595144 -0.0981920882919809
0.431700046391569 0.1259130177737262 -0.10154421031855065
0.5432816648369965 0.2044645745461935 -0.07636814721922747
0.5697300437448405 0.14790948876976984 -0.11911694074720458
0.5596719700862991 0.16587971067016838 -0.09907237965072113
0.42503133958638273 0.13242868039048972 -0.06025957321175213
0.3920659463082643 -0.011930437721318299 -0.1576537346617073
0.6192074959067781 0.18586798374468572 -0.1051457920796679
0.7026364967331915 0.21900813801289587 -0.17589539457109993
0.6142432960563724 0.22683666563169425 -0.05697548877309089
0.5176372730806804 0.2275192417260712 -0.0669610445715847
0.5908717716437479 0.10901479397237779 -0.18843900447788542
0.6017290786303136 0.12075738431518346 -0.14831398220262315
0.6259031802376 0.1650068337366264 -0.13927011837974135
0.4813659980795819 0.17080928187192512 -0.10636303937261005
0.5515797750693139 0.0803029058049276 -0.19979742884309815
0.4803098122166034 0.10116161622701725 -0.17813991133273532
0.5804362905512335 0.1575538880461096 -0.15554457258187426
0.6675781913247647 0.18389385251236945 -0.04175594933958848
0.3543591290872996 -1.0665049259583554 0.1363817771610485
0.5194490101953022 0.14677846797187044 -0.0969730307746346
0.5886283078331473 0.20811986710334907 -0.07990144961826218
0.35997068182254566 0.0794214346527582 -0.0695607863861909
0.5236080125382614 0.1804946085303385 -0.06298078727591871
0.5095845795373748 0.10266559954484933 -0.1017837966088706
0.5161057211383309 0.1285400407674473 -0.16562318726445824
0.621754643092828 0.08688119060671795 0.022954177918322216
0.5646557380784429 0.14682498778124398 -0.12112010388568706
0.5448940049134876 0.17919029957145938 -0.11376459044345211
0.5772685939173527 0.14531341451748858 -0.1575821229340164
0.6022692795476701 0.15518934443763044 -0.1552059613183303
0.5582596263925268 0.15505045456312416 -0.11485976774525852
0.5578367116867184 0.11342942104757014 -0.2035621491090467
0.5135735801128476 0.13534129098249537 -0.13174239825107747
0.551340786680953 0.13040504153410382 -0.1245183869855424
0.5076801049076494 0.14472769630495463 -0.14547113092430664
0.4547222764590799 0.3013611359882873 -0.04667544439274707
0.5795186294674295 0.16470703342986326 -0.15494461727976727
0.6079450933467001 0.19786647081555486 -0.08275426794452301
0.5129198918803297 0.1081484890826232 -0.13423851376572316
0.6164331864657413 0.18572356979780125 -0.11711350023857392
0.5888536749910713 0.22015987331825215 -0.09465995258914006
0.47610799996007813 -0.05392390604662012 -0.13963023059574198
0.6058385443807595 0.23423544705069332 -0.07196264936017371
0.5845510034287145 0.13062936673016168 -0.17746972705140251
0.5795866402814056 0.17789282773524917 -0.10428355380740584
0.4927866080961678 0.19701270171628948 -0.06920803602281467
0.5624806516610477 0.17283177623826873 -0.09785291745143354
0.4702216692789989 0.1413728262942442 -0.11731911060827827
0.5496672566574432 0.1744141566650228 -0.09293331028959528
0.4935580242025992 0.18440193145541173 -0.10889276071841891
0.5440054377063461 0.11108222302451054 -0.20034034716647398
0.6788954797719384 0.17302143573357398 -0.11791359602113971
0.4926576199350734 0.1472295530789296 -0.04366209717882441
0.5112537310803873 0.10742290309703151 -0.1462440339537352
0.5801627408419279 0.07616422724707661 -0.04563609275888325
0.6479603691646787 0.20340320522571176 -0.10816193558557075
0.5270135068680588 0.13684302874987964 -0.12510625935544795
0.5410519425334428 0.16506461406351036 -0.11056044241910001
0.5716975784607428 0.1794853655851938 -0.10674575630585537
0.5626827471218689 0.1432516590633668 -0.13597150875476416
0.5394259950223841 0.21554046078428257 -0.07888373024572104
0.5964879018915497 0.2769711066575269 -0.014499622209214635
0.6035846116849086 0.1265294829307777 -0.19269246807711227
0.6023820610257644 0.17883785487879322 -0.11686970890153248
0.5667235351667443 0.1712517094856878 -0.12089532070606879
0.5548590839173073 0.12381441144505345 -0.15236668162619083
0.5582299932553383 0.14195065334854462 -0.11314521720034065
0.5181046730604351 0.14532004398520826 -0.14739643905980415
0.6129790372707475 0.20380661650945342 -0.1033537276768044
0.5043858875446574 0.2169650045733107 -0.08581298034908968
0.5510249007041637 0.18009077034787424 -0.07859951982268853
0.6492167679468537 0.2676355870476499 -0.09818320173204143
0.6731195427780676 0.11577330613971526 -0.1866937450819819
0.5492993524239012 0.1625418495931399 -0.12042204573677395
0.5520260650083628 0.15313796422397274 -0.12810659225749532
0.5541145101586267 0.15555525430825412 -0.1011814862477678
0.5199796420061205 0.05136922224384932 -0.20243922965103422
0.5863664047700752 0.21076633858682214 -0.06192692482875373
0.5243222582283522 0.17580936275324177 -0.048162162313971635
0.4320434763209846 0.18285295214180053 0.023368270958243897
0.6134718862198838 0.12813661804392495 -0.12440645047338705
1.1356554871379103 1.1457224369952996 1.2352303322034857
0.4507128180443658 0.20074037275063006 -0.07010343007833342
0.49198286866590024 0.19791160580336964 -0.03646660758370501
0.5242603632192697 -0.037460659431687304 -0.0037381321264575718
0.46968694979941006 0.13700984815895367 -0.1045736053798123
0.4896945451357908 0.1520164485019393 -0.020124678928155504
0.5843231577217125 0.24636425390995953 -0.01266127562131203
0.6088906969884249 0.20698455025653573 -0.09319260756242898
0.5511452058761677 0.16036904671297236 -0.10596438585096735
0.5505242893710829 0.18566214156491867 -0.10623174235524857
0.5355264194462563 0.1708022976201562 -0.06980798601344418
0.5274926834429152 0.16153370759812447 -0.08791421400178479
0.5407526745441373 0.07886636779026901 -0.19957604440509158
0.49761831384526545 0.14991344278212182 -0.11308201473410406
0.5642576139535151 0.188247897736602 -0.11121789568515794
0.5342472115387409 0.17233108215967263 -0.10866784267200558
0.6804115586845398 0.03184924788493504 0.2703649539326278
0.5976629176655592 0.14713944421241365 -0.09522774300428694
0.4824726039817051 0.1298666128567163 -0.17798438227126212
0.4935497429711404 0.1156004928566432 -0.175935127997775
0.5722704467863196 0.15313119867826686 -0.12698856804705372
0.4299129074173038 0.16828493119436416 -0.055196706338847434
0.5294903372779345 0.20408508820779048 -0.10479388165136072
0.6137102726117405 0.1693906189209713 -0.12896995368804198
0.5738725079371818 0.1750548669948131 -0.08753354073886044
0.4872548279144837 0.1117106627472566 -0.12624395183347303
0.516874022401737 0.16249470129882582 -0.04217644788748487
0.5250673566549722 0.25872814692429813 -0.0787458890447823
0.5657857390109768 0.17314690798680488 -0.11378041981406284
0.5496324827066985 0.13826080859654155 -0.14094286748370166
0.6372026613688888 0.1874040016904388 -0.138126154441494
0.5302416178601845 0.1462584967410976 -0.12092395075751483
0.5824691172073528 0.16743224177723448 -0.11861786784857031
0.599984553925367 0.26688099503326157 -0.10157218145899094
0.6159549703068308 0.21355185907151508 -0.08223058166532837
0.5205585633450482 0.12363946297872985 -0.07728282848704282
0.5611150415598729 0.24767450156484472 -0.10628299442531386
0.4818363244431225 0.10336766603214187 -0.1581822493727003
0.5049653711534177 0.18460181390308605 -0.08141045452605056
0.5460819192790041 0.18740242199440615 -0.09002526935476851
0.5218475602271724 0.13548993637586193 -0.14918420345861705
0.40282351810969885 0.1953535546422671 -0.17536343020306333
0.4432877248446232 -0.09124689094801397 -0.2853632110810196
0.5516412881268025 0.1806580416306076 -0.10461614662456498
0.6354464302769713 0.2005347945642626 -0.20676367018552355
0.5398956596964126 0.1729051545207625 -0.10136826588630754
0.5447104386487354 0.15359286519066018 -0.08313636508000855
0.584154338346508 0.11217116802180271 -0.16850922110916144
0.541591386538073 0.15880411584599585 -0.12608143401068617
0.6194788481996909 0.15183751227924347 -0.1828285110452157
0.583032504193767 0.19336767095531116 -0.06871947297433678
0.51411969833174 0.14012301436410723 -0.1430928073413611
0.6017544930502368 0.17327034652160478 -0.12434833910288035
0.5717219946143643 0.13428944249170627 -0.16646287715450114
0.5902050060074089 0.1559184509246876 -0.14220511272093006
0.5231369650286979 0.13611937058659862 -0.10942644768637422
0.7010260726256377 0.2794234856962987 -0.09112456434795035
0.47533743833832887 0.18061994293921657 -0.04536783991812854
0.7832421274809462 0.14093127237568126 -0.2385706943842223
0.5626249778963199 0.18162705299957338 -0.10548625935030032
0.49947760224824833 0.2090631887501928 -0.1121276048307891
0.5292782328969565 0.17432703377392045 -0.08766117840683307
0.6109900511075921 0.1373119784827992 -0.17889193096334566
0.5462390031038069 0.1762090594420016 -0.06912469123328435
0.5988681838739467 0.19826316797001198 -0.1358438672796467
0.5641469058461723 0.15462540911101996 -0.12491553396716881
0.6251751803617651 0.1586541282406131 -0.12663829587702935
0.5781029786546128 0.2217056327025233 -0.013447036486525121
0.49491711208514744 0.19074982982837696 -0.07731367249705556
0.5412762369720383 0.20541270953413004 -0.029085911155846134
0.5265651005391305 0.2478224125954256 0.01602857560230575
0.5546019648692209 0.16701879798976904 -0.12381286821165816
0.5634858241903373 0.21930770335214333 -0.06597228571612845
0.6457117992081578 0.16738562899696774 -0.19257627299887758
0.5246500019391362 0.13765334201158907 -0.07701406819001022
0.5948371162144781 0.1648351120880136 -0.19627201861192134
0.5595496071470052 0.1608588901399628 -0.11904830361189056
0.5763953829655009 0.22738019041825908 -0.03794525929812664
0.4562329010332178 0.09519266903618018 -0.1198695160968839
0.5383219177496699 0.193113639793566 -0.08881257810449483
0.6003116446230479 0.15000735970203039 -0.16514897782889193
0.6553615011213196 0.24528291047860762 -0.08568685631024664
0.5753839337778004 0.16560666158812865 -0.11459933755159568
0.5167976214411567 0.20591432247736918 -0.03184242666468151
0.5554074550224755 0.1322138407230824 -0.09383025510790333
0.5224517731044784 0.1898862094618039 -0.0488273718817851
0.6178134120001175 0.14324020625612377 -0.16314857666611715
0.5435272903694681 0.18511390153591378 -0.14207943433586934
0.6141304747242202 0.1302756680822057 -0.1855435639146492
0.605362541374916 0.13890874746525128 0.5363045386653624
0.5270866420713958 0.1650210489860342 -0.09089625603952811
0.5694816058386039 0.17874846499655916 -0.11144828361013026
0.9179786489934827 0.56216701784939 -0.40511431070129333
0.5350105638073899 0.2377206642688492 -0.03468211738484683
0.5106291324619008 0.4282182262816576 -0.34954583350237556
0.5001161089253969 0.2278396873380757 -0.05445723283250459
0.4980935207480002 0.15975803055775373 -0.08485676399018871
0.49508060383541874 0.1320864886527886 -0.07130198535219279
0.5540203814858558 0.16995506952301298 -0.11023836134160092
0.3491977662470731 0.16668592961562467 -0.06490418723871016
0.5315490590721197 0.14006399274296655 -0.12757406643979152
0.699800878007693 0.13965735155882442 -0.17133189851503516
0.5391317749777613 0.32237580141121214 -0.01406534816599958
0.5521394069501468 0.16912850823186432 -0.1133644211920597
0.5449292166609041 0.16824982204506966 -0.10788688383131273
0.674464573206393 0.1850702588873787 -0.22742827181274095
0.6337614610626474 0.2993057219832025 -0.20732021165622427
0.5192688385543818 0.18910333949314406 -0.01695207858580261
0.5754607614747442 0.1557565576230786 -0.11401843030513703
0.4770216008338082 0.21387207376832862 -0.11931041845808465
0.5310763720355567 0.13165871163198517 -0.13174629184798903
0.5778179859092063 0.20994623588980232 -0.03709767998067548
0.5002228592635163 0.23322578120721005 0.021094744613819216
0.6317678213120246 0.13996602364933608 -0.20564334971132325
0.6043087984048441 0.24750922641007378 -0.04315023174696364
0.6073807016824162 0.21193644569734715 -0.09646876959153872
0.5915322826207614 0.1849491638972296 -0.12147053373453787
0.5943306916738891 0.17840100452524155 -0.10496537904080583
0.4490092688256766 0.10353872911743167 -0.12167307873608024
0.5575477298309295 0.19197679860428707 -0.1372282093548307
0.5669258115313482 0.26739546116024826 -0.005468080876894987
0.43325571028071863 0.12871632590953652 -0.12254569584355579
0.5862655524730087 0.2090516476577875 -0.07851751966487086
0.6395601718822093 0.21787341631687696 -0.09327348348109865
0.3180062953558149 0.2733316677200861 0.055417508174144814
0.47925917939383567 0.0878776835064059 -0.17109738522910334
0.6705936929758423 0.24314529394506224 -0.11886857716923771
0.5152701006836367 0.16137208783949575 -0.12894618810835823
0.5968810390884016 0.1673921513479968 -0.14333884989608237
0.5772150374239118 0.16506137974832313 -0.09800726067678056
0.49913490161537766 0.11027838017494673 -0.1412784966379661
0.628016248312349 0.17526095139385234 -0.1679931428432866
0.5233920265405629 0.11776153003397383 -0.0976273549632225
0.4880957007097777 0.14941249223107889 -0.1454836161763211
0.6742915080404543 0.15188871893592193 -0.1526218323331534
0.5713244752020614 0.18180552755666213 -0.1275775246187152
0.5625969175432317 0.18050021736046062 -0.11021816964661468
0.5206780128898458 0.1283194201733835 -0.16089837874758928
0.6185176738163705 0.2105311299336563 -0.08395103801717596
0.41248075135223417 0.11870919309912153 -0.09986839955574567
0.6570213529322473 0.19774677394310913 -0.07036808949533224
0.6447720923447093 0.25875697222238614 -0.07295252694372323
0.6868649239839613 0.34130681025948206 0.018530766828533274
0.526841579720724 0.14356143862963222 -0.09345209869839266
0.5409578739491394 0.14313608572471992 -0.1899527047345657
0.6148756853390012 0.1676044120306699 -0.15458591024378165
0.4831539201035753 0.2260682312415554 0.021528199373079815
0.4884558975292066 0.0978902939039159 -0.04698283738559894
0.543179189905544 0.14218188576741397 -0.11314160162281439
0.6335393306535764 0.17305224095760252 -0.11692872772940177
0.6202422109533927 0.17992917337713266 -0.18334930381446668
0.539188732289773 0.06345866397812472 -0.20286226927484563
0.5784710587992379 0.09464333433811589 -0.1656440628303102
0.5661273170336756 0.14433020981604727 -0.12231689552827163
0.5445719684082917 0.13302184981370146 -0.146228467959574
0.6283644881733892 0.15375680307914763 -0.13600581723628125
0.5093555650655901 0.10986130221706958 -0.1624049399084413
0.5711867580216108 0.15392946395562035 -0.12762593739672923
0.48410866107326456 0.14999892764457456 -0.13791559489216354
0.4791981230447391 0.16266270098586233 -0.057922522278289534
0.5742038737285498 0.18944553898515437 -0.0740298607637726
0.40473197871614275 0.1474627068983949 -0.21560021664093654
0.5345190914929674 0.07615853885677382 -0.19813460896607182
0.5383211147553482 0.11814379907526984 -0.13680387550249407
0.5940575192493895 0.14172455752046176 -0.1179776236856469
0.5387107121905501 0.15080478299452693 -0.11005666336072295
0.5255658268176262 0.1115774396615592 -0.10744679022960213
0.5291177782360705 0.143558632640989 -0.14595421608544257
0.5726812496641003 0.1515056435416966 -0.08366256650762693
0.5761982249723587 0.18611698074954575 -0.12364201324109558
0.6415128929924663 0.25490567839784717 -0.08215124861504819
0.6548618777162574 0.06707405948010603 -0.2753107097736205
0.5892809776921695 0.08759398609815605 -0.21061765955464296
0.5333599161109817 0.11115606701577008 -0.04718791502735087
0.613258659785572 0.239003011952164 -0.13304340330590492
0.5232196254474104 0.20400924127082476 -0.0001638684072986507
0.6130235390792222 0.18080638305657715 -0.1600108705239478
0.5287514218015019 0.27028480931427623 0.009003367653221517
0.5627181963969861 0.14571853556648762 -0.12635013033782627
0.5829917712734982 0.18816034513565683 -0.09475982074609135
0.5663408499751199 0.10170246404760519 -0.22263599344394436
0.4333444200076997 0.12340768109618239 -0.12167025339932991
0.6334520454566359 0.07009055888451599 -0.5925483464216228
0.5885117806331834 0.17334979383929294 -0.13297643580882834
0.5658374037252543 0.1486744502528552 -0.0712131161541123
0.6103343105957606 0.12155258353017473 -0.1510951867070247
0.5265214795088013 0.17903811944192682 -0.0362223888773201
0.5791998049582503 0.13539245246923315 -0.09133932474385631
0.5352496337932848 0.1342574288880769 -0.0866902664862721
0.5781322922648258 0.1649114721814584 -0.11086249259749081
0.5769006228326532 0.14184482473268645 -0.10966617333650674
0.4925318286858271 0.129739789827795 -0.12339377797572126
0.9045702827869206 0.24977753514833978 -0.28698274456270667
0.6303007680346298 0.22182093057062957 -0.06285357577574757
0.5725952823399894 0.16916065550060466 -0.12444792390529358
0.4476570182897035 0.08825823557010892 -0.11332513114109588
0.5632373607262764 0.19958852147699702 -0.07356948690585341
0.5422701736335682 0.16105456241098182 -0.10387085830173248
0.5656442578869019 0.16426762805855333 -0.12670727533992476
0.5511283596953547 0.15203562833794138 -0.10400449535259781
0.5172743909998303 0.15245169163405592 -0.23641658739711602
0.6266782409796292 0.1577887830094511 -0.17111636282137965
0.5474976416852542 0.16175096108354126 -0.09235596384573341
0.6324309652647173 0.19712406553115613 -0.10726277351064084
0.6509106331311614 0.25450742112118974 -0.00980195812391571
0.5677698060151215 0.13365345469797774 -0.157841706127968
0.601976708836105 0.15292920958495415 -0.12451068724489289
0.543822239689348 0.14475879658284896 -0.12996874869419628
0.6158273798264418 0.09915048035553298 -0.2424216528687282
0.5177023322393097 0.14729628306227482 -0.10483014939437396
0.5991518070540849 0.19702943560341168 -0.11281073350876625
0.4351976708652785 0.1376562474429761 -0.12708020015321608
0.4853159423157649 0.16963959614024304 -0.08260360580787562
0.550261199307613 0.1948307862717229 -0.09510666251095756
0.5327013626024097 0.14931369676347117 -0.1671237583029921
0.549609731981235 0.14775132378848355 -0.14045230472305548
0.6180587630436776 0.17154107345473335 -0.0807022135138169
0.5634665129856273 0.13743932583329865 -0.16757520684979
0.6059562294242937 0.1798373525974455 -0.1211897244514546
0.47156365257509947 0.14885158603686932 -0.08630254944955595
0.5384743607563109 0.116641812176141 -0.21413932875874764
0.634706009467493 0.18446446585286935 -0.10680584759258238
0.6282530028688882 0.22023060902549219 -0.08172792132323536
0.4944775275583879 0.21678719230993693 -0.1024342142960677
0.6616918095885751 0.22496083739819994 -0.2177842670762118
0.6003236082210037 0.19124418215589856 -0.1296470447538951
0.5727780010299455 0.2270787562116965 -0.04210350804906682
0.5204357412690399 0.09285468179251666 -0.16465014545022427
0.5218093151518133 0.12529087751318002 -0.17109015739691813
0.5545917066610855 0.16488192541731905 -0.12681730722540863
0.6407909484834988 0.15838920109219146 -0.1800911293833849
0.6405019883988814 0.13766172364790918 -0.15753339712472325
0.524139806421374 0.1324929664457386 -0.12076071132609911
0.5460290687636586 0.16442200334441281 -0.1258831974972594
0.47254956298164075 0.20224180370023248 -0.017621810247518965
0.4968532490529185 0.19402170443935063 -0.025493304473357625
0.606380144129929 0.06638508712750024 -0.13912015259187172
0.5490844859635047 0.17606323699412485 -0.12362405070592786
0.504410673001729 0.21855192335050333 -0.03530419689104747
0.5551779485524548 0.1646049374677716 -0.12795655669954442
0.5589090658311591 0.15881733297945289 -0.19049710341981552
0.5101511119578959 0.19531442862128756 0.0032193085526586174
0.5207211525497257 0.11391387894477134 -0.14821547920284672
0.5757372188756165 0.08013148096202372 -0.1684033792211892
0.5812418486997899 0.15347232259320265 -0.15165564842203594
0.5566802963756743 0.16136223810391925 -0.10570764290308432
0.5276887786781401 0.19645427882541355 -0.051403875571409685
0.5784748668498878 0.20290363575912806 -0.15442940460221166
0.5541312686039248 0.15034034705270471 -0.12349939210527339
0.5096776611052576 0.1476305118241612 -0.09495763186291128
0.5370159434704931 0.19096680906233132 -0.10294305765422962
0.5565061595166583 0.14764052338426836 -0.0568806457317379
0.5277470185450284 0.16567214187364243 -0.09910930338445212
0.5241588898364284 0.16094882721817783 -0.07175498586263984
0.31336212126021223 0.10860238242354114 -0.0803122116827808
0.5164305593006304 0.19520368801302368 -0.11823625496282375
0.48010135941112253 0.20702864418144884 0.01117498018805918
0.5273082393183302 0.12748008740561545 -0.11481634343776648
0.5596601334395928 0.21193242633003706 -0.08932724022569971
0.48311510960041915 0.08703411090074553 -0.16879424938395005
0.5767890205130186 0.14594569034898086 -0.12865992570938545
0.4709500746635342 0.11578273919363369 -0.062311597366914384
0.5412028518632894 0.1567147918033811 -0.11665570076527843
0.3684695771909787 0.13606402994402345 0.03755730199397078
0.5138503887129104 0.15939148886364762 -0.0628232620556588
0.563858619468391 0.18887114265302785 -0.07494400240244659
0.5485017295754346 0.18849619515451366 -0.09761716359166428
0.5761221420587219 0.22004601242728938 -0.030384846866923
0.4621541862586298 0.13166884719717586 -0.14160382720417886
0.5730440015411205 0.13082707135134797 -0.15883665192781393
0.5872341917409756 0.2545968558979155 -0.14642092863431344
0.49650982224284235 0.14164013803352304 -0.07876465107709407
0.5707029272820705 0.1589280055833342 -0.10680007815111026
0.557700210935991 0.13219118204209224 -0.13103541972803612
0.542283225701226 0.16495408579866933 -0.10341918933499983
0.5677630542097347 0.21651676149419075 -0.07130733656862276
0.5035085906849588 0.23357223616339695 -0.05387665175297229
0.5231741554583493 0.16414554867880327 -0.099239978699174
0.5362243774110027 0.1542419378417179 -0.11911677992988245
0.6010514764027448 0.13796075255379492 -0.15633606456445648
0.5391994238801772 0.17051159954439754 -0.13139611952652785
0.5390803750798341 0.13304890507451717 -0.12576315455090992
0.4078098838702999 0.21045107248410488 0.013344473936243162
0.6153475423622865 0.14152374538085155 -0.18924085517586775
0.580617589943671 0.11640207326557572 -0.17986400443204786
0.5723507321384318 0.1823663955541548 -0.11585235000823957
0.6059546222925576 0.18297582552462188 -0.10553072625329207
0.5319397378466135 0.1680293961984205 -0.07281172837774363
0.5355295027931106 0.22152610177728604 -0.053805117674997405
0.5430814151508798 0.1597899869221635 -0.052554114705984034
0.5903746439392137 0.17045640697863007 -0.12524123118208763
0.5814735770738366 0.1500292282732687 -0.1305731856810297
0.7194347865787165 0.1966735433434934 -0.1549360622386331
0.4682050907928499 0.24349757148250717 0.043414724650332914
0.5298451387186276 0.1651103423614444 -0.06213265508924337
0.5535659474589636 0.1579878792638567 -0.12537728860428388
0.5836161325067621 0.18587484224219963 -0.12485610287900784
0.5271190230770344 0.16013893000159385 -0.11755871141834007
0.5725216506577055 0.17467018779673538 -0.10830304827754844
0.6209828907201995 0.12898876346891086 -0.11189726621269358
1.2565218361715438 0.3043608726516851 -0.12173678931148402
0.5505308712976387 0.12005224306943774 -0.13306881321061326
0.5383223387567853 0.1275566170663609 -0.1335144293195043
0.571556801917751 0.18555074794666382 -0.11729578423495468
0.5038885311412571 0.1858039920707597 -0.16240090278735408
0.5564172704708028 0.19537703319468847 -0.0880734425592209
0.5414364488593151 0.18528043025750662 -0.11469505215445963
0.5662392591014225 0.15975521058406628 -0.1022992674381129
0.5477782124621058 0.18293128450713425 -0.08852680104550359
0.4623179416956589 0.15265710191202686 -0.05833378452676641
0.40542528702411573 -0.0012447005850617643 -0.16441696361280833
0.516163678160126 0.2043218047922153 -0.005896267774943453
0.6078082629175583 0.22650893838913078 -0.1624839072137121
0.4688401223402252 0.18950952298166612 -0.12087303727979304
0.4381153093014234 0.14267308314973093 -0.06526119899507421
0.5207953666716207 0.1567555615425391 -0.12766489739870224
0.7100623970611366 0.17687831204052884 -0.11856673788798844
0.5099827715232834 0.16823212843148383 -0.08853255388088144
0.6055706769102756 0.13159174411896402 -0.13458989290086265
0.5526836848757739 0.18127528070002086 -0.11764612159743137
0.47616160325415535 0.19579589012100485 -0.03513895094408781
0.6565380220287409 0.20708033205886522 -0.13999709398316895
0.5398166971363878 0.18524342979418407 -0.12458990562670635
0.5348051468033077 0.18111800858203253 -0.08104002871390037
0.5854068999781816 0.2615146867712781 -0.04245522240925936
0.6573405552969689 0.26223390552723913 -0.07000935064935732
0.575912479605762 0.18006637765201106 -0.10876343611717232
0.6592925888715513 0.1441679897948802 -0.17757092985245038
0.566881336473898 0.15809479513580982 -0.12199600907601393
0.5831191408829852 0.18298831267428284 -0.10610540864175277
0.5874401310146027 0.19746316632965488 -0.08212583358984205
0.566397069230959 0.13898939400300492 -0.14133969407166092
0.5957941653668399 0.13879599846166002 -0.15660341784951015
0.5306880593007008 0.16834639508485338 -0.09839279492624087
0.5781993962083902 0.19750117914821885 -0.11179444473823708
0.49736605431647263 0.18168843648098232 -0.06164726396063713
0.5871100710893131 0.1691598545313724 -0.13665779649184628
0.5248674577076997 0.12828520990581183 -0.11669393728361399
0.5296553730476603 0.3421329465743099 0.02427444563367942
0.5524855459137257 0.12059223159742771 -0.1043165798289607
0.38715304638591874 0.0300479584366542 -0.20699624399439642
0.594515740714769 0.1448717363022638 -0.15849010063460867
0.5118908510424944 0.09804305548190939 -0.1690944964281016
0.5904172806301347 0.15752552834128153 -0.10711143846650373
0.5731204750707661 0.13349076196583098 -0.05431587469327326
0.6445382455310096 0.2099850971656565 -0.13161521508052942
0.4947125749320662 0.13845846374921678 -0.1668170357426817
0.445060567837146 0.22615246719702498 -0.11908229934138603
0.5504481439126323 0.18005671005620627 -0.1216105920152728
0.5701565378867315 0.1735452798856869 -0.11044847214614606
0.507947623778108 0.1904792147719121 -0.054878109533675
0.5468970718411867 0.14703970795318355 -0.12138398710466447
0.5075066474634866 0.2018158149662952 -0.03738526067272119
0.6783326297849612 0.16451261731289435 -0.17725970957876314
0.5263847581162224 0.21013420913227776 -0.027593055662109123
0.5317840787146793 0.1607640877804073 -0.1325345613569766
0.5865509684975336 0.2502881360541238 -0.011087004404231493
0.5937967704909681 0.20586141196827157 -0.11836295962787347
0.5440084327873649 0.19641682058949073 -0.06930329256258005
0.3599338188774084 0.15038472778928735 -0.045626525587309175
0.3915326854468333 0.20829266571257676 0.0007793431588538624
0.5407656495361266 0.19433769779477927 -0.0726606982862279
0.5914528156218921 0.19988889015114353 -0.12612934990725932
0.5430514924430838 0.2039900202537126 -0.024207264146113516
0.5931051206993061 0.1942612543739699 -0.09043045090814417
0.5342015927685111 0.19448909919422874 -0.07069609372430818
0.9260444424499781 0.9640474253319411 -0.045431132238462624
0.5961040812740066 0.11426246547162577 -0.1141739965972306
0.545465848516983 0.15581241737972107 -0.11883873040231663
0.6105639555470077 0.1523352019322317 -0.1585199680746996
0.49761946658358625 0.1418018340070546 -0.06595044658823213
0.5490549868325161 0.12093915355119123 -0.1576796458275851
0.5802239331571855 0.22599413439073146 -0.0728459375353907
0.5080246116201295 0.10912686169743324 -0.10687640158739953
0.5325327076701001 0.17992121734923217 -0.08563707524727704
0.4907678725224969 0.22725890759701883 -0.03620726585191392
0.6237229780016094 0.1301672655286552 -0.1979763256992868
0.6152080374955062 0.10748837262474353 -0.2410382824685655
0.602632249096132 0.17609292699175683 -0.18303850625402163
0.3628150459226447 0.23459103256251979 -0.03854018496561196
0.7047263647534692 0.33803785658410845 -0.4395248135608938
0.600416258907245 0.14265767541297691 -0.156920415720748
0.5542095854525542 0.1583119714973975 -0.11115719694356585
0.5443252058048813 0.1607788573745097 -0.10617485562845275
0.5473259302145834 0.1747515619488098 -0.07737822635293412
0.5427483066393961 0.17321489540526613 -0.1289948599004873
0.5184095174134029 0.14746461695973778 -0.13598605884617143
0.574891787452458 0.15814562343422267 -0.134459872746703
0.5441350704252557 0.20966209920477752 -0.12595273464957302
0.6266099886975667 0.2348576043453221 -0.4345682834319149
0.4842632267316844 0.17264550792043565 -0.07257858357549196
0.5819129866902131 0.18851920861338556 -0.07615557179775578
0.5579461114922424 0.1912650999083212 -0.10995611527528126
0.5131380482979182 0.16485626492547567 -0.04139532637015009
0.5632989919836291 0.1657963228532111 -0.09969432700906111
0.4756144899672563 0.15565295812680802 -0.08410900193371162
0.5437777068774778 0.14865280573806672 -0.11591687867077383
0.5268342524619243 0.20187187757532854 -0.021161932947904916
0.6068093400855332 0.14393302380527473 -0.17413044771421937
0.5990668963644623 0.2576943281416959 -0.06960365352182407
0.622596569924923 0.17242714707602147 -0.12907601070837416
0.5279202332930879 0.1533283979584752 -0.11989462550664598
0.5494430715059195 0.15115295628018544 -0.10568421063874212
0.5915954578680669 0.19650041123034612 -0.1307355947390505
0.6085063686291221 0.16913830521173168 -0.2185302763229373
0.5390832017044431 0.18542523400145683 -0.07521212387418075
0.6561559970292308 0.1894288612238313 -0.10375982458035082
0.5932674549752335 0.1606718577097297 -0.12094722048991002
0.5665642987190438 0.23176322827005436 -0.07458598666327987
0.44962274693224913 0.08258261926280852 -0.13987530804095627
0.6718595000788525 0.21949448041686992 -0.05656998551009451
0.5953771074176188 0.1802920874620071 -0.1013005713538746
0.42276514591017644 0.20117222517033895 -0.054177088944427965
0.5149284611965754 0.12012613695377183 -0.12866228621645348
0.6491097396962573 0.22391786759075671 -0.046442246611590576
0.520154566695652 0.18779562729284294 -0.054390050855005256
0.5942356581133481 0.18336606119979137 -0.15568016979480603
0.5938268848402686 0.16564676204590967 -0.11233934266023482
0.6306476505838532 0.19637157549392725 -0.11892361906991766
0.5691884191650161 0.1753789857205419 -0.11439432628337443
0.5459344005373055 0.1322202378982098 -0.12064899230699666
0.5317091368297042 0.13921829342214664 -0.11796174520799241
0.49530441280384707 0.18521492981427912 -0.06757690057925458
0.39257728313310736 0.02480067806345687 -0.07787950037155156
0.3853095552312311 0.13137039539874706 -0.08931076691503392
0.5758171184397725 0.16567150825142107 -0.12345524273787589
0.4712624350633803 0.1735453360711574 -0.039446200519165586
0.5709752551283032 0.14998960670079953 -0.18094769329887583
0.5806308242117666 0.19010685660312276 -0.10043474239299144
0.46469584311628864 0.17465720751926028 -0.006100957945974983
0.5495990757740401 0.16469576369178185 -0.10453426901955254
0.6908780671213606 0.003304104011590425 0.04785350516124254
0.5081596141619968 0.1509975286233356 -0.06858417172745135
0.6380545461914551 0.2493682504190673 -0.06689578337397961
0.5362204902648955 0.19009762018588106 -0.0898725318186564
0.6660456490932631 0.19373674408601005 -0.1927143119525283
0.5340097825426255 0.14688851041323403 -0.15967615446791683
0.5418521120126911 0.1408191320762029 -0.1042021307929133
0.633627184957902 0.29675416545535427 -0.11855512131242563
0.4816034956929798 0.15742134065779112 -0.02916442553863874
0.5658534018440946 0.16553798969552247 -0.1135300062689879
0.49334869447878305 0.12118037375832102 -0.15699963002232664
0.5341722354540934 0.17322466829355676 -0.06411538251848015
0.5337090623855829 0.18881525864459547 -0.06618979886701482
0.08534055850861932 -0.21011707517847356 0.008363001415744975
0.5003106060638345 0.15934604247782147 -0.09374609931983002
0.5717149322721866 0.15330558353149115 -0.10727956403100336
0.6157321954778467 0.20389395967545454 -0.1379696030930404
0.5133805358066184 0.17742768180883672 -0.1408935480796174
0.5984269309147976 0.21152807881999536 -0.07050298228492125
0.6211236436094794 0.187113972940665 -0.030107565040779605
0.5467152007173581 0.13841999269028804 -0.15747347357627461
0.5737527613630391 0.1701645584299598 -0.12152534472629384
0.5748438204547597 0.19886472277659095 -0.08847473191580946
0.5254701644700788 0.1265386714189276 -0.18002778641697148
0.5641437819589044 0.15893880399428895 -0.15105409931445024
0.5802620172516697 0.17761022593764153 -0.254804241902562
0.47417401953930494 0.12401795010312355 -0.1310584823746126
0.5818502113806403 0.18284170171966707 -0.1360032260123063
0.4366098585230418 0.1980677295162394 -0.10903190077081604
0.6031845247515264 0.24527994920408958 -0.023252623137963724
0.559896723349965 0.1676873857337 -0.11077977256709914
0.5025346826782311 0.10834599387220578 -0.11673312547526393
0.5691628508965039 0.20368104181723368 -0.053085421105905084
0.5149039091105294 0.22384446566988458 -0.03370181746053902
0.663316052361921 0.1713915496162315 -0.22225544675720244
0.5287980700474009 0.11275549195880785 -0.1449031455302645
0.6500066616270317 0.18250876440571062 -0.10415699356212826
0.666175398734822 0.17992938535216751 -0.18019114762459765
0.5687613325669929 0.1881404449437838 -0.11823763429372036
0.4822135338506257 0.17403934711937552 -0.07209108214453863
0.4061520258804592 -0.047932439090715206 -0.009899726520188779
0.5676928195172763 0.21955833153892002 -0.10946410912868032
0.5304310691824128 0.18514392112656708 -0.006104295920124514
0.6284277182615483 0.1965102756712298 -0.13804417531694924
0.5512882353865507 0.11184874744056117 -0.12909855923756197
0.6432185916406752 0.19142057378934396 -0.12534978604445257
0.5789477445007094 0.14320697764038925 -0.16487813495250236
0.6031502734652747 0.2942550730264344 -0.04636879517912007
0.5202256708525113 0.1370739526789322 -0.11334792659560833
0.541564106832908 0.16420420159337823 -0.0909597226721246
0.6409216787267553 0.19308691006553147 -0.09820423641950526
0.7823484032847148 0.6406026641907374 0.23647728117781242
0.5392386528190514 0.18864430234458496 -0.10352682459775053
0.5647772470710493 0.1504169433201099 -0.12289255920344999
0.5951661736108065 0.17671609703995728 -0.10739004989308398
0.5267240237867838 0.17741549608639673 -0.07324278338228396
0.525344381916824 0.184110522071947 -0.11964126929831309
0.5698350678748341 0.15095412760885552 -0.12399383456568103
0.5414893426910226 0.2175362560278984 -0.05310596229954001
0.5884016405665875 0.1399416656783785 -0.15870231783316058
0.5017254410709029 0.15176198338060942 -0.1342182908770866
0.39572641270464715 0.22380421528853844 0.017766273992066317
0.4594308059947707 0.14583964380288705 -0.07992563768023331
0.515870893581706 0.13499845287770995 -0.1380398373309646
0.609277664178137 0.18541633127463797 -0.09475325977295768
0.6035902408502238 0.19320955497036607 -0.09289788732030502
0.5230324699915627 0.1732380706441603 -0.07802965906392956
0.49998992795218555 0.10983507198281472 -0.12622162449359564
0.2850157397767532 -0.05359026349979956 -0.4436251916862801
0.5761809560834479 0.17109138581915317 -0.1135511116347061
0.5648816984529219 0.17226786646924097 -0.08953040846117233
0.5677872946936304 0.16620193442609832 -0.12020337255022184
