# .PCD v0.7 - Point Cloud Data file format
VERSION .7
FIELDS x y z
SIZE 4 4 4 
TYPE F F F 
COUNT 1 1 1 
WIDTH 803
HEIGHT 1 
VIEWPOINT 0 0 0 1 0 0 0 
POINTS 803
DATA ascii 
0.5702026084049123 0.1902497657024611 -0.09840150364649958
0.6502751001154081 0.23079845808588573 -0.0156502145206332
0.5908415167934322 0.11616279118503314 -0.17932199144988203
0.6314341629545197 0.20103817864529105 -0.2061993416367045
0.5326996926881407 0.11038664369087314 -0.12923331168849472
0.5675069387673659 0.15429134623609286 -0.120799209562648
0.5660398220678644 0.16255617187596272 -0.1354421291726453
0.5067152322080801 0.2558828961277726 -0.07335682758554185
0.5366532578551642 0.1590614274728921 -0.08655842660914459
0.5709610695651293 0.16659396916783464 -0.13924108239797306
0.6073329108616292 0.13920909381141655 -0.16993910795522993
0.5703804821068275 0.10933126391350356 -0.16092459561699002
0.5995712722308895 0.14896544378642318 -0.13835239924992493
0.5432731060269873 0.14782635227690832 -0.11783546307714232
0.5912169234286182 0.14287390032227165 -0.13107458847522935
0.539312298846852 0.15092636221909572 -0.12336656388089295
0.5901986928050178 0.20081366064034967 -0.07977442158227177
0.5170651282530798 0.14309171901655304 -0.11461113693633251
0.5459420137361235 0.2237889862742577 -0.08314560726614673
0.6040482966374725 0.16000842317535557 -0.1550341068487171
0.4914998270938895 0.1712439877944405 -0.09030639662162798
0.5593930915389365 0.15356308094068538 -0.12337470300204245
0.5530320988818289 0.1612233683714095 -0.12253196204224537
0.5204183645067246 0.1480217171635303 -0.11438316703856799
0.6049727460773795 0.23905259335533913 -0.10177253423927368
0.47612304637334546 0.1750993128874967 -0.017089564900601317
0.49573204163979767 0.26585483942999133 -0.09607577644581511
0.6203616436452251 0.14838393810182993 -0.10696113970982424
0.6368566294762559 0.1418142047342883 -0.195987084364333
0.565583026623159 0.16993158044084566 -0.13123624518803467
0.3827232991773144 0.12925526635189044 -0.10767163041941785
0.558412778437372 0.1643300394361944 -0.10267603298720474
0.6546505562758398 0.2536738969036918 -0.06524055057309397
0.6193123884980025 0.13610827296425043 -0.09621807754393785
0.6019244682609326 0.23681812677240544 -0.15406500692282066
0.5881213137581369 0.16681713702072898 -0.13207264916871964
0.5354370013854748 0.20208792151836974 -0.0682122267613181
0.5968995096400818 0.12494532345883158 -0.1696569091228639
0.5350312654325364 0.16068833389581982 -0.12037926204811811
0.6349771676269143 0.15590473864338605 -0.13714481532818468
0.5615592292742804 0.17712226422491995 -0.11072591384831298
0.5401397615695771 0.15690261187123156 -0.10960037243461329
0.5918813481305847 0.2051906397414598 -0.09754899772451608
0.5702991597723042 0.20513929505983697 -0.02804953299678914
0.5279749071798392 0.21680584414987436 -0.09408106183909126
0.5439615818687855 0.1856020510579981 -0.1485939004321324
0.5401169139002491 0.20186914106069764 -0.23013457984734487
0.18215127876243287 -0.09830158927130128 -0.07857703621121459
0.5220838488192499 0.13716871146239384 -0.11446486539171019
0.5460821665843412 0.12417606095038991 -0.1616734143594556
0.5476304168196293 0.1212931629901135 -0.2452030650614745
0.6131109493893803 0.21654457175726805 -0.06905146800846751
0.5899387168642534 0.1508033676489049 -0.13992068401037727
0.5685021990751693 0.16212552658926427 -0.17360068449522714
0.5823989720674376 0.20842258894099075 -0.12303652287576483
0.6048460333900891 0.1770274160273857 -0.1712309629121478
0.5441949154357815 0.1392312396317692 -0.1289223852311352
0.575845813964122 0.11680524838543249 -0.21349717960805492
0.5676088511909541 0.16814340922266524 -0.12247227187586418
0.5758001113216551 0.19353311155445851 -0.12365532872175322
0.6208419984656643 0.2006298298354494 -0.08764475997449495
0.547160304197206 0.14597622183384829 -0.1356287922422439
0.6453688400758608 0.14249108394636778 -0.18864470740575712
0.5538702274625962 0.13607241494813138 -0.12354733779497451
0.48810889638474464 0.15882516110772826 -0.13805803629529123
0.5161124119854321 0.12155344477133667 -0.10879293966669934
0.566313655575982 0.14047193659864377 -0.18023147558307073
0.6179578940298711 0.2581059408203714 -0.13027336851493487
1.1939338051748507 0.4726749760440754 -0.45770288445262963
0.5561801671534852 0.1894722858280602 -0.15135212676088372
0.4470570493020034 0.11562761342908345 -0.11665462934521997
0.5341093127043166 0.1443021550154242 -0.1416928998398248
0.5934289242479736 0.14156274025036453 -0.17116750838698636
0.4967317144632091 0.11093732725424843 -0.2051541946673865
0.5542860321736214 0.13924086986669693 -0.15924426210125375
0.5363898213677771 0.15531193921829356 -0.11949749500232087
0.571068048439912 0.18718787291345507 -0.1515425197325726
0.5187765125989472 0.18701388022330434 -0.09010106569584764
0.5616081156687756 0.18142003426635256 -0.11694049705320708
0.593933732844107 0.18265333728172095 -0.1655824233705232
0.6343612870608126 0.21102601432761503 -0.10242566525576535
0.5336702021095334 0.24340353616202037 -0.06909821426617668
0.599237548112427 0.20848703145090042 -0.09135924084628755
0.615067776986308 0.18490874751346098 -0.15817611229243767
0.6134642721646344 0.19570997519976174 -0.08524348594761477
0.6169452682959786 0.1560058417103818 -0.15736689758065836
0.5596742301320603 0.18997510499542614 -0.1517743439862329
0.41034450189908966 0.0012433270398162222 -0.030435860283120064
0.5312264219230372 0.13576104182750726 -0.11640584294011092
0.6405409803323323 0.2684328236013016 -0.07449977463602409
0.5861890210015304 0.16446726453079918 -0.14654825747933842
0.5312867568839863 0.16112634593721964 -0.13260507818418432
0.546433466368029 0.14847003150262594 -0.1737420708148818
0.6364842714811232 0.09365561153518343 -0.09806474742049431
0.6548527212541728 0.24408892129950743 -0.06512800516497919
0.5221637005166997 0.13533916164126936 -0.1364212990805811
0.5395641800223245 0.10262588548496865 -0.09672634968399052
0.5384249821862852 0.1499004437874163 -0.10822098683101444
0.5867718633878098 0.1836612535014126 -0.12666813617713046
0.5579296252103916 0.16454578100392325 -0.10525413941817874
0.4951566296931844 0.13347500367872556 -0.1193452473179093
0.5768580541515007 0.20861618238427582 -0.07599909545538708
0.5717724329786051 0.13020388519885273 -0.17752908825264058
0.5467670855753397 0.16770551616949092 -0.1112691708447926
0.5683750118511455 0.16802671098292876 -0.09655157860797203
0.5745644259800429 0.16693751950545277 -0.10740779608914863
0.5954941847751343 0.19347409338936927 -0.1068313778154959
0.5423971966184808 0.13092548155988482 -0.13519909481379955
0.5160844151124309 0.1658410994331092 -0.0746185060652067
0.5605493319524157 0.1534185420749452 -0.12350368326468697
0.5575964554305131 0.165000221251546 -0.10736206032075302
0.5716963489571469 0.21321955451740848 -0.012650348138464551
0.4995250788461192 0.13190946250645652 -0.06021355245070481
0.554157228715809 0.19847961949399462 -0.06098159087136423
0.5777405694967115 0.13789561797972283 -0.15658330887140437
0.555171029364459 0.1566018117463699 -0.12272289648777246
0.5625396481667337 0.15107330015376874 -0.11687884554362427
0.5297728150587204 0.11620273077309662 -0.1469331519209618
0.5399061083050469 0.09930986774459427 -0.1623740265080187
0.6635673576357135 0.21815400435019683 -0.09699456690296415
0.6206417357366263 0.4993034966723684 0.13688477559429657
0.577709192842434 0.18178476634845708 -0.1077168346918711
0.4296677716581314 0.13135928901158422 -0.06069398464117626
0.633834443279568 0.1606935205090707 -0.11181602595775075
0.5651549579405355 0.16076292510399526 -0.12644270437124305
0.6234476382465459 0.1400627976343145 -0.21741031643892939
0.5692537850307247 0.15644732830322994 -0.08294131141471439
0.6324379309147048 0.19818085911910543 -0.11287712073539069
0.5617818318498564 0.14855346817689963 -0.08466456593757243
0.5095780158753769 0.1431689561540992 -0.05593311964545933
0.610655426443742 0.17911212832495949 -0.10467706585717451
0.608029887960015 0.1313901085292315 -0.11136669231905216
0.5534506626070481 0.21456707626524008 -0.09409842637927568
0.5534951547987248 0.16081359877875911 -0.13164999221314133
0.5415470125685999 0.1778939975045546 -0.06846548994002433
0.5850280285744134 0.22517566450332538 -0.08429861372275127
0.5511925448822979 0.15507400877822874 -0.11985280684200461
0.5376644758712814 0.187159270018455 -0.11861756155113312
0.6618950739907916 0.19497790992143393 -0.11238864566183793
0.49587832599473813 0.14131852673851597 -0.11134952044409374
0.482875750384693 0.15476827518791936 -0.1743925261816628
0.5975204128252756 0.1872432500914698 -0.12242611867964115
0.5174666945042645 0.15413654429575274 -0.14784076217264897
0.6130040844151097 0.13260884597605127 -0.17364980987559875
0.5951914582328186 0.17956852698300452 -0.10822773633216798
0.48368021192621313 0.2032860584432825 -0.047311059835550395
0.5244577537500277 0.13483126607839324 -0.16825787560776462
0.5213636771702852 0.16809028986341445 -0.1271427512175194
0.5371199039471151 0.18788357375640885 -0.16083549599204616
0.5864109323980529 0.1789622641482822 -0.0920448452311291
0.5817882770512028 0.18012539383128967 -0.061701789092836634
0.5090131956901587 0.13802100708215903 -0.08600869865372829
0.5418997104959828 0.1775629885006964 -0.08700524966380385
0.5085127844081683 0.15837498248509974 -0.15383813443403938
0.5344701933361762 0.20044836680759204 -0.07064961089955091
0.5109601737504761 0.17918295155891428 -0.10539442371560881
0.4643405185294398 0.17497579360815507 -0.11177531412965891
0.6194415007710177 0.18580606152839607 -0.16570441902771904
0.5762356217088325 0.1547478768092958 -0.10931730949192797
0.734108071948242 0.1911636767702305 -0.15188263922865985
0.5623640520404081 0.1283200743683608 -0.05981197998141852
0.6184714760926795 0.1662783567955728 -0.08381658753657462
0.6329585566928131 0.23137326054539642 -0.048342386935559034
0.6018868429790132 0.14536615236825412 -0.1333318364096101
0.4642199597727483 0.1340263695107069 0.026860064614908197
0.47282219998137975 0.12494688227248218 -0.07736631388655724
0.5656854064354775 0.12151738940787027 -0.016834483725659766
0.6000425334511021 0.145149662544938 -0.14048493062489342
0.6141564945889115 0.18122822218278145 -0.18230782387053068
0.5058695616908153 0.1287480079094223 -0.1136629077960265
0.606296583974995 0.18465018410834944 -0.14953398462503742
0.5626903829234777 0.13951244600374935 -0.07384442289878734
0.5683093791770091 0.17300506016924544 -0.08975158142195028
0.5498174885196931 0.1443037093517887 -0.1345012594888999
0.5798999779512712 0.15978082976920405 -0.11977954010859548
0.588592002725818 0.18026816357493658 -0.11068594467258208
0.5864138485041792 0.15860797506084623 -0.09076729917788384
0.4962080530891342 0.11106434445629532 -0.11483030354136758
0.7786072574643015 0.30175361210905294 -0.05298080771160585
0.5151904843160651 0.15794072036175066 -0.0936767779197396
0.5519556697344399 0.19927323061202173 -0.12213598468304099
0.3977510210178252 0.11028614833179518 -0.051838601069903234
0.6016610051141527 0.15917935995939558 -0.12166821427425134
0.5447056898197218 0.20053337931842918 -0.05275350708353699
0.5362570013294032 0.16590934537619262 -0.1279542918372556
0.5478669947715673 0.13484472977599182 -0.16189422926603925
0.6286603791635059 0.18896302368384 -0.23095963088999838
0.5770355662191378 0.2311233261686425 -0.012783390230055147
0.48384063370178865 0.1875282837742418 -0.11088117518380614
0.5552369804429702 0.19800582416013413 -0.05415968371912072
0.5426037652944444 0.1491800293938894 -0.11856847574102858
0.541805734342887 0.11222540690540939 -0.15742691548777543
0.5628861452547653 0.1509786018416719 -0.0882521699047345
0.5100946935716593 0.21557202137169895 -0.009502292435797699
0.5269425311271618 0.15851580715788316 -0.12337574556943309
0.5761386797018133 0.2088103473427907 -0.09627533267970989
0.6227994503609295 0.166566738530193 -0.2879457932075411
0.5358323828352525 0.22992708407888074 -0.03788594947528168
0.5664038439406056 0.10017864890619421 -0.13694588147055242
0.9622861784792462 0.6112548274747382 -0.18434474510112864
0.5369623515083788 0.16554687137758606 -0.12829591557590447
0.5868766694479177 0.14289240589909014 -0.17918257484643618
0.6807216350681529 0.30528926571659554 0.003041552028321348
0.5540006764320538 0.15819523558953108 -0.11809660736949468
0.5521766301039577 0.1257782148479123 -0.16047499193697945
0.6129205068391173 0.13597675623867644 -0.12802162446135412
0.5553268962364086 0.12302581700950554 -0.16207147166392133
0.36234003177361274 0.1211345259876282 0.0008535498296851074
0.6547429743514783 0.20558455207149962 -0.08813097080522425
0.5438130177994651 0.17248958210470278 -0.04492404766972413
0.29514614306361864 0.1461185450062743 -0.02331079900247346
0.5514196892176528 0.17299364568457065 -0.08527037215262112
0.619100603446725 0.08143205301286116 -0.1933185425903048
0.49361700274332065 0.2302283264096161 -0.00659068923630457
0.5487286043392601 0.1369456457868381 -0.11996353321939068
0.545306272714356 0.16359780121022993 -0.10160295741232517
0.6296124648003172 0.18798666509518114 -0.1104305285907401
0.6002486471811892 0.17963754901489892 -0.11395284173022446
0.6688419832658496 0.15629778720106913 -0.16297876222029117
0.516482638971155 0.2094615676823537 -0.041998557425785066
0.5789678259693289 0.21118825104110783 -0.07731578030652031
0.5898658619061052 0.15907900886929838 -0.17233612976397694
0.5866319824447714 0.2710264523401804 -0.02923696926552566
0.6386115802003758 0.19824316293001232 -0.11681646668890266
0.5500239600214059 0.1573934781617652 -0.11300425441262973
0.5620377628353879 0.16586059658924057 -0.10402864621207186
0.6334874984333112 0.20910457428341545 -0.07892580815803285
0.6336183643019524 0.18236653850927098 -0.13028372506144592
0.5229576928564086 0.13881202964357442 -0.12743132431754134
0.5719354849705951 0.2274187320676191 -0.08603981520738557
0.5504917974328123 0.17031862574334866 -0.09582775327615423
0.5679040056652411 0.19375086662560648 -0.12455173695983035
0.750265306891464 0.6974579838243784 0.03564284338128232
0.5507470837861206 0.23666293408645345 -0.12441737106931328
0.4032546888935258 0.08526451769964183 -0.037214587071161986
0.5430387744866891 0.16470031105365024 -0.11249589181323927
0.6225175571601085 0.18333231905486969 -0.1522936319596795
0.566021814909476 0.16332048641680785 -0.11411907545797817
0.4701992614611754 0.12778213941726335 -0.11203151066831651
0.5365780074616282 0.14172832418920223 -0.11163559981648064
0.5838701799345927 0.15783262552594124 -0.17033852391992355
0.599987285755816 0.20825639716656497 -0.09986420332737111
0.5423235304029959 0.15111601082398352 -0.14350104950770515
0.5157079229140891 0.13751294430430505 -0.12878583811905742
0.5666891640881886 0.13047357310246355 -0.14015282461676293
0.5681637347080368 0.16207787725120681 -0.1271671916281889
0.6147812080054678 0.18280923586851827 -0.11989397258287227
0.613822993548581 0.14643328559468216 -0.15648926105484406
0.5766367436104929 0.23554461410196836 -0.10105209255715408
0.5692656602930981 0.16115897825915226 -0.13139845262941208
0.4957545813995239 0.13838339062121463 -0.1110185049338952
0.5201781480788554 0.16943453125554697 -0.12700479561610223
0.5663749109336038 0.128204588995672 -0.17183622521383768
0.4573122298905048 0.10203798531853181 -0.18009331578704746
0.5155853277929339 0.154320155389442 -0.0995319130496739
0.5694431580261607 0.2308833292343877 -0.21590528219439875
0.6253426967171265 0.2065231342539704 -0.07806248299195317
0.5693765873776897 0.10040104728993526 -0.20514926050748272
0.5456181298491174 0.17610645195357222 -0.08301059789494047
0.5543088971179202 0.12930851801252174 -0.14172113388357843
0.5524825473598014 0.1139821214945016 -0.17742962573865384
0.5735048029636403 0.1911027305512647 -0.08649735214919474
0.7337810061049197 0.18252495830445525 -0.11413769238419036
0.5075629382673696 0.1436537403392748 -0.12353509070558744
0.5829482615442316 0.1600654221733464 -0.10036327710486148
0.5769867421465733 0.2640333725885995 -0.05682312868026429
0.5243969388891685 0.1757538609594178 -0.06356215675856447
0.5869736014733178 0.1648594559323442 -0.1450624538725549
0.5840733332709647 0.18199907986407027 -0.08237788219346953
0.3755571542705525 0.07772447233449498 -0.12332433778485097
0.5951169803895482 0.188262499222418 -0.12179663824733211
0.2240157056351677 0.030064551822945873 -0.41618381729102794
0.5518757043766698 0.22093723797608789 -0.048390666633395085
0.47689964720126454 0.10262242050974635 -0.19301021969945964
0.6055813939290431 0.19252945491398066 -0.22423222526504105
0.5099797487707178 0.13500254940110779 -0.1489703199456187
0.5839120652750864 0.16345286666538072 -0.1207229190510759
0.49428191420557255 0.1583714232890543 -0.14987003805271115
0.5533677048827315 0.15391948678714584 -0.11577141835061866
0.5990334504444377 0.13687322658630308 -0.13798180733294885
0.5221272575261935 0.20351680368267466 -0.07687844344195582
0.5432400352918023 0.18246783276258327 -0.04823609594137679
0.5989515612991454 0.12317569350074109 -0.13817479301164326
0.5691036990001521 0.1692572010449851 -0.12429430969089594
0.5568651313743658 0.19857420715931084 -0.03528495205560489
0.5863234717330954 0.16184169751880972 -0.11562953176871815
0.5732052475456157 0.12571468780899409 -0.17539829728784184
0.5874649146217621 0.11410779343914612 -0.13626884094799152
0.6370106953398533 0.19945912532003263 -0.17519482695468014
0.08565054754492962 0.9229527825222306 -0.3823532449462448
0.4666908491376489 0.16548485895992826 -0.11472842952554174
0.5200604918385636 0.16173055790724788 -0.08684557544390259
0.495038150845744 0.23533320524239798 -0.03913324569737142
0.5323471929393122 0.14898203147079414 -0.12047229140301852
0.5443712968481975 0.20414236526985974 -0.0917909427973882
0.48366268862537254 0.1428736804799371 -0.06660140666363645
0.5002100230611859 0.23760052953230115 -0.06819800109420271
0.5868418867909497 0.16966771473096287 -0.1157354024509516
0.48503107935539447 0.21480670784303868 -0.03996002906268359
0.6037186837965862 0.1304717839723395 -0.19066487791576492
0.5497432374304481 0.09296219588246402 -0.20422135268449892
0.5350982939288258 0.1240798795476934 -0.12047602001655378
0.47068622675442384 0.16981530896703134 -0.0810571590919551
0.5811931889703033 0.1641508917433896 -0.11783048241096594
0.6958358232968465 0.08321268252417724 -0.01691690659677647
0.6356491396673789 0.12819913383741266 -0.1696714609666401
0.5570017215372332 0.16343334316317737 -0.14120653195652721
0.6023647231693587 0.24945189974090454 -0.03727889881551505
0.587040489516852 0.22124453068124694 -0.03676150321012983
0.5396047808506808 0.18661751187271136 -0.0776361965972967
0.5257008246763633 0.1869420813117415 -0.08000269707949315
0.6905103234917362 0.17407679151729383 -0.09872364141858725
0.506003464695425 0.1503567393930325 -0.143656733482743
0.5618290024724786 0.1638191368342774 -0.11629145695440002
0.5391114647727022 0.17424694712399003 -0.027949089824318207
0.5438664755019431 0.12882650618536218 -0.12035790163668025
0.6139140321065781 0.13123063762837717 -0.17178482908374804
0.5648688979195242 0.16690370174880798 -0.11511224582895352
0.5334965962636602 0.1889563644387806 -0.08456068497457636
0.6058448258287683 0.18551497545907125 -0.10106569020268807
0.5421978508642269 0.15825120206407917 -0.13980099647099564
0.5167239284430423 0.19929992447498535 -0.06976614559943073
0.4651997441414153 0.13943886602025657 -0.08560156701560118
0.6859897040291401 0.23225617778540197 -0.13759331547686315
0.5014227516905407 0.09959066216535462 -0.1459866103079719
0.2695781247627451 0.22960731578830007 -0.4747387385223476
0.5174093377518716 0.1332376861479787 -0.16451422893658219
0.5588664143743927 0.16172850254643834 -0.1038535796804183
0.5609365354480644 0.1653227117083702 -0.10615201717050127
0.6020725693384748 0.1310776058246148 -0.15812507251894203
0.530875714422649 0.21105457549452922 -0.06784185943411103
0.6580702051606693 0.11560328127818309 -0.26809643417774964
0.5621636411655118 0.15673769895273892 -0.1245121855803859
0.43384635846013 0.12750266990664727 0.5436634593728797
0.5624102901672927 0.17525125621726545 -0.11127181653790785
0.5705361723842941 0.16833816893243636 -0.10289520130118035
0.5293288008024035 0.09231173221529332 -0.21684976903696906
0.5740612450672415 0.17312052714554227 -0.09162801611546456
0.5595472335866418 0.15205487060531198 -0.09415145384650714
0.5734588759809469 0.18499997115189615 -0.10901756136482277
0.5616898593930557 0.17368282024288817 -0.11098696779578177
0.4985626366950271 0.12077606978751021 -0.1258172327173952
0.6044729235827049 0.1810862280136547 -0.10907202628851564
0.6074956580193032 0.14946691926600408 -0.16536358781431204
0.5113012189704591 0.12223588833175825 -0.14337163077021842
0.5238078865277487 0.14078618860141034 -0.1310131924612108
0.5627547597351281 0.21288238078473398 -0.10515914256225756
0.5676892857791529 0.1876890068211594 -0.09620726897759369
0.47704419658373354 0.2176145914517491 -0.013561849521749991
0.6179153218010072 0.22890617595793117 -0.08088247434204732
0.49777598639451526 0.17344333443080018 -0.09158063196923649
0.6017371918417496 0.21175388883671076 -0.09304314580484174
0.5301113587269128 0.13645395935412807 -0.15461510242386112
0.5272757664474454 0.1423113712502726 -0.13428632354487036
0.5689572783039125 0.18598768641670915 -0.14576124739576812
0.553001954237061 0.13570823199950155 0.14592409136065498
0.5474837443753415 0.15585680357948206 -0.11346020539761525
0.4763023203899479 0.12921591638053087 -0.18291515006833947
0.5361976814318723 0.16589146904490804 -0.12941116514875262
0.50108254618047 0.055064893043606844 -0.1688876621075508
0.6381761918105155 0.20303238228427745 -0.15735088202075076
0.6266517063626225 0.22840743256782048 -0.03324148422154849
0.6058962318253123 0.16021079463355647 -0.12399583282896742
0.5428698661646649 0.2168235244474488 -0.03952930700745583
0.5093758765237624 0.11179830107658972 -0.15714491958422627
0.6019943105999062 0.11177543776349808 -0.2320163466295071
0.5677081286534644 0.15411344785650272 -0.12165566415310991
0.5451870935007719 0.14313878555348936 -0.1252210896376198
0.5640658581967841 0.2113810328960426 -0.05689719800076887
0.5761798305870514 0.18131816030658854 -0.1276658865133129
0.6129101296175463 0.16586367921247813 -0.14958101779947697
0.5346145895536267 0.10434876964049522 -0.1594611524065499
0.5636696912437742 0.15788100515582926 -0.13111562953704947
0.5672590394853216 0.1795722672361535 -0.09402749786184472
0.5442677967713792 0.08364705486047797 -0.20904801057236
0.6313443667292802 0.18118612921664123 -0.07772633640567506
0.5613239772032443 0.10511751285552862 -0.1516561745137608
0.5413294628775702 0.177508299021639 -0.07953270557774772
0.5638248684421399 0.17507529181405346 -0.08107489524363132
0.5629458708851018 0.20493584492517414 -0.0928685164279841
0.45599182790905957 0.12772302182720807 -0.2658214577206479
0.5260924519420769 0.1416121680042295 -0.08387543116450047
0.6110089344947482 0.1939967380680656 -0.0913432648939363
0.5454019423756051 0.16135416028555483 -0.09778063941652704
0.5918154101222513 0.14895698299322646 -0.1732816588123285
0.5286328746915672 0.20227766677530212 -0.07466868655666303
0.551719200791382 0.2150665943002963 -0.10448806531425703
0.5442749879664177 0.16207297207107274 -0.11307574315338798
0.5857724600059839 0.18518503487622695 -0.09645510948732294
0.5616653077263436 0.1886533269991304 -0.1063177322407114
0.5929675751258401 0.23584458135296416 -0.10468877805908505
0.5798983194658831 0.15995711572440996 -0.12249623041856239
0.5032257222411545 0.17501928550366586 -0.08136186612819074
0.5649950960570038 0.12660180135348753 -0.1763340332592236
0.5758622662097252 0.2425759560553189 -0.06316258827280308
0.6477501409310094 0.20329900260607303 -0.05327198957752444
0.5465093323092844 0.16572843634877188 -0.12561356316388128
0.5631877413455584 0.16560130341709112 -0.1279360314032374
0.5789328237545988 0.17534514850241578 -0.11126903160811707
0.5373452904457281 0.18576692083135526 -0.11732213294024518
0.5194497139252121 0.20654083294228087 -0.06234281762559135
0.600822884708549 0.08467148974536087 -0.2388271099631254
0.6682839593407266 0.2071984047375679 -0.20839991905995703
0.5597624432929535 0.16234992628120892 -0.13374964352192364
0.4926636312096093 0.18234053364368208 -0.056284086678829226
0.4862649637305765 0.1636853438977397 -0.10978103926311178
0.46679756989189514 0.11662030855686112 -0.14130223400306363
0.6113909535427808 0.16946761758632078 -0.08418448640833276
0.5536865648223568 0.16860015578657794 -0.12158965412913858
0.5148699134255423 0.17916639054249117 -0.06535951941572193
0.5143901571883873 0.14291872551022777 -0.14482009173835309
0.6096400638772081 0.19134401607922769 -0.10125146299651533
0.5671787743113157 0.1604494693942371 -0.11563448359808604
0.576176955118342 0.13880417265822587 -0.1349968298217732
0.4741211622631454 0.280231578939933 -0.0057334291125528125
0.4748017055955245 0.12016336078532674 -0.0838414615602403
0.5461105404255591 0.1610255945226413 -0.12421464945583693
0.49581630921818487 0.20122519096342728 -0.055872323215112374
0.566902994859646 0.16882716923777252 -0.1326117476246509
0.5361445651844008 0.14260650052854373 -0.1411120119772704
0.534472817836189 0.14826027214176918 -0.12568165101774298
0.5587643782911584 0.1523476315249468 -0.12160691870352025
0.5757829707985707 0.16339652449288167 -0.11597621842352623
0.735773233924391 0.03534141101664545 -0.1620064165414874
0.6250180747858565 0.16184345180745652 -0.17027988521232373
0.5389824032165222 0.14576222731548683 -0.14246927791890585
0.534580696333478 0.18723375224082872 -0.1056926165105665
0.5266242820116247 0.14399942690118905 -0.17290028797779655
0.6048921719386442 0.22082284677102848 -0.08531024902455897
0.6104064130962001 0.15465060003330677 -0.15541708157090284
0.5385062012884987 0.14155085103860188 -0.13991476039080908
0.6126734740612676 0.19982800513540155 -0.12143009560492146
0.5917117330051553 0.17945831475077512 -0.21053075211207783
0.5298268261359738 0.21829983636776262 -0.060657744444455375
0.5801499109888937 0.1742225642908295 -0.12198374454396799
0.47725546192813795 -1.5292492848837753 0.2319357943726743
0.6669507349573678 0.2320217306717467 -0.1656886460189071
0.6268469988183085 0.10361848116950512 -0.18118921929601584
0.5415249790673897 0.1423828360778856 -0.12711930584424636
0.6532175142109224 0.2281010746211507 -0.09885583669881726
0.5804925556785463 0.17255030549935668 -0.11759497990462364
0.6927698345826059 0.2954887216059632 -0.15365327881758617
0.5875814058308322 0.1615998773878573 -0.1334796018560951
0.5460829171480555 0.17453791887598413 -0.11976516154237515
0.5218283375361352 0.11445991772788489 -0.1777859861581419
0.6431841023096752 0.21806456801093077 -0.19002978008117566
0.5879895294435187 0.21420535720679368 -0.058909785301722195
0.492574215514054 0.19177751166127166 -0.04119974252799352
0.6363215047700805 0.18580471918292574 -0.13480313762286755
0.6790504402947874 0.28308796459354824 -0.17987458059988626
0.603364761550182 0.16211560600751795 -0.1451961545551228
0.5679566363702975 0.18423636044954605 -0.11333703867853728
0.6562181846471447 0.22229949670000337 -0.07354009544366136
0.5806271606153075 0.17067449652144262 -0.10999091445557951
0.5668425237961685 0.16092739467838157 -0.12450297780046071
0.5830954245635951 0.17846925265075697 -0.11291814025361191
0.7325668751604439 0.21584481246198095 -0.006877075851633663
0.5120049424188551 0.2185552872732046 -0.02682855867109879
0.58834765964491 0.13804949926986865 -0.11618139661624127
0.594103993809739 0.1815803272488523 -0.10285624218948897
0.5791749549018732 0.09019850024992593 -0.232948764571546
0.5221622959193155 0.11119232046645777 -0.161230666523835
0.5901410548314914 0.15937266728421662 -0.1371421895056244
0.5511163328457087 0.15332962017440366 -0.11936448094087382
0.5250767950043382 0.16947084049438388 -0.07573070219598321
0.5644636968118562 0.28801584835827043 -0.08493770653089427
0.5822475843267796 0.1671597015087798 -0.12563151586383015
0.555056518979768 0.15281695145718288 -0.11693868203224156
0.5988873429085402 0.1678755658987967 -0.10661184076164432
0.5186667064730273 0.13396884558832767 -0.1269868399184304
0.5577695124349304 0.10706358558182671 -0.14071721576380014
0.5826526682871531 0.14482946451951761 -0.16850019803288774
0.49720064998021485 0.14207511977699028 -0.1068896767108356
0.5409626435199186 0.1990985918374406 -0.03713382118567665
0.5829880608060876 0.17337150581211347 -0.10807034344375666
0.6164791828370255 0.2062847262072296 -0.10827825434873262
0.4840062106730727 0.11747750407197088 -0.13739919120990862
0.5386436797964791 0.13340554355497147 -0.11838975954881903
0.5546225593336374 0.13897307749330423 -0.1324003870242052
0.5741527915918141 0.17709320722593702 -0.10572359488929806
0.5456604098536388 0.1975278839917678 -0.0668538835562913
0.6051788649952243 0.18913338585520023 -0.0789604169411291
0.47460244056946976 0.1643051497199508 -0.10991030128715806
0.40600919711769734 0.025706729095162473 -0.026061137973442783
0.5517314805430544 0.15107166061567057 -0.12168515715765693
0.5694525423657808 0.15465721345967154 -0.1447876494667355
0.5841676154813911 0.1727074046090138 -0.11983329102639573
0.528312152298497 0.14284744894105472 -0.14089274324373946
0.5017509104380338 0.17846242211005858 0.10373780890665785
0.631256850537568 0.19699946832668047 -0.12682027797055184
0.5097981779468341 0.18359820777033065 -0.0694406744647722
0.6030909898949801 0.1788440297037539 -0.13058660968388835
0.5722599065838665 0.17695810354337027 -0.11516681974330822
0.45183110531510806 0.09731830900058469 -0.1532555639790587
0.6439117158304555 0.20018104439188278 -0.10357228439195865
0.5891756064126241 0.17484854927990057 -0.09884492772127373
0.5180686168517639 0.15949663984940798 -0.11738324876137085
0.5457449189968315 0.09753998057188085 -0.171846426203615
0.6037056435757222 0.17398723452173215 -0.13017996983987246
0.5522661091481496 0.14992742046661078 -0.14656115216001808
0.5273005933863146 0.14129595639238346 -0.09473849968406967
0.48447705897220317 0.0958697241179749 -0.1082646031663046
0.5813100678962826 0.15299848912977154 -0.14106039332395426
0.5584805616496737 0.1812952868787363 -0.10406517551453476
0.6102342896799939 0.16679878906880674 -0.17351263723276134
0.5991982595102172 0.14453673962945857 -0.10855588076566391
0.45054422053812004 0.1388688296624423 -0.06107316461961432
0.5325252381487076 0.13960572144029015 -0.11309172816427804
0.4918126144568191 0.09855088970277848 -0.17320840464739717
0.5198549577763458 0.2292110414195605 -0.08861383661434274
0.5398885257985739 0.15302117613728683 -0.10189885749727523
0.5675763879614237 0.13894270425431898 -0.17149494869903492
0.44052693965923595 0.2189688633190059 -0.10633357259257536
0.4505815072177768 0.14251634741869168 -0.08472277205959244
0.5501110515700418 0.17601292110512645 -0.1280825186339598
0.5504070439069153 0.12389367038464627 -0.0753152991345587
0.5486076264154178 0.14362999337758708 -0.08251718379668205
0.5661816072216652 0.15267028834939822 -0.1144689185305765
0.5446898821119532 0.16257543364882565 -0.11754048501464354
0.5594565828683642 0.16273382736460462 -0.1265302951714773
0.5541958100744182 0.15560152333624444 -0.12467345011651787
0.5516546161777853 0.1434769266788436 -0.13382119666877657
0.5102420666888179 0.12204970837565554 -0.1388715583985629
0.571979540627666 0.20439413188820765 -0.09765028957940558
0.6432282084483916 0.09267152024219172 -0.12921449040612742
0.5354840573421029 0.14159435211767857 -0.12149508382921681
0.5479384025871639 0.13148036245777917 -0.13022527296200792
0.3816322553097109 0.1813783231417858 -0.16683245298287375
0.5330886561846739 0.1284542639450592 -0.18826241214097195
0.4690280328150891 0.17816845124389147 -0.05908201750494868
0.5198330166159053 0.11975495122459279 -0.12874781800260848
0.5745265798526304 0.1502946529632112 -0.16480977285965537
0.6451034188650624 0.2008945400919231 -0.11915186527639321
0.49492463979782997 0.13646688838746002 -0.10626562273489526
0.5158874578381187 0.15469298444709523 -0.09973867153257743
0.5376189908505182 0.16006282400739735 -0.1222295425845914
0.5814997442730316 0.20742211115791065 -0.07199039862814516
0.5142356623289004 0.19163840028100765 -0.06776941456993768
0.5402350525878035 0.31165807091318243 -0.09224688045807738
0.548836107953349 0.10500763412453296 -0.1292019198289438
0.5862349957974118 0.159669326702371 -0.12830624123625967
0.5285156448448447 0.16578615634908545 -0.09632818573467716
0.5950633504779432 0.1623258535422849 -0.12986152590497113
0.6205655037732924 0.15680567246813837 -0.1427280828832238
0.5353542322707199 0.15864761805944738 -0.10198794044259785
0.4245489940759626 0.12272051596342237 -0.0865260183325347
0.619771549553576 0.18631336035070944 -0.12176783463218044
0.529123196047351 0.1434445929100292 -0.12737830371668224
0.6022849920489932 0.1680538164922467 -0.12233427373843142
0.6866408797018551 0.1418056593746826 -0.09289443585532808
0.5624996662386934 0.16711626034343396 -0.11367751278018545
0.5729618598179229 0.18555241101456943 -0.12119988905243417
0.5077746610000986 0.19706927423004572 -0.04869454175420174
0.5554904781020014 0.1669456429454641 -0.14604324084399423
0.567285968308596 0.1454028378577732 -0.16031630149925036
0.5007483029758077 0.1269431036198938 -0.15974632218416218
0.5214751670683597 0.1086655039924409 -0.16853143711293228
0.5866626697166453 0.17762256417373123 -0.08927317064677709
0.5354421463980259 0.17380406275431426 -0.09624626312384521
0.6204412616500008 0.22844735633827895 -0.07199700448902036
0.571166341384469 0.17104745734745563 -0.11731868448333671
0.48969312090403605 0.12657031069790037 -0.10825700584564402
0.5269747262693727 0.16324697379945974 -0.08365574253377872
0.583689972045363 0.16102708738104354 -0.1197054663261099
0.5374586631239993 0.19646648410297018 -0.04798460041291719
0.518420676647338 0.15349460273934312 -0.09738480528602622
0.5625140513678275 0.16188386950737765 -0.13074820054902148
0.6427361545737824 0.18537710519025552 -0.09711965579853654
0.5561306044750154 0.19796082567293638 -0.10138754447024212
0.5676620274215338 0.18249429356067992 -0.08819024475036485
0.5032320138683133 0.098975790001262 -0.17838295915819913
0.6092364000955968 0.2079395855007391 -0.07334161790299731
0.6151317423418163 0.172340656974157 -0.055898848757351516
0.5473459308969666 0.17070924642327157 -0.10778552914675288
0.6138754219004738 0.20560377391824147 -0.05535435699863456
0.6080895512832285 0.180691126503163 -0.12524866917314625
0.5438289094639117 0.12658179357218557 -0.08318536599881554
0.5567023078988314 0.19317635288297197 -0.09113147308002567
0.5436962050290219 0.13493238425616028 -0.14007375783413067
0.5564914445498061 0.2200164835306282 -0.0799787283452531
0.46666299096136754 0.10200908115477603 -0.15069873031634984
0.6003068499207984 0.13870702945544622 -0.12434547630897441
0.39021454430817926 0.18995228164325795 -0.18671250436875653
0.5547286647995975 0.10737449629846196 -0.14466530408211042
0.41593212198063156 0.26400678091602003 -0.1051148115231797
0.48634176816787544 0.13547745371023723 -0.11345213505458673
0.5682961515401246 0.1741725550158435 -0.07158487781981648
0.5175337597101759 0.14864524468450213 -0.10462175980617872
0.5716854060726178 0.17636039073532572 -0.16561571939220698
0.5642027183816936 0.15214583513946422 -0.1327585404937679
0.5029817308195561 0.13764893578283477 -0.1146160872906421
0.5033660531509838 0.15959082004194158 -0.052959260297512856
0.544696636433514 0.179832432540195 -0.1716115875629498
0.6340147079071698 0.18853329539592778 -0.10794877973737016
0.5023472301592733 0.20772423765876624 -0.05563515313536982
0.5814376991322376 0.16132333693262524 -0.10998544402951893
0.5048346887412265 0.11983885256984195 -0.1563424196131109
0.40749114795278274 0.20140375566812452 -0.09233934233921559
0.550506863914336 0.13695176594171699 -0.039646196439861114
0.5203601711737917 0.1757358571685188 -0.08038203659808119
0.61111061900084 0.16599777117772874 -0.1486588379986813
0.539166806741946 0.09888755471303057 -0.17270150496312908
0.5437432667168309 0.15743411457393108 -0.12657641928254293
0.5543680553290642 0.16396172295920053 -0.1206255202120019
0.5765416108710326 0.15538097269178763 -0.14181005583392903
0.5477306916982627 0.09900951206519437 -0.08745145052895964
0.5827781734795394 0.1356714527490368 -0.1618885315039904
0.620038161699398 0.19080704777985602 -0.10842627323756915
0.6298643922126814 0.16615035585139992 -0.10972814790554253
0.6086665522306589 0.11599944287604558 -0.17308412859119926
0.5398856959877776 0.14925492153757602 -0.08976676829706776
0.5117599146077794 0.11654514883156253 -0.10806655666004872
0.6185548717447773 0.16646420874612033 -0.1065409647799811
0.7530065162563346 0.03953504266799257 -0.027079448112118598
0.554988082201163 0.15427946658829228 -0.1299660140138883
0.5369224664211174 0.17325563925429321 -0.1310218168578956
0.5803668467542309 0.23862963343276533 -0.007952421798734122
0.4974247604094444 0.18903697417694332 -0.0905917363522235
0.5191575459245144 0.1559351935153046 -0.11062627621589627
0.566742887184887 0.19278129576396452 -0.08771881908819523
0.5819104752078204 0.07865898007599981 -0.23042656661331762
0.5776260478663175 0.1727541362070184 -0.15835270742329044
0.5805685339250601 0.1596911766741158 -0.1328396486114798
0.49820931731565565 0.11340001944418532 -0.17606986384743095
0.5679807338159151 0.1133943062763052 -0.18450740728479786
0.6279857959401909 0.1034942534237615 -0.20559598200398455
0.4862257263016261 0.08464945472410079 -0.13154996397346963
0.6051469120125432 0.22882127721855738 -0.13144489907671186
0.5707800876060958 0.15505079911908126 -0.10879745377056338
0.46949062884155524 0.10226537968607374 0.026319626129492235
0.5980208701554091 0.12313228911402518 -0.20706207802246013
0.4874881774641153 0.09834435986023493 -0.17020232164315985
0.5753683378509038 0.20667160235545623 -0.09767750521251628
0.5276393575533689 0.14095387899594414 -0.13900921043398284
0.5464193958894725 0.10143239050661634 -0.2256271787431956
0.6303435946627758 0.1234544757009246 -0.19146836535313128
-0.8703701763831191 -1.4658294294171696 -1.689553358239067
0.5887863229792458 0.23993763644085675 -0.09891107857950487
0.4990151845156561 0.2014484801132852 -0.04904393029056564
0.6484832646247298 0.21221879891488982 -0.06761825701238422
0.6719060353206601 0.21674871993408829 -0.12107586010097293
0.532936593168273 0.1498967094237429 -0.10497540017476581
0.5393383100727647 0.16015380624021702 -0.1289992367319428
0.5840401864395517 0.13043224235403272 -0.16636025052400782
0.5753407072805032 0.2146096537814799 -0.13293291460692558
0.38858451564991014 0.17334923139701175 -0.12919512530416455
0.5679399769355484 0.15954474113294737 -0.1391127392851388
0.4466172854934882 0.1556734379714726 -0.07309470962439946
0.6160119555537449 0.14488939172639448 -0.16292279627595008
0.43603829563721774 0.16873269925390844 -0.0462807408497099
0.6689279840337861 0.285155564888683 -0.05232785037011922
0.6331307103302208 0.15943184887957784 -0.17209422003355712
0.4970202040738627 0.1605520781675409 -0.14478580474246883
0.5972585441856211 0.2079422753377429 -0.1227598694361518
0.5149355701974514 0.10267369779880653 -0.15912241473878908
0.6150687257451182 0.08609049271852598 -0.17055848846084132
0.540883927761314 0.11652767897324168 -0.14568782262418267
0.5860330520010564 0.1483644205048904 -0.1844263544569742
0.5369397508624161 0.14597109804688557 -0.13368931720739852
0.5532650362039533 0.20921473265198642 -0.07727824345715817
0.5622734275364394 0.1317703320519854 -0.15966409637331935
0.4987479074372345 0.18522220694686098 -0.04970721529426214
0.715382720282804 0.18678217329772906 -0.1709757639954148
0.5951786263973418 0.22042674723213906 -0.060944547610631616
0.480983726105336 0.11728103233843967 -0.08424528362920114
0.5600143005094935 0.1108732775131216 -0.18665436201257535
0.5954432279680759 0.16709952311310872 -0.10756710405414083
0.6292039725323946 0.18002952670040884 -0.168328884946078
0.4203617954549941 0.11069594446782105 0.00755760590473642
0.5413177588808082 0.17865708333025054 -0.11987440443473929
0.383649392718695 0.2755023292143335 0.16271936191088798
0.6517933854974274 0.14717540422896036 -0.1729908470738053
0.4995702226412675 0.14790404291646553 -0.10700751029486355
0.5438601453302283 -0.02605178330784952 -0.2866440687721763
0.5700275938122843 0.18716586694526427 -0.04543144274066435
0.5606825194734881 0.24192145974627977 -0.0743530961477461
0.503210996271406 0.17143577599918558 -0.09115821037056548
0.500747398669489 0.18704722792506345 -0.06168524558677291
0.6376559169438849 0.16557456653963243 -0.13772865049824645
0.5549028194067205 0.17352058771932377 -0.09960201257311496
0.5738425503141684 0.161034327450281 -0.09174562230120387
0.42038351097460236 0.10214921866804616 -0.10092948858360273
0.5398613311018892 0.3034647398675929 -0.021237546492642423
0.46105166335283343 0.11232228452513482 -0.2243248900791457
0.6464118251769833 0.15791094649546267 -0.05974726062629543
0.5670246157031045 0.21523769987349795 -0.05492195363393648
0.6132734408041074 0.18897357334604692 -0.11466845614765475
0.5979481823508479 0.22055591507735528 -0.15492513427784615
0.5236295563756812 0.11390445198088628 -0.15002443205960958
0.5520530718050054 0.18116282972225406 -0.11500929569987761
0.6538239924917661 0.17800630942301154 -0.1935700748771012
0.50888690478223 0.14659077694894052 -0.10688642498340073
0.5588543732610844 0.21373956473915712 -0.08412766801475868
0.5035948746742633 0.15094459878505972 -0.09473430268175775
0.5210661433114865 0.1798123681146251 -0.1212121197936824
0.8624999677455776 0.2601889069776746 0.02894958675540238
0.5044227522953975 0.08965348177191856 -0.09633486201889241
0.5861694020337325 0.16042176058076052 -0.12313556777334611
0.6491239789880012 0.1740222206514801 -0.049077371004528914
0.6215579551112285 0.14244036033390728 -0.17717541227477795
0.5932692761843157 0.17791935641281498 -0.1328365496096353
0.5255769568686901 0.13358398583618225 -0.12384616565225315
0.4987190162887032 0.14790972904135913 -0.11881071815400901
0.5429640674189784 0.16018929244988556 -0.08978379241636958
0.5352249476387385 0.06699318014145206 -0.23823080954207398
0.5655690714255854 0.10303452219302756 -0.17436513943985688
0.58701475620515 0.17184332067604657 -0.12463474557125664
0.6052593383874978 0.1565815384812339 -0.12772529035947855
0.5764804985058163 0.19101795235314967 -0.09871630294952638
0.5232640477830159 0.16337629545084553 -0.07841809622007645
0.4796437335476469 0.06495391559674601 -0.12382927705550628
0.5594448713241036 0.15935271414676322 -0.11629709450221526
0.5778312012129732 0.11102767768409194 -0.1566951516712436
0.5523613371956912 0.1410801344671313 -0.1364114899125468
0.5472080175141798 0.16238890016613539 -0.13559029905815123
0.537410663914244 0.2883660075869301 -0.6087578273225063
0.5598344637876949 0.1522757401895376 -0.14371159407411938
0.49805180627311074 0.1537104961470135 0.007694120434308616
0.5254522230637804 0.1037634430701928 -0.18465894289272455
0.6315396703094791 0.19572118774993896 0.04114013398915972
0.628995319434182 0.10394404747280817 -0.21015883768905042
0.5946118035064671 0.20959300387390556 -0.08529216050121136
0.5707255010751169 0.16516025804325807 -0.15456049872406652
0.5734961218292938 0.1562354081744104 -0.12554173138650526
0.5700891632221499 0.25143322521770983 -0.09690139658206931
0.631931660149462 0.20672822529067503 -0.18369154297610635
0.5212350698562602 0.17430699446828157 -0.06853888958579546
0.5737774433105756 0.17741488874787592 -0.09618795554632698
0.5282205027152713 0.19458295463567765 -0.003179358013341016
0.5766072015622115 0.18680165997433562 -0.08302459245575733
0.5430566831931571 0.15731238516420376 -0.11832638461027045
0.48769553086711426 0.124077551470819 -0.14029286098408988
0.5922441788474941 0.18716277864227493 -0.138199068827646
0.6464670044132106 0.18104481200475675 -0.10249805385194577
0.568138311047079 0.13655357352693898 -0.14130307115266305
0.4672130895295936 0.08835774000925767 -0.18426420705071678
0.6694810782864238 0.1903776196018896 -0.15964543139966736
0.4773905403459935 0.18203642238377427 -0.08152992884660648
0.5592633275697949 0.17034529313944802 -0.09359164342876625
0.6595900736771227 0.18820164095302516 -0.08255084825381687
0.6052395909926247 0.158477291657249 -0.11990833447993055
0.3843976599124517 0.021755189811827336 -0.20731471127658097
0.5799820283322106 0.18686033553071013 -0.1246954317392408
0.5908776359827357 0.1404913097544096 -0.12250075353156831
0.526921081370574 0.23611445675699372 -0.022409572134080236
0.5281603005131785 0.11534966465956131 -0.09362476801339881
0.6208483095405768 0.11190357033916598 -0.11681220898830702
0.5132136487792138 0.17018094945134976 -0.0903724579850973
0.453580798978777 0.1620972836677197 -0.08876334872672942
0.6219847336390387 0.18758377174660268 -0.06330353019160384
0.5635873355551837 0.15874643595496707 -0.12258685898152066
0.5253936288705177 0.13911328447652238 -0.12413970056834955
0.5671979790795092 0.16496829409828706 -0.1281211523579202
0.4862810923963252 0.16353885236183885 -0.15444642436108325
0.6240792395979327 0.20082556205696278 -0.12700249916295547
0.6360301489150118 0.17081249656065722 -0.14513605045650024
0.6329658320956923 0.20246412147102433 -0.1037989268142212
0.5965294461535109 0.15558223944718463 -0.1762635467244138
0.5505662639850186 0.19085438618436967 -0.09044116069165398
0.5015166946270142 0.1335514833798328 -0.1308828519671863
0.5784564905112575 0.1784906682304097 -0.12949901129522345
0.600740158586234 0.19435871095109292 -0.11574540052384918
0.43329942421442524 0.19712086062793333 -0.012067724494272625
0.6287225571855686 0.1817119224015329 -0.1579816582892022
0.5097540922901942 0.12232383024156945 -0.11276118163826254
0.5475780662958698 0.17728738167321012 -0.03590067035628408
0.5358836044021018 0.20841149677588078 -0.10578855302006218
0.5534983941921041 0.18471691778071886 -0.10705263303697166
0.5355686280012435 0.11315674949464949 -0.15490970869757348
0.6060468550905398 0.21953838324849073 -0.07180654870197145
0.5816714167324619 0.145182391632261 -0.14052141769332138
0.38578780386691847 0.14312855717342643 -0.04434699393934238
0.5836177641782854 0.14304143954564097 -0.035709440673656445
0.569555061279658 0.17407616311164986 -0.12065411269736614
0.6109962800246933 0.06541585874259681 -0.1799454750733389
0.7591017160659987 0.2910551497283933 -0.13348340563936745
0.5649579235656574 0.15944299508828408 -0.12952687586849265
0.5871280020881784 0.19557286471483337 -0.08697956104737159
0.5359551475821149 0.1816671389197353 -0.08146893763094454
0.5535153017771677 0.1321634829712508 -0.12984982728278283
0.5316973485896597 0.1921187260467292 -0.09996489526236019
0.5001979098764764 0.14253994801444492 -0.11092759881069014
0.4142442365015313 -0.12592949412284327 -0.20702062724240022
0.5443134732838928 0.1363752171858721 -0.1546306339401724
0.545270972072899 0.17527172327962148 -0.1044665627409529
0.45037435412305626 0.14026774309887458 -0.011348504129898629
0.5686850953495366 0.13575504246557557 -0.11483634208315152
0.7206076852898491 0.2179983013088247 -0.13485884827238692
0.49794586969420607 0.1415274700859186 -0.12278770637135494
0.5593153037951026 0.1391358216269225 -0.12638330168636003
0.588403328121899 0.19199070387428208 -0.10816649644408471
0.6486923068177362 0.1673472464515271 -0.2090872028448132
0.61355928483664 0.20025305173291486 -0.08174628762910174
0.6105560696001646 0.1979486367051635 -0.08705532776392033
0.5480578030077083 0.1476547367535943 -0.1262143584074522
0.4915044050893016 0.13848465434250556 -0.10674654208241918
0.6468636314023968 0.21670455702737002 -0.14538131235133278
0.6295308696789164 0.13710983452132552 -0.15256386130343458
0.5792112999179722 0.16399119190026568 -0.1320847583761804
0.5703266813413848 0.16443664996224072 -0.11177798810274453
0.5282718708894834 0.15536713811016511 -0.1354384567498812
0.5451021853096165 0.21002185569709297 -0.014887313606493535
0.6851242149929533 0.20783673433881233 -0.20706306077278214
