# .PCD v0.7 - Point Cloud Data file format
VERSION .7
FIELDS x y z
SIZE 4 4 4 
TYPE F F F 
COUNT 1 1 1 
WIDTH 803
HEIGHT 1 
VIEWPOINT 0 0 0 1 0 0 0 
POINTS 803
DATA ascii 
0.5561873613201982 0.14509034848140345 -0.12060288195277735
0.5263227227997618 0.17728617686570658 -0.05552617174542718
0.5473019571651037 0.18153626790071087 -0.13355799046442485
0.5163453736082033 0.07748574958881704 -0.188264627254199
0.5776769846227268 0.11688269719887501 -0.15409889591840908
0.4952841163540427 0.10666495163424372 -0.10174191545046085
0.6034545872289527 0.17761642135667444 -0.12811793542205407
0.5851348116810868 0.12364916987512231 -0.18310551062538138
0.5560504499040491 0.16079914922481464 -0.10457623133605409
0.509520347576327 0.15634037969839198 -0.0454771575546431
0.5316149146171938 0.15954453789741763 -0.10041887064569721
0.5041984696502766 0.08508116964300427 -0.2328465651684155
0.5202641141877535 0.15412292683581086 -0.11164283840716394
0.498601499253283 0.11068290371967748 -0.10312520723958585
0.48900594857417445 0.12203664395882186 -0.11202428648695673
0.5713871084167863 0.16062402570761947 -0.13994685550967745
0.5504719974719308 0.12554888534074848 -0.18568049323880587
0.5314320857557675 0.16974550189893023 -0.07636142675653446
0.5192361894237223 0.1509232959705855 -0.1083869493626679
0.5307795563236795 0.11652282223293753 -0.15219156261990463
0.5515746290399193 0.13746362047250216 -0.15052472820940466
0.5677648521679401 0.1789046235664813 -0.07405809892799198
0.5630905258351646 0.15035285394490927 -0.1424643894627735
0.5938392914000161 0.11800577225929487 -0.20253301410143365
0.5276695382346475 0.14606104867634429 -0.10390676151236278
0.6068495439160131 0.29694363206760954 -0.1351104122315121
0.555324105413419 0.14082864377853355 -0.11344112272830387
0.648759442476603 0.18438310702961758 -0.09493221216808934
0.5371712297517348 0.14616753043118536 -0.09774137707550778
0.5944772069065891 0.20412178792402358 -0.07471766641273803
0.5811758002787286 0.21359006325957353 -0.09083984935337241
0.3533604440198701 0.6372739231941864 -0.14716375435891393
0.539269098177499 0.12775333368276165 -0.14984246519802014
0.5331843419381244 0.16121616381441584 -0.15445643366739148
0.6214095876099037 0.21789532102243925 -0.12741187905602658
0.5735659498239869 0.14386724521742167 -0.1768699200322459
0.6122423585603798 0.11376159424412435 -0.1851881708328733
0.5561437565923626 0.12210555521670585 -0.22100299602159623
0.5585654707851688 0.14791782828234545 -0.11317161068986081
0.5369035317962982 0.20572101088599481 -0.09074201540582294
0.573145008859413 0.17416612231086503 -0.11101491079526227
0.5535243337772471 0.14817235722843236 -0.12859004709858368
0.5433371020300655 0.1761559633248595 -0.09745984961027432
0.5972524442217946 0.18022927013348067 -0.12818473482907677
0.5684826820635038 0.13832002757908413 -0.11670832004674025
0.680430182054323 0.14152961024066713 -0.24580920033777431
0.7048344402900568 -0.04072141062864887 -0.2884822497291566
0.5225661483970612 0.15661248076578715 -0.12926323931530703
0.5479561037112006 0.19927245793199688 -0.13956057597211213
0.6247687970326723 0.1997565135827415 -0.10243647362251806
0.5465993060844454 0.06562918506521953 -0.190316575496567
0.5537042919991677 0.17617735803322887 -0.12838137535342753
0.6148615971323466 0.15267295042094986 -0.11600997587656536
0.606432049718336 0.12193924220488839 -0.20688577370917471
0.49227069904469545 0.18885426081423873 -0.050515804144808385
0.482137997483278 0.1393399980160268 -0.16058586416463072
0.5816201827291962 0.17061787326245792 -0.12380906294227145
0.5614907929346771 0.16443968604556858 -0.1289317035151214
0.5649860450499204 0.1800413811912449 -0.12259459654065097
0.5422183217688143 0.17247830274398268 -0.0906149958067175
0.5722613514749924 0.13932102314431916 -0.15181380606836115
0.5522723723559295 0.348834708645569 -0.0011104759679625431
0.6032530847341775 0.16515054471629753 -0.11288180172191176
0.529511659931245 0.20555557641003475 -0.12159119165303878
0.5706890871274197 0.24974527250199685 -0.0037308234476824964
0.47416940075473235 0.24907417904803708 0.042166825251555906
0.5263943535925932 0.13922581395441114 -0.11143978807332644
0.5266840004321409 0.15604688932042166 -0.08571117708629572
0.4944974172150154 0.14907964503422022 -0.013689649101891632
0.4992117677212491 0.10992367585933494 -0.2001632496740342
0.583370025717997 0.1840478340399727 -0.13040509546493695
0.5523086085220399 0.09996443680226719 -0.17879134280327946
0.5397443543498213 0.18360592300489031 -0.06641995628982045
0.6338136599880073 0.12840186490210215 -0.1548033431358391
0.551185417132686 0.15438780201928637 -0.11851770734969591
0.5232626165967815 0.18003578627329375 -0.09091480530489093
0.5338358713840137 0.1476649133839203 -0.12885079231401164
0.5242354421952768 0.08111403879037482 -0.1820270793581784
0.5703362261811691 0.17140187764719883 -0.1050624398613138
0.5625271654874098 0.1568230007402036 -0.11177279029779186
0.5484625060949782 0.15303202346858313 -0.12189945895578091
-0.052880260343471264 -0.11075008935641506 -0.2360066326450152
0.576249544267327 0.10861804144965959 -0.1710984180933508
0.5598026477430977 0.15738383162546654 -0.12097504106030499
0.5515769049551835 0.1600717007872845 -0.07859575941974128
0.5143421098652965 0.14793495735625584 -0.1141868739356795
0.5897752278641661 0.13009810887034234 -0.12662539254083072
0.5590787429258768 0.1556141494889971 -0.08976266923137644
0.5662941526934304 0.17428517864540538 -0.12510162224455712
0.5204518980217046 0.1763178746928986 -0.06886383130432705
0.5323986615255336 0.14617283118218438 -0.13052068246081205
0.584147605585656 0.13179143246470915 -0.11317316660878873
0.5747018546122717 0.15730173832287164 -0.0982837206383067
0.6734975515088735 0.19453357233658153 -0.07253918578658158
0.5944961809443328 0.13080676538605474 -0.162012163394067
0.5965253758003968 0.22178003500729915 -0.047360567843796275
0.6173206969702392 0.11706153731151403 -0.1748013907079411
0.5539571051011905 0.11828906400553763 -0.11373535652238331
0.5876893746481642 0.17216171623115883 -0.0779133824749465
0.44854286433070456 0.1660551218400741 -0.07393160619530192
0.6408612337647526 0.21280316920885411 -0.11091054654168886
0.4690241999428082 0.1650986013238338 -0.06661650669522601
0.5407108801740321 0.15503435220604445 -0.17365729357189252
0.5815611537728813 0.16906495873953986 -0.0790589917795046
0.5398544471747186 0.12165293138947675 -0.13365165657305056
0.6257922243056413 0.16444637375951743 -0.1699987851349789
0.511969141647171 0.1277310792111308 -0.11397142436761953
0.5477761780856838 0.16280876286086254 -0.07868142204485196
0.5034703189010514 0.15160089675690358 -0.09297284554637031
0.6044393869152884 0.1605075410760577 -0.1663321012174066
0.5833133777369852 0.08925233163421353 -0.1232775327007829
0.5063856870346228 0.1970969889839722 -0.09100390195933983
0.5604025387128502 0.2256698440577054 -0.03800134749009487
0.5542674368007852 0.14045077352558621 -0.1602031716490444
0.6974102950961907 0.10127269930130467 -0.21780985541037978
0.49975988420519 0.08606692681667028 -0.16177773230269565
0.5370178359144973 0.14133928440151067 -0.12187922140637397
0.5237123103429582 0.13155848048590713 -0.09805993139183045
0.5623118121934993 0.18315973162583532 -0.09961309678062946
0.8897164703201099 -1.3228320276434147 0.2966406044904062
0.41130815776456586 0.07878218655521607 -0.10798086801972318
0.57885407923456 0.20051196909624025 -0.07492240464482336
0.6033090750297276 0.16310644432216748 -0.14053263561295637
0.49427940642046053 0.18261119589783448 -0.10642638039939811
0.4951162992585836 0.09513701771075489 -0.16456840613662393
0.5537719601725399 0.1224797668846378 -0.21568392236537193
0.6202119470819554 0.14311500064650318 -0.148509149030275
0.5471616995905748 0.2019332878429907 -0.05472796537247859
0.580036099631684 0.10047652647573102 -0.2168761431220787
0.597059784354812 0.20216179969588666 -0.1625975212627253
0.5873537149346788 0.1405117725644942 -0.13728270870024062
0.46638684968094424 0.1279913693665975 -0.15951908931484127
0.5570614226989363 0.17482081691275653 -0.10120112672065318
0.5209558023858847 0.11944578525158533 -0.24360986455120326
0.6092286633685546 0.18988065758662742 -0.07690547034680151
0.5093588763255354 0.1551877907507162 -0.1534590679856649
0.5663260347181023 0.1498907146587385 -0.14203980910458824
0.478053135132015 0.137089044012086 -0.2063803430366704
0.5316819595566642 0.1783205779512116 -0.0635526078255566
0.5801225258932732 0.1894316027678684 -0.1300666288415897
0.6039214418823775 0.15765920824941304 -0.15508008900016534
0.5610608475446526 0.1778786330312414 -0.07298439308461013
0.42221278906069415 0.05440011483484852 -0.0920484333663012
0.5519286803554309 0.14860132113413727 -0.11441128801693878
0.5473064559471084 0.12799483202714157 -0.06708018018157702
0.5659198672272652 0.1462010815449446 -0.16070522979451596
0.6122266960328773 0.14942921228147554 -0.137309322618691
0.5846718693433104 0.15753949695950098 -0.08733848527347732
0.5152618586723321 0.14661639878856647 -0.08627814021109259
0.5679312892021926 0.17456291847447858 -0.12695681955938198
0.6137131716131421 0.22820030898745358 -0.15738176067715415
0.5977324156598627 0.21064732734498648 -0.08155313040275303
0.5669970950049219 0.0805351855528329 -0.17777141984461764
0.61606375413497 0.13980401231995643 -0.1944282331387086
0.5315926063277772 0.08904779054184075 -0.1461017378713052
0.7377972667804329 0.5102879147513022 0.03264925517589745
0.5694519776642437 0.1433866956033114 -0.12327061949385154
0.5954439831006084 0.18644082766853387 -0.07976848991475549
0.5254096238142125 0.1808302792146037 -0.12902402374588462
0.5665922112176958 0.12145099592524389 -0.06480014303384962
0.5770175543564733 0.15361587094182028 -0.13602204768557158
0.5874700630196941 0.20485755076444434 -0.11844698987731306
0.6245606442464151 0.21082858622669676 -0.1006565481654178
0.5522652680999158 0.16178406384908328 -0.10411037602513318
0.6003416971070124 0.2055054521913462 -0.2044879735558851
0.5517888847137868 0.10367505300567359 -0.16200855870259545
0.5214819399832749 0.18435584949884287 -0.08768484429249668
0.5612844964456372 0.09891329520155523 -0.2189607940797913
0.5698960502372614 0.19270367948774947 -0.06582565255827433
0.4918944031780512 0.058111507009272145 -0.20621127051779808
0.6024658178063618 0.14122752621067036 -0.16430585440734546
0.578423096006361 0.18211878879318988 -0.12049632799333665
0.6289726757245973 0.15591228948854052 -0.19070597232853004
0.5720021215654185 0.13120434335387188 -0.14317471361815137
0.6439361163027257 0.12008542756699114 -0.21443156001551245
0.7076549785036121 0.017327550090698196 -0.16063599721921662
0.6153318700665977 0.1981386191817478 -0.09220540920460962
0.599835491040011 0.06939392441000791 -0.24479827522030462
0.5016333609745516 0.08571004025682782 -0.14745399804597525
0.4691849394813232 0.09077395120488063 -0.1483588805122622
0.4618632517433383 0.14758968127854644 -0.04824317776791531
0.5907102396015347 0.1525958957932545 -0.15625140700873885
0.5393805533759206 0.14694612865520185 -0.12227652593283267
0.5791321975381862 0.21012784570960719 -0.11549808552788932
0.5613011605913272 0.21631849861825003 -0.06908643133064629
0.5069265724499985 0.13936060200528289 -0.07638806272227328
0.5864981903696957 0.1923299105075813 -0.10954403611103203
0.5682984650058955 0.19577047092744237 -0.09323914021209134
0.6116350868776976 0.12739704902827498 -0.09105360157390407
0.597809134759359 0.15254113361886823 -0.15436517516873494
0.5810712171419112 0.1808125654793713 -0.10832187813480232
0.5711668704556985 0.11321374146255891 -0.21931066580800973
0.6009677987169937 0.1620840517598623 -0.09426290339072807
0.6984104965287941 0.22873689919579476 0.0012319435876264606
0.46596818495221726 0.13979267358367053 -0.12184961073715783
0.5057942002967195 0.1197730027620878 -0.10859911275149159
0.6631961984096364 0.13819647863415696 -0.1505300520674524
0.5423247039788635 0.1014006794965212 -0.13908031365234308
0.4499717259229499 0.08386213512872587 -0.13009117923712665
0.6259323174347884 0.2937814695741281 -0.168715753785321
1.028267355742443 0.24191496374322696 -0.6093769055841278
0.6364920221136146 0.1774481021272436 -0.10623922623878457
0.5430356461210408 0.18947020659932434 -0.1308859980648549
0.4655119450307694 0.11777414345914394 -0.09718727552851192
0.5723697182180274 0.19149845794400733 -0.10646833486570983
-18.921103058921844 4.195723909370997 1.3593384775494854
0.5592368914811203 0.1505654869497164 -0.14882788958779258
0.4200599628533581 0.1201349246476866 -0.16094913635137686
0.5541284138046763 0.16889851012649615 -0.14984167087081346
0.5186628935594513 0.11374496744835483 -0.15664232419074153
0.5457634047577216 0.171183319991016 -0.11923086807034622
0.5687826613373943 0.1701030936502832 -0.0810130701847811
0.5415853108574282 0.15945350444813755 -0.07620356615581159
0.5776855445627405 0.14688816329142185 -0.13937270430679405
0.5413462099479318 0.07778854811964209 -0.16672507015815086
0.44847726399333965 0.11250540235501205 -0.2187923388458728
0.4411887570333164 0.15164933613506548 -0.07968961687757314
0.4818535726501665 0.1293625619789367 -0.12029027408476622
0.5477949599203811 0.18036428560384365 -0.12715116234673474
0.5535209594108892 0.15966238032079616 -0.1316548341579704
0.5981851569111427 0.19048963823240683 -0.1922182896808522
0.5675763090426358 0.1657358727565139 -0.03505418955396067
0.5792427132984699 0.13239471569964678 -0.1785824089508452
0.7826028299238743 0.0435815536754518 -0.1086233390092275
0.5130783579302403 0.11092833127669621 -0.14500184252413817
0.47716385188161325 0.16016829942526556 -0.10462960219392414
0.4900340580409619 0.09455828087651241 -0.140768273720127
0.5296733011158352 0.1706754081797186 -0.02258491898484749
0.6250246378259021 0.1562281615631349 -0.15345357192815356
0.5932061767574908 0.221694839993674 -0.07056451733264169
0.5502573166615292 0.1711136120500072 -0.09740552109799694
0.5618221447035125 0.16762583325834157 -0.11998655347601073
0.5639965087225391 0.17553398323870795 -0.11813590511289362
0.4400407933470234 0.20536127672843918 -0.2040956041481934
0.5299106512093203 0.20236846038217493 -0.0575815182529027
0.6692231615397901 0.30996526263537305 -0.08785789615181727
0.7153801467165266 0.15859128256109045 -0.22456871814181056
0.5839712581540226 0.08272978332689718 -0.19528269394140807
0.5042528995159756 0.08777027919920499 -0.15200815500442388
0.6122874463237906 0.25988674897531894 -0.1421511613491191
0.550027425003222 0.17151284848914372 -0.1234506803598805
0.5633048118049118 0.15464146263788336 -0.12730694672752918
0.4324265734669126 0.11151940257245485 -0.14185538535581088
0.5674049140970254 0.19225669743840967 -0.09208284694163638
0.558678316061588 0.13857233916903056 -0.1524767557029918
0.5586336343396141 0.16557107973535778 -0.1177581355752011
0.5133647883266406 0.11514791155154569 -0.13517374659228665
0.561698328189479 0.13994576252750335 -0.11718308420905998
0.6172788421853852 0.06547777042452196 -0.2893422827785912
0.5988392030802174 0.1593306465586295 -0.07254165649810318
0.5887524449572936 0.1638812490613759 -0.16005868384714006
0.5552187342841535 0.17567992671615684 -0.1345109532299631
0.538687229052897 0.18839534916125444 -0.13363435317685912
0.49337971921170265 0.1734278464411716 -0.06630976461300975
0.5079746173167905 0.16659669694800527 -0.09783469152549173
0.5202244090840935 0.150807934259376 -0.07620868405842884
0.603791406530263 0.11024339329865995 -0.21340330785710648
0.4588937282141501 0.1261729473842479 -0.10455660469965267
0.581136689977896 0.003734538478710192 -0.08221435409453193
0.5434065572450208 0.23471770538233727 -0.1336711427394448
0.5637409706686327 0.16978566328289446 -0.10958928708815563
0.5432805319055092 0.15728251563031392 -0.15847783439265584
0.5777449276021116 0.12249316874225258 -0.15617283376045066
0.5438340264154107 0.22443179901063104 -0.06159888115169565
0.6010782347318155 0.1818005500095694 -0.11884183984857088
0.5275442981273386 0.13564504784237386 -0.0918077852878838
0.6103074741374144 0.14723981857976298 -0.2874193967601002
0.5219742899691795 0.10235707170657804 -0.1563756106207279
0.5604913645959755 0.2182950896799838 -0.08443053766869468
0.517119872918073 0.18021666923587532 -0.07313650712281117
0.5059965760547271 0.14681229695361253 0.017210351097688203
0.5350684448452512 0.21571269567267848 -0.05239071809491236
0.6035044726044134 0.20627624149661017 -0.05369691741191218
0.5752631944883575 0.16717848683134662 -0.08997650793901357
-0.5268996302111333 0.5193935851443996 -0.3400069021083567
0.6075941827106703 0.14511145885438737 -0.1679835088635997
0.6775586882619251 0.25602318381992006 0.007614957783545151
0.7020079993182691 0.16492972912885762 -0.11692098871834844
0.6090341873479588 0.15184862197111215 -0.10167543528477552
0.5460173586405119 0.10138470429770052 -0.21743405554137496
0.629387096129733 0.1798201655705327 -0.11063217934481884
0.08074536255966791 0.2452763015488415 -0.32662246244659343
0.5548162476652863 0.16551050028724035 -0.13087366527732058
0.6152287314470328 0.08611426903443942 -0.057432062210338586
0.5314161274879154 0.1567547158648921 -0.10043117033858096
0.6385213473778748 0.1937545962177154 -0.08567458422905361
0.5826771077041428 0.1894469317663834 -0.15875475958944207
-2.4483960468476766 -0.8197575398088333 -0.5623038356251868
0.4550298619649453 0.14121097986776476 -0.1119615842996069
0.5406605327105183 0.15520294674040258 -0.11205352292994064
0.5257585888235923 0.14595788148270117 -0.1231915069602536
0.6997566953289294 0.25470373043724237 -0.06408095943501735
0.5877468776139807 0.17763995323737447 -0.12807354462415788
0.5585241771564142 0.14079881249675452 -0.20444026717277097
0.6295624778385758 0.17462871063787588 -0.15713628687518622
0.4918864491829993 0.14230279675489044 -0.10764815384104054
0.4504885003878627 0.14151317094612637 -0.08291126388643022
0.7891099220364168 0.09807925070407464 -0.14951920749817305
0.490475420362543 0.26544307582115323 0.006516868750679805
0.6470352679443323 0.20522820756572457 -0.10738660944460321
0.5384583382764845 0.15256484023218775 -0.09602181993713543
0.5449919921871214 0.18213159487703479 -0.11001004016002014
0.5604397166097073 0.1436614360660542 -0.12903357229141932
0.5856780446329566 0.11748926481359945 -0.18177986057416717
0.5852810584212733 0.14964107083018519 -0.1153802046954695
0.5643611272578255 0.16490055938680825 -0.10932975753412677
0.5716596582352906 0.17567870870534819 -0.0741722518276049
0.3377374846331378 0.19824223267646346 0.001409699090856975
0.6103604254760882 0.17839022689028639 -0.10163308421003592
0.5543677381302103 0.1196741583095502 -0.1991075056250935
0.45807715287445205 0.1170922553968694 -0.10249740245473049
0.5596711535913954 0.1459509768455547 -0.1112623387240177
0.49066158180394837 0.14289145973600625 -0.12191843222473153
0.4194095679859373 0.06868952034243136 -0.11277065611852777
0.5576237475182211 0.1741462683292383 -0.09386109356489669
0.5568346442452565 0.12231966166064012 -0.12625130072868274
0.4685337243042085 0.12791956158410756 -0.09849851090686457
0.5998737199160757 0.12369449316484804 -0.17281549325724654
0.6028498601634169 0.162483763609643 -0.1659637227058255
0.5777975196309058 0.21629072627109736 -0.061051617706169736
0.4746076527659966 0.14776280953039134 -0.10151939078809846
0.5836030043665374 0.15532654524908196 -0.07979857979822214
0.5095504874926888 0.23552756690523324 -0.17909852632837442
0.45763109091798526 0.10406806147078385 -0.010314468519098341
0.555148024267595 0.14895373326459094 -0.12805128590264303
0.4919437112874476 0.14648002035556829 -0.0933482762308131
0.5498326881976965 0.15523631580343533 -0.10316043268494468
0.5890292983583834 0.12497305828068761 -0.13396437497857505
0.4783319502678438 0.10865847498374137 -0.12664908663074925
0.5395240682447309 0.18813286057458356 -0.1264492890952198
0.5710064944065607 0.1305963175282585 -0.1572855734011398
0.758128173797445 0.17756808363654386 -0.25483372511426694
0.3794990087983763 0.16305792051065282 0.005148760077261727
0.5185581774215962 0.17304299635847542 -0.10193641951688903
0.5738421606307327 0.22225527758848784 -0.05697993334486284
0.5520530253307214 0.02627723052376041 -0.1864884969517675
0.5627246391779721 0.12526387046612797 -0.1360443497411552
0.6292895782878816 0.15884824769098316 -0.11127409234642016
0.658828198480947 0.1887450319663344 -0.19382627435484778
0.6846833252335358 0.13696082179032487 -0.11916348661617349
0.5454441376232921 0.285747599527852 -0.11743288254582751
0.5474956423139901 0.16679629847831734 -0.09093132393216763
0.5358929469528846 0.154460416383003 -0.07564123722532656
0.5339852169681905 0.15669214203091997 -0.12224447786817905
0.5124723069770596 0.19285358350499848 -0.04940348198158517
0.5058620683272039 0.09246071595742933 -0.1361951805948678
0.5518000533484297 0.09885086692909795 -0.16597405471350157
0.5278714996360065 0.10801929009437572 -0.1988890256969711
0.5202882524335593 0.1511267463590258 -0.09009063235410508
0.575939803362985 0.0994266175740961 -0.17624961404366957
0.5721425414263024 0.08165391383712972 -0.16344684418423583
0.5252658881963441 0.16496005040657735 -0.11729664007658869
0.5259156793869835 0.19247384589688465 -0.08139085327285045
0.66528386542889 0.08356847041822846 -0.23245922953756804
0.5315266009126276 0.08120149673443677 -0.1302144530208551
0.5554378742418749 0.15040421638887835 -0.13239961830541347
0.4378735266941618 0.10790954271685393 -0.10173199274619549
0.5703021386486142 0.1618513135276487 -0.1202091986659326
0.530394710398923 0.18580730337284024 -0.07652846622659126
0.86573649411568 0.5494123663740282 -0.19428881063763015
0.5414772769287026 0.12851003982953557 -0.13837960857260612
0.4350653286031303 0.2202041435583908 -0.07213131863707645
0.5889428819166227 0.15034921555101732 -0.163545367650471
0.5573055963953522 0.15078905685990662 -0.10511340331026986
0.6256167249313904 0.25579814738323137 -0.17290327407104655
0.6140323326212211 0.1413884000305643 -0.20176665625226065
0.5384688154520205 0.11462940829657953 -0.16281830768568284
0.4879607826971579 0.058406992534315805 -0.06368243870515755
0.6313722415289647 0.10757132157378635 -0.17889011511761055
0.5176415607441669 0.12265086611692766 -0.17100465568751133
0.649410019355372 0.14120315484328216 -0.1705306896358394
0.6092636920855199 0.17656317468210148 -0.10971061785878078
0.6520690545820003 0.1529297514554031 -0.2717874125626736
0.5605560596469985 0.23567806478797593 -0.07540182460873268
0.4542855096168097 0.17181306952480213 -0.03243437493553358
0.6244035544414146 0.12275090004892775 -0.20116313279406484
0.5831688935448511 0.15476968628975385 -0.15014956333079965
0.17033428404880624 0.07239805922354492 0.1928107549183693
0.5666188814768276 0.15472442958140675 -0.14582456593275595
0.45972369424058 0.10385498714174446 -0.07148764710080968
0.5201316551616202 0.3562861920443794 -0.1397319673800297
0.6462333369210853 0.19353044950305787 -0.11124323463569397
0.7580407584701163 0.18513925066071124 -0.2650879753844464
0.5500436829329942 0.08767196997420967 -0.22198718965545083
0.5842882891371062 0.16277997610791317 -0.11674459521448455
0.5087152991782062 0.08414766168816357 -0.19270363574638338
0.46208094051714 0.16593630198453013 -0.031153969901254186
0.5494997134223354 0.15024997123514083 -0.11431989079785865
0.6754728646356227 0.19151973778221532 -0.16657054785710557
0.5599320808852895 0.13647839662516503 -0.15365995620180684
0.63661042435902 0.22728477628123755 -0.22027038931722132
0.5809285477336488 0.16403561567709346 -0.12439445509252778
0.5178525997988856 0.1908073390780487 -0.08163547556965511
0.4929228742350631 0.12230017772816382 -0.1111322336401912
0.5121505613977178 0.17309251838346995 -0.04530617864834596
0.5602726175304866 0.11810350401587755 -0.1559036696227878
0.5833951991526618 0.08628474722077328 -0.19928485908496896
0.6136014101681297 0.17552807679346927 -0.22876435214070057
1.2005297437500815 -1.0555139284248298 0.394879265628731
0.49852037278014905 0.15698643995921202 -0.17648374678611845
0.4950689304404676 0.14614585700496718 -0.09777457107099963
0.6978025720133019 0.14663137298691709 -0.24795845593081367
0.5724449629257435 0.18837496801123166 -0.08970487089048618
0.6399459524070465 0.19087298671753672 -0.22261644731672448
0.513990021435049 0.1695285805486435 -0.09498248040291912
0.49562737552653857 0.14427126153907466 -0.1120535238574547
0.5764274388194366 0.16591710135891446 -0.11399212045833451
0.5947364278318616 0.1695514709676047 -0.2139811907617144
0.5323316416846922 0.134149646370318 -0.13978792753118796
0.5861691953288641 0.11150208392780314 -0.20767595933851624
0.5258588074147355 0.149190240850686 -0.10941389657558886
0.6399861049844873 0.16515029994499741 -0.09000585706813524
0.5287230762006345 0.1613863807814795 -0.09393621072577218
0.49411458754737225 0.21859651388511736 -0.0335115167485327
0.4892049575333459 0.21152203395774904 -0.03635496473603439
0.5341231694418838 0.19162100392381376 -0.04889542990677853
0.5900411044757874 0.17464743026376084 -0.10895372484691279
0.45295482826271893 0.20906158296202193 -0.029121078422534197
0.6120419567419191 0.1843819121719008 -0.1515223496563891
0.5072482938328022 0.14818277966629978 -0.11915603446138334
0.5844351716099965 0.18740187821813947 -0.10687397359482986
0.5212040010546843 0.1298760512659527 -0.1391611920547291
0.4343964838874115 0.12369806586129073 -0.0729566520428051
0.5544213303596877 0.18725667938602442 -0.05245387962359871
0.5337113148228099 0.1915183238553766 -0.11398925994727449
0.5587028710084212 0.16522862662974092 -0.09961230308125835
0.5281237722317229 0.17472896975682772 -0.1101119666597441
0.5782098911870293 0.12954160338333054 -0.6149221444809427
0.5078914205104184 0.16805083473798277 -0.15030493547335766
0.57960451227855 0.24206206373808925 -0.0036647057975187636
0.4914417552299284 0.11066086097851269 -0.15711825057591966
0.5841289632662239 0.17287568502734985 -0.1302148655069857
0.5484283998093531 0.15956675137407217 -0.10723037414328473
0.5842276674552949 0.18533978213372393 -0.08205099039318497
0.6081031373646084 0.163014913946526 -0.22846051624347297
0.6809152436526773 0.14794057192823118 -0.11120127089563425
0.5515761528370007 0.1658953148083384 -0.10321470833878266
0.5116373383356034 0.16949769594791064 -0.09285195689795955
0.5454903549720314 0.20396507494328375 -0.0948251885124165
0.49576710699246007 0.14657078060713502 -0.10350152941722968
0.4073763078412185 0.14875597116117945 -0.057847990862626375
0.566044709116369 0.20903295661058507 -0.06914459959791941
0.653430083418101 0.14793298212906336 -0.09673474331985688
0.5372497780410583 0.1790779474914217 -0.08659642801974599
0.5424205153523474 0.16002828782836787 -0.11396106570860809
0.6065338358579595 0.10759529399794587 -0.2152397363647367
0.5580805854387592 0.17074232240409515 -0.035915344326696186
0.5264217750227118 0.17742998255137366 -0.1325897202415689
0.6216910277217522 0.1601210505847206 -0.13150889785514153
0.6054250768170988 0.25893531262529734 -0.05878808099905086
0.7656998769588341 0.243068045357262 -0.009990315726753352
0.5886193767918115 0.18516997037500005 -0.14632767047592665
0.6347754110430657 0.22548413356166463 -0.08762434699301025
0.6076948349309532 0.14072289001713045 -0.19322312157829913
0.556723498388962 0.13071099924646035 -0.09108605730607167
0.5143816711123037 0.06675712025622715 -0.2237341771379846
0.590920745800176 0.18029898609127315 -0.15213462902258357
0.5664197648831788 0.18352978573176415 -0.10980349512357179
0.39702039227077535 0.19930607116982912 0.03230365158225368
0.6136153447524748 0.17721447533729418 -0.15213265352181793
0.5232413786177403 0.19270334986981652 -0.05782480390878675
0.5688883474685724 0.1962356573630899 -0.08991763437025213
0.49971715572860376 0.1327098072388253 -0.11381869725140348
0.6106839184240727 0.2282086761395874 -0.1261719836667652
0.44361441784313627 0.10917178473758327 -0.04369416017598837
0.5242370285153015 0.12895990056561857 -0.10603501305875795
0.5665648530606973 0.17653066264516326 -0.0937164389275722
0.5399087121822532 0.18660389843302028 -0.0833850695099585
0.5164115189689653 0.16124699976244017 -0.12654211105767388
0.5531882763658018 0.15878836264931806 -0.14400220328330704
0.49961506477394835 0.1446053082535741 -0.10341224794321136
0.5142051449197425 0.18438411664810417 -0.07832786386724422
0.6317609327162756 0.2062125011594702 -0.2111118955804585
0.5393079255002675 0.12251754145292182 -0.14212472385466413
0.5938599451827429 0.1242556140383897 -0.10325604350735773
0.5338503283310843 0.15437172017571754 -0.10321318880491503
0.528668358793297 0.1850951048434979 -0.08688343397837173
0.5406636094561179 0.17113138525685656 -0.11182497584755424
0.5151426405773094 0.09004347157805626 -0.23391242894086872
0.5770947500229084 0.1602594554405954 -0.13550916990925543
0.41177386998535326 0.1280135290676725 -0.3027968465607529
0.655303793488585 0.1730767676168341 -0.11403187124282965
0.5713844129767836 0.16076953143621608 -0.1280814356209845
0.5550721741741711 0.14531797890147402 -0.10817820395580213
0.5826167679127394 0.1702634093067985 -0.11661972639058149
0.6653124636443124 0.2624997289452864 -0.0721697424165626
0.5222951292067961 0.24946224395182526 -0.022652078607961812
0.6524602848435279 0.09518338358519429 -0.2434369629453954
0.5264321888152068 0.14933144548223254 -0.1204200951915908
0.6018191928921794 0.20547376423171215 -0.0494296813748889
0.5702896845794214 0.0874410008113955 -0.21260183603949656
0.5818850090992385 0.18402850088635603 -0.12124905648637707
0.5688043011685266 0.05391315152674281 -0.22588402499300742
0.5483147703788802 0.1923849249498346 -0.06476181260164537
0.5605341912902588 0.13655556979735195 -0.20628600450135082
0.5657393473523342 0.12058504495544753 -0.13799005272593945
0.5820524444086743 0.20879453088781474 -0.10456601412354871
0.5078910668409975 0.13297264042417112 -0.10261977155651891
0.6211173946920496 0.21293183609822108 -0.048192329926891375
0.562955095775763 0.16829744026233584 -0.11127565774953041
0.595100931011217 0.12090364043174873 -0.16623745219541775
0.6229201290469035 0.1635452784195479 -0.15530022973806012
0.4663725830562271 0.13701176413823646 -0.11688101861325606
0.6071580949930535 0.15100123902452367 -0.14010656349344686
0.5951232161786777 0.16620884846435047 -0.09545791670795722
0.4367044299309413 0.058091021340814564 -0.06652517951727077
0.4900157462977006 0.17172877417618793 -0.07611510388727538
0.6323737350263912 0.18532303793720928 -0.14417530908562526
0.45204915051343164 0.16326390456282525 -0.07781152141544112
0.5402853039528566 0.19267146625088571 -0.08244888554429508
0.5524817716958381 0.1396637596327679 -0.1376790893248483
0.619295012592886 0.11973260655156537 -0.3302782276816174
0.4967459287268525 0.13209102885255675 -0.12939890951599864
0.538721733741383 0.10292867658873206 -0.1301239442310731
0.4321275670678091 -0.11120810350844579 -0.7035721936110377
0.5473359064604466 0.11660854175721624 -0.14453262803601774
0.6065323417026889 0.1548494680019985 -0.12282456904002004
0.5302942923733127 0.11657241247955596 -0.11795913830934524
0.5805220145311125 0.1683777085079896 -0.10737807083889095
0.5360197776321058 0.1444779364269806 -0.1299074086900447
0.5451732069951589 0.13277592455436604 -0.14306146486134708
0.4954015915574246 0.2095776608813793 -0.072596102504761
0.5963349505624223 0.09569213781762187 -0.1591510398965852
0.5024679668118779 0.16423264713201036 -0.10326269488021467
0.7714392364879075 0.11733231976579361 -0.07766439041473916
0.7562431830243241 0.014174472364018698 0.26119935467808375
0.46950689905843035 0.12124725186529872 -0.10704955288792917
0.5730741228469043 0.15955047361197217 -0.17693118726923274
0.552578690285543 0.16480914938627222 -0.0933875411547831
0.4915447354421616 0.1835473053604062 -0.058786412692867884
0.5599857312515866 0.16741850718645424 -0.09914062669957957
0.5727489834120263 0.19247175485327261 -0.10425788744559839
0.5149386905492292 0.15972124386547648 -0.06999865642339387
0.5204637986767864 0.14754753776450968 -0.10411876003603027
0.5194766087739424 0.1783343253701446 -0.07460264181183618
0.5544093857503611 0.15394825919678112 -0.047987558159007904
0.5809215507173775 0.16387537847690226 -0.13551008678163612
0.6027736000585975 0.17830159813462387 -0.11631529519226547
0.5322193727502054 0.16482761286701475 -0.10195645518763286
0.603394584275236 0.15898497793861566 -0.1581105609915454
0.6120260396259312 0.16428014800307267 -0.11812702852975576
0.5531340680544901 0.3040404395382552 -0.042518915823322345
0.5842353616949651 0.16810981681172166 -0.08989630979370133
0.5404853500481153 0.15303518545050565 -0.12576843120123726
0.4909973771790561 0.13763331516317123 -0.10574444849454778
0.5295829391073141 0.22254056681218515 -0.07306497697730663
0.5341648502073042 0.1990230957357113 -0.043427915595316335
0.542201535009255 0.1562482358657178 -0.11215449249034748
0.5208533573278515 0.1577504384277546 -0.20287873608764073
0.5245036399499412 0.2052981444894897 -0.1281278358731015
0.554981261629024 0.17804801494813205 -0.12924525450215185
0.5497344810013658 0.16640553046757134 -0.116325727490036
0.6311877839055313 0.19065703108289256 -0.12631325577046937
0.5691978324946092 0.14859534606662805 -0.12292405880495494
0.626150223392159 0.25507918002178087 -0.08709241020248726
0.5554864562383983 0.12417057738221615 -0.15515840290747462
0.549717698850344 0.21349393379561832 -0.055083593874584835
0.5993166132845289 0.14040657805249168 -0.13580538006976894
0.48526877905429444 0.17886764852957526 -0.038145650422166
0.568988728906902 0.19973689190089772 -0.023470642714713108
0.5314009870729848 0.2025998149888153 -0.03721539432420684
0.4809177747675619 0.21273401986704243 -0.044518642108045015
0.5717410254639788 0.1420670099354311 -0.18920161653278456
0.5293817371341163 0.18617677427546653 -0.08509486719390225
0.5417004433087271 0.14148466286788164 -0.12058606770197855
0.538947226302156 0.13422884174549665 -0.12301666768122743
0.576479445001695 0.22073641451318338 -0.1346939707054844
0.43858525414468374 0.12224156760750304 -0.07079071647839896
0.4722915811388759 0.15226224186788784 -0.056467249093060445
0.5533410871877606 0.11992725353719891 -0.14814349207222222
0.5647001665456628 0.12668771127937362 -0.19718882403613236
0.5094923656751433 0.23396980255955668 -0.05505064411762817
0.530882057230798 0.17098025553094942 -0.06336905432517881
0.5354042432837218 0.14460582208886308 -0.09063299034237104
0.5297337231115193 0.1773009757119013 -0.1069294753015555
0.5129393089478356 0.08963319568388783 -0.13109810572716185
0.5956983497946453 0.21842290466301506 -0.02528918018028037
0.5324078308241411 0.153641419533443 -0.046938651523518615
0.5386975131049923 0.1575849266327367 -0.09760851261751213
0.575397458916143 0.17552794064924626 -0.11512809081793307
0.47909824339134843 0.13109066386618906 -0.11438839262521583
0.5251077532232813 0.15809647852411501 -0.06218687882368101
0.5811227460802257 0.23276277490218433 -0.10950148243301783
0.48716338340493337 0.19270128508405548 -0.10990933651787316
0.6463067622391918 0.20634342418611595 -0.1332339630336037
0.51567237106552 0.12901847837636637 -0.0965344699385895
0.6853460887023317 0.4348780593321777 0.125862012003779
0.5429638333340279 0.13781672062032158 -0.10190080510317046
0.5453673956319705 0.2589430453028001 0.0362747973196349
0.41166580310988365 0.11322842080885209 -0.19635622624382165
0.5671986587652782 0.16550001637284595 -0.19016866866080306
0.4520431097928963 0.2170941231798622 -0.04159650986042607
0.5156371236174238 0.15879665316595037 -0.10167621971915253
0.7829417815423056 0.6669597491690951 -0.2500186440624361
0.5220990006641983 0.13248260111213028 -0.11848418033730468
0.5094409201128371 0.14378761677384944 -0.05795070306889727
0.624352243982969 0.19808594163423265 -0.12001911357702966
0.43747747289378935 0.2381745882712778 -0.17509981861191193
0.5770551625941636 0.14724540972179057 -0.10436048524276487
0.5368364760153526 0.2087888972734646 -0.13233177046322453
0.4733355496214955 0.0939543450040361 -0.13434257077219058
0.46954345562866706 0.1725333222915566 -0.08395688063789919
0.5960379383936498 0.20151447515050336 -0.08325748127140287
0.5192848893520221 0.18510460425679298 -0.11598913653726584
0.4821208473079679 0.18915139400246517 -0.07832467093126638
0.5098261389493217 0.15819350594263426 -0.11457340472834687
0.5161093230745593 0.23732759927375469 -0.10792571454372535
0.5805758000076082 0.1947180931421002 -0.09052431249503456
0.560791213416536 0.1299484038689087 -0.20981354932187912
0.6652542404204809 0.1955659688413931 -0.14880533641891702
0.4877680599386309 0.16956858419240461 -0.08164127877283534
0.5396212047543685 0.12776626661296575 -0.18519068412618367
0.6013085180319848 0.20214029903731046 -0.07228622559092912
0.4872779059093517 0.12154025904450805 -0.11891061074169329
0.5401123607431799 0.017831313909596247 0.019712794368615505
0.5053008997502815 0.10146472282762886 -0.08056256044940824
0.47631132361084383 0.21173045017661707 -0.07937163129916769
0.5469178081040553 0.1694194541942693 -0.11005136283067429
0.41425726745978864 0.12145694573986532 -0.13113861532660565
0.5438148175237103 0.16459192788815358 -0.10728043600070691
0.5712412472614403 0.14164365627037512 -0.13926359069670013
0.6606245562944792 0.007124961803128826 -0.20636243733162019
0.4827613218574953 0.14407285931905278 -0.10608602336571948
0.5463318962505781 0.13544063790747884 -0.04395068930030277
0.6401451267011424 0.2386135542839014 -0.09155283265764069
0.46620208495393456 0.15005368649455875 -0.0783997256457667
0.5341580171735814 0.126844320740787 -0.11805855493574313
0.5119549432173471 0.15946054763055884 -0.10271420521735308
0.567489658850306 0.10636744541756116 -0.16439434686581933
0.5229928867905471 0.17194769397292475 -0.08885683637701902
0.5855543569566066 0.13879551540155433 -0.16072860970957947
0.52701142812667 0.1770300622180372 -0.10087362319077897
0.5079724706319979 0.19156461607227016 -0.06670529581002427
0.6194429718419343 0.19561843670359735 -0.06832325444314336
0.7889886696783606 0.0618056904896207 -1.2072182865362464
0.5678305018563208 0.17864654272142388 -0.13419987437626446
0.5809391924860563 0.21280908950969035 -0.18646761280324142
0.5117859735099444 0.146178833017359 -0.09710649632131663
0.4991256260967418 0.18431114235136192 -0.05370171918985989
0.4754034801041769 0.15774306358795798 -0.09021855812785873
0.5555450804218651 0.17399401921755953 -0.12998821196815413
0.587563104495743 0.250385581135788 -0.05045555513589761
0.5673780365789156 0.17104260673224303 -0.10659910154292618
0.7269074394011454 0.22589513499525538 -0.15785961279897265
0.5206332158510207 0.2000287157044056 -0.044193246224864424
0.5996462248130001 0.17777640373707015 -0.10173050237035852
0.5283372174710053 0.1680839086967154 -0.07549579837697706
0.503838527313448 0.14916513657865949 -0.11602428678990861
0.48857042926853467 0.20154402663675342 -0.0906384735286565
0.5491711751517698 0.11985363180372133 -0.13366715316486477
0.5103083736470637 0.17385967744040443 -0.09286433583207554
0.4779790150731742 0.12703404076685842 -0.08654307630774838
0.608481754309139 0.26145814345004226 -0.08002870592605404
0.5732547044624567 0.2289112883023563 -0.11964784888319002
0.602941471093402 0.1814553637711782 -0.11444575351198694
0.5395688873338003 0.18928656632468233 -0.06782333007997465
0.5547932242595124 0.19627874042900828 -0.10923645161284412
0.5458950572008803 0.15806889104143806 -0.118618714402416
0.5357110174623614 0.16312984522123486 -0.10279748400353128
0.5662883215710934 0.13900322520795783 -0.18778101779059853
0.47838712567822483 0.15739126365448897 -0.05370537614554394
0.5298768639027003 0.2629402810404855 -0.06601287023876523
0.5741474872008041 0.1326733875371957 -0.13040937228814187
0.5519317752536494 0.1700044191166512 -0.10233415683188696
0.4545934894883459 0.16086006365350158 -0.057798291604967744
0.5164543942795063 0.20615710833205014 -0.013993548012280144
0.5759274768451377 0.17162490235855898 -0.10075779073889635
0.5498516519239587 0.12683710606359 -0.15386562334582266
0.5322864222614498 0.16259702847131052 -0.11192247319084458
0.5575684027340202 0.1539317652671457 -0.1261710727637393
0.5574525371171006 0.09283411404939557 -0.1847475682254185
0.5415283036588363 0.15412461866991123 -0.08925657584310898
0.6283984897874149 0.10963857848851433 -0.1827276848250392
0.638447736130658 0.18850676698176017 -0.08667252899739708
0.5597243251486219 0.1639849979086705 -0.11362761954418943
0.5181770338522398 0.14368268879630364 -0.14456105359109017
0.5349085562895652 0.16268451186886068 -0.12897969250764163
0.6116251234005148 0.08122038813185384 -0.16445682775669468
0.6081938477024664 0.1455304242728772 -0.16397245264512605
0.5372496393627699 0.18260773941592845 -0.12191970680223108
0.5662283651325595 0.1781485179189275 -0.09517559136038756
0.5666931589731519 0.17728778248654464 -0.12924584442464493
0.5768692027804008 0.15331748482293506 -0.23939344588210076
0.5210387120246196 0.10869626169764501 -0.17247306516986782
0.483372174636159 0.15854696623844688 -0.08960483878863101
0.4410110489659189 0.11601080313805312 -0.07247291651431453
0.507299624916385 0.13997914093988584 -0.15113009776668207
0.47006565919129173 0.19065916334722033 -0.08842655380992426
0.6040146542977141 0.17704438354718377 -0.1467733839922829
0.12623003484618778 0.32265543224434623 -0.2157441870017891
0.527374333632622 0.21166500985114567 -0.05527838379413197
0.5787616069184196 0.11450850391734946 -0.17407541958219497
0.598390847158143 0.21014597737541862 -0.11890276533731026
0.45474309777155497 0.1907366457735833 -0.091932585721608
0.5039942030496007 0.14205909367403535 -0.07364668245350003
0.6151528478952031 0.12005724048981392 -0.1818757809079159
0.5528879821945623 0.15342144857095263 -0.1734270995859788
0.5263128702159889 0.20102110844376853 -0.07777471802130265
0.5081247523784924 0.10362026765142218 -0.07600963145337403
0.5293480870517442 0.1480393377180178 -0.22067242691487365
0.5389089786188919 0.20135010919190677 -0.045969682554201086
0.5410836009296247 0.15031284975431447 -0.1279633363255357
0.5194076554929836 0.22389205090814812 -0.028656408769137443
0.6087031835276946 0.19406931917022519 -0.09628981422604
0.6276856613190631 0.14821003774343922 -0.13387071754650037
0.6637080224205079 0.28140744801177675 -0.017649291225353636
0.5175097681748468 0.18968715808681225 -0.04327655909591499
0.6193551142996938 0.20247598990270887 -0.1402005276951428
0.5716052503704958 0.12588116587068043 -0.12990528201413554
0.5364076758565517 0.17304556257350612 -0.12398579091269823
0.5716154516362622 0.1284401577036931 -0.12795521519259978
0.5355975472277237 0.15699961286377118 -0.08158332777375676
0.5155323000244465 0.18778426165133055 -0.0652540203840033
0.5854922901270498 0.13204085598808035 -0.19557034498012626
0.6098242651037538 0.11229590501581299 -0.15907565953692426
0.5325504195759265 0.1905904634117661 -0.04430970758892272
0.5911889487799726 0.14161500854682174 -0.16813419375075966
0.49887936254594933 0.19462301707866914 -0.04591752840090635
0.547089244623308 0.1706849412671403 -0.05332447650464189
0.5946041741279515 0.12110345127098299 -0.10680023802972016
0.5310463269754422 0.1803200376963474 -0.10266765626533925
0.6186733580181283 0.1458118107878903 -0.16800338699937356
0.5486404868620269 0.16180315136999468 -0.113881068703094
0.5334430103183934 0.12965067397128394 -0.13156829413232174
0.5032514612014722 0.13026416936789076 -0.1020056499595654
0.5779321362564502 0.1129304466920047 -0.28569454606555666
0.5432055626033048 0.16474689611183635 -0.08889251100399065
0.5184104316988964 0.1661377983563881 -0.128063707647172
0.6703287254894548 0.15306968356607342 -0.24416349753758482
0.5201342637024027 0.13062120997788895 -0.15264612944025657
0.5558166558846978 0.13968650110479075 -0.13935242314660456
0.5338734173732007 0.18793988898157465 -0.08374289465253071
0.6027888294587598 0.20980535992720206 -0.08941472974431974
0.617778985817921 0.21029621791595332 -0.11083051041856606
0.7270107619704618 0.20917361966479575 -0.27798758641935706
0.5753302258463151 0.15051426895026054 -0.13721507249351816
0.6119417837577714 0.23912337237797487 -0.10907332661275859
0.547824872780069 0.16964451235098466 -0.04436172326546739
0.5556553208157737 0.1663148747357326 -0.10697259972170059
0.5096337815776195 0.16726863325490626 -0.11563850366150064
0.6184145978172069 0.1799124967505321 -0.13383032918683568
0.5111245875427386 0.18669526188654118 -0.04719309621397372
0.5864785971259323 0.15149604362987645 -0.16971377893827366
0.5357192008900711 0.15327008114057605 -0.10639780108176922
0.5276623058239807 0.1451213218646643 -0.17239308264531417
0.5266966620820028 0.2995817298989465 -0.08636381801744619
0.564485209482342 0.13358691011924861 -0.1110279354486039
0.6204600892366301 0.19571994324121533 -0.11396464631835101
0.6774699064608285 0.23488744376898296 -0.15092598906437615
0.5786244744345765 0.11936147151078558 -0.17472646422132243
0.5202474423074932 0.1815480226616586 -0.09477045431782471
0.6054684881492705 0.17300837008887981 -0.13702561228917887
0.6051478679117679 0.1691688816747643 -0.09975785615706911
0.5147066626277876 0.17838790765375734 -0.06108546967048767
0.5497401006362423 0.20541072186350107 -0.05784346341579294
0.6257219913493799 0.16634244513610952 -0.18931219407893707
0.5618149220242259 0.16286740452331117 -0.13945985619082535
0.4396127044096261 0.09198582176692582 -0.15429999943739858
0.49336397382208474 -0.0004636034287699431 -0.19772913729836716
0.5724995081286579 0.17163538886329377 -0.12431277738312474
0.6223671775995712 0.273675140973495 -0.0824911714258576
0.5293800720920814 0.17488543126512468 -0.07877763938985538
0.4677492846727347 0.0906133893082739 -0.1895529063899204
0.5525741377119857 0.17367787861411443 -0.08982222755813041
0.6058035472699004 0.2061337563491321 -0.14370823327189441
0.5380504015417955 0.22956309194260882 -0.07527602253190935
0.6340617771670622 0.239385432569577 -0.16158782675208272
0.6726045442080846 0.1534118090166885 -0.1868538286439474
0.5646244996836742 0.1636500219477739 -0.1174823439441326
0.4727640024050572 0.10695401738465193 -0.12320372761774934
0.45451198839130313 0.1420291368983726 -0.09950562590039169
0.679061658395284 0.3972996060463885 -0.06046972101566439
0.6345298396986152 0.18318330831816354 -0.14629993915501416
0.6495797531958232 0.22981213834347614 -0.10608459184877006
0.48255445986139023 0.10812019974220277 -0.18158951332299011
0.5786251971648397 0.1766826457586319 -0.06393442845026698
0.5847968525962699 0.12332575045388694 -0.24475468445835702
0.5400937733872695 0.19994512213824578 -0.10480111281782456
0.5317655589308004 0.1945358465274012 -0.0845360651843805
0.619442647773667 0.1596337867175066 -0.0860400708606619
0.7375079632567747 0.21466817202320954 -0.02150313132811732
0.5176315833535057 0.21233162073032474 -0.02553814835013668
0.6038832413417765 0.18756118561063317 -0.10306409891704504
0.5847744278808449 0.04884826195852554 -0.17359599058133313
0.42513121101239904 0.027223160715934114 0.011792982739891045
0.5022852284878496 0.11530897133297913 -0.17560155409836398
0.552595324404507 0.17253118861120242 -0.11321361017381548
0.6183061700226204 0.15751281915549953 -0.16980181170535502
0.5569308269160587 0.17129875886352863 -0.1364954231343205
0.45001228473132926 0.12837707922567176 -0.08693928065044076
0.5683225078651191 0.16906238820277508 -0.11002565495698491
0.5378874886370539 0.08622270105334451 -0.10906665425073925
0.5373207098081991 0.19492960312494745 -0.05989494644882143
0.5663703568546623 0.17046559070617207 -0.1320116121029855
0.5335144211839946 0.15332395934957788 -0.09319658791686436
0.544408871680389 0.16947821184800205 -0.11938689639139
0.5331853474260271 0.14984998072465316 -0.1292329977211608
0.7382208702382371 0.23044352531832146 -0.18745019028250454
0.5113156618872949 0.15514479968433648 -0.1221116985665276
0.5620870785217136 0.20402672858223525 -0.1411263042837163
0.5457341300101604 0.14407090525754995 -0.12883817928387487
0.5046707633238299 0.1215586225070524 -0.12746461543294174
0.5672868538450899 0.17862253965479624 -0.09164381287287426
