# .PCD v0.7 - Point Cloud Data file format
VERSION .7
FIELDS x y z
SIZE 4 4 4 
TYPE F F F 
COUNT 1 1 1 
WIDTH 803
HEIGHT 1 
VIEWPOINT 0 0 0 1 0 0 0 
POINTS 803
DATA ascii 
0.5802045776284643 0.20147399748444172 -0.0708999851728862
0.5673249395581337 0.1635819713971216 -0.08829809693457946
0.4470550139153886 0.08890927794428194 -0.18701461056831192
0.6360722161501684 0.22038509618880653 -0.08667170593949436
0.16288013338709106 -0.03712413132021197 -0.17336146626490745
0.6229956820227471 0.2046259309646814 -0.1695717430641679
0.5362081885722745 0.18345760290017665 -0.08637470841399875
0.683462493185246 0.1185257526561827 -0.22971264456619167
0.5587891972900394 0.17355569792903225 -0.13071409706209636
0.4969706329669492 0.14239577678515047 -0.12920297708060957
0.5503638380752847 0.23310351101559945 -0.05024898850102488
0.5188100839639134 0.027099547680705882 -0.0665430872094106
0.5634815960807344 0.19263179968217514 -0.15432684134073327
0.5379042931383111 0.21757278449010187 -0.0866942045458785
0.5306431091608061 0.14897674392690874 -0.10775615038031106
0.5596527385174568 0.15871192125510447 -0.12913639118356457
0.5153081077980772 0.20821438818038018 -0.03932900524165461
0.47710212066429847 0.10381643152294373 -0.11043404536452783
0.5862331661169549 0.28249550518322053 0.010094273298122403
0.6140278777970849 0.18968577778539952 -0.10759033491243031
0.5467369975569483 0.1677028895838646 -0.10797493178252182
0.6452571995950223 0.16087806557183626 -0.15734835226484734
0.5464703383328242 0.07007088448960985 -0.12043924631964842
0.557902489478991 0.1790877340411896 -0.09299456118469607
0.4690598321795818 0.1168458667034713 -0.09603613334637373
0.585311488029788 0.13694085811687273 -0.15226265063321875
0.6009605284946247 0.20108569086238504 -0.09837975739374372
0.5536529562154442 0.21003562587878832 -0.056407061266241953
0.3919437171780089 0.12038062826815121 -0.13288674606098994
0.6585016282850233 0.11873732137959792 -0.12089145700552706
0.5359415301259531 0.17835283920331335 -0.08885348897750589
0.4812032051486881 0.12862370612904783 -0.14362573226449626
0.5626217613901048 0.2213404127836327 -0.06477012521783365
0.5889061674461118 0.19434995184542458 -0.10925746741422415
0.5209948991278139 0.10804364901315466 -0.10940010180540582
0.5212177215888829 0.11677302079596075 -0.13781251064108346
0.6125630741592403 0.17034385794039508 -0.141966309998665
0.5575243375396468 0.16039852439536162 -0.10932287810179275
0.5435145641460224 0.1611713449372587 -0.10897101187413227
0.5434620381189745 0.16663155224196657 -0.0831982062665304
0.5737334027002845 0.17737795137347234 -0.12974858896193098
0.5174268441952847 0.09692502520979929 -0.1826581143087509
0.5979329634633785 0.1709150165515041 -0.1364631519133468
0.5908402688719576 0.13229023672127482 -0.17038737330381082
0.6066576151697234 0.1479069561066808 -0.11819256982903426
0.4794348442134577 0.11072096057571912 -0.1198690158997664
0.5751987522707935 0.1709444912329161 -0.16883678334808394
0.4107514422334333 0.23386388137168979 0.09292844478034112
0.43331794121654355 0.15796695185133558 -0.05348343973112435
0.542491683284922 0.15317297363600346 -0.07752544419312812
0.5233496599415162 0.14179047721151505 -0.102389551591898
0.5707509229246028 0.13689216864952414 -0.18245845842966446
0.5611495161436295 0.1110057571421521 -0.16137159575069404
0.5881541056331798 0.16176997441991148 -0.11227751877972025
0.6158656089745733 0.11748350736812085 -0.21052909435371703
0.5315238825670718 0.1008137749349487 -0.18072716869951932
0.5455158535385323 0.1014243035372715 -0.1522746331389584
0.5387122419785584 0.16420683559269378 -0.10097065816034956
0.595081975044053 0.2348300097530398 -0.051836002546565396
0.5691021805324397 0.18319078552784163 -0.12056220264440753
0.5001264275912547 0.11238747028031071 -0.11036977219245614
0.549793281288359 0.1519349855925043 -0.09721765354400702
0.52161118143772 0.20174895999787168 -0.03801740232418638
0.5455605989097307 0.1773299849961063 -0.0926290289838505
0.5466086976593374 0.19322426060955422 -0.1058437146785991
0.5546937218745001 0.14516855907439208 -0.13398336946667655
0.6000659453319486 0.14901014989709438 -0.13064160096634225
0.5586894874382295 0.16225085059917888 -0.19987749543250288
0.5607682218958416 0.19186237261109795 -0.0869255827299753
0.5050015849328844 0.1693555706968084 -0.11065789428867845
0.5975188554468076 0.18349969801496968 -0.11082824410621583
0.5587521787291649 0.16254252781575929 -0.12456282977865385
0.43593048977102455 0.06833070768868765 -0.0340166059627478
0.45129058932511157 0.16165202983415838 -0.09878777537532812
0.5330103119252954 0.119290759516673 -0.16172226095758901
0.5762388322331446 0.12818913674126975 -0.1597378773438436
0.5450689850937067 0.11742338090991211 -0.18089592875678306
0.4711001295640216 0.1345303459482352 -0.05337914056930515
0.5357710884870954 0.11422823347658095 -0.11272431524287185
0.5688160932844966 0.22827846983096833 -0.16680356229691995
0.545401449205059 0.1196040177236739 -0.13189816136355148
0.4480600899366749 0.15781572285831658 -0.14301104006412402
0.4823193372087786 0.13786719303246286 -0.12783173440429607
0.46973168072113936 0.1926732453324007 -0.08018365980548481
0.6169152607011341 0.20422432810343594 -0.0851001016975772
0.600799663801908 0.10213910188750219 -0.19436258495152003
0.5024793456471315 0.13653004569465566 -0.08548985908949192
0.6081779773079745 0.2009927413724597 -0.047312088280577314
0.5287406037234632 0.14817077656692845 -0.11537180543507475
0.5459822797651128 0.10100095304110823 -0.21724099964144727
0.5105568144001609 0.1439868330303682 -0.1299248360981693
0.5156474345379252 0.18876672826351637 -0.061308238965480655
0.524770994636711 0.1500761701225315 -0.10398931213728702
0.5579083457309508 0.11587744192652849 -0.15028697122426138
0.5383861090501938 0.12646612795595047 -0.11485132538805942
0.5754796507492301 0.17133210609804905 -0.10846085496109481
0.56386396786516 0.1402308729881554 -0.1299327246203461
0.5254580076134374 0.1818098725418622 -0.07528907900426418
0.5099773316001404 0.13463886190729113 -0.05024911049501668
0.47855401868766023 0.10071229557854622 -0.1689590870352049
0.6071780422473978 0.15875541905057844 -0.08044334343613002
0.6048812624896556 0.1925653829352143 -0.1294783558196002
0.6178306862934875 0.1808222025293844 -0.12496043921095179
0.579824912426318 0.19378940361568198 -0.13221285188828347
0.511472230295908 0.10231041034410282 -0.16772582168796646
0.559418293779288 0.21275378774060982 -0.0798247966550889
0.5406802349726973 0.1519800806350986 -0.13787028114572308
0.5453226085559919 0.21190256148952358 -0.0484222411701154
0.5586655416951771 0.1332590535135978 -0.167765539502426
0.48656932582613877 0.12155934329638285 -0.12642519142845288
0.42319283548810915 0.0476683952813346 -0.12918894355013322
0.6361731220366806 0.198090910218923 -0.1386361291691145
0.7221737315121572 0.22972266037874078 -0.1652398423811121
0.5342563194388532 0.18237530430076276 -0.09541196047746325
0.5180688058451466 0.12709045622696635 -0.12669302633769064
0.5455361523062976 0.16879587840313093 -0.11606279460895053
0.5989055554196767 0.19553663458532355 -0.10398229908902579
0.5492317261458197 0.13884539006335217 -0.09509256280486511
0.5557315801826661 0.10182027631040569 -0.12826705297510443
0.5022501700014459 0.1741195269302409 -0.06757245317460558
0.6095380886021644 0.141894755270755 -0.1543189799177469
0.48603335356091293 0.1899622117137767 -0.15493036892732448
0.5419941954085488 0.15070993493660012 -0.137519348132912
0.512141200048049 0.11758857554414703 -0.14463475305797147
0.5096653379744964 0.1451685221138348 -0.13055804771205715
0.5414357941782697 0.17091787101713862 -0.10149911224326047
0.49917004020788625 0.20058412472059217 -0.08344998827334393
0.5244227464120996 0.19297175969876434 -0.12961624354085188
0.5145153534074183 0.12093245368635053 -0.11018078106449991
0.5345463991379091 0.20053594894216076 -0.10125420582664901
0.5300377118383182 0.16453493976274558 -0.11480582621148017
0.4386551808888015 0.122276152801021 -0.07457153365429292
0.5634002456064877 0.21169813064227583 -0.07347676783983559
0.6502465209245116 0.1355975938932943 -0.11489154868894502
0.5528811913288507 0.16381495356813502 -0.10191257972695666
0.5889179599458885 0.12374461510208334 -0.13087488939495984
0.5843718265553832 0.15555412761622733 -0.12348865555361499
0.7442719983065871 0.07936898558969574 -0.1585152783299293
0.5903648574629585 0.13168594097575692 -0.06814018370110375
0.6341750629780307 0.17949590436040808 -0.11344476791857971
0.5320271387144118 0.16205723019888296 -0.09836791335850137
0.50325306551008 0.13478868490577156 -0.09144427330910787
0.6432587361267821 0.17316555492689645 -0.12924434936294915
0.6354922909780356 0.15367711861156863 -0.16134685018538164
0.5270072601575464 0.09877047469839795 -0.1526938760455181
0.585552754442503 0.15645718921510365 -0.1512416778824388
0.5441539358198639 0.16085245912447022 -0.09901614981571072
0.5790191871888339 0.18543271477400936 -0.11027287610789926
0.5656090651884682 0.2175410918476075 -0.0007623112066283966
0.559016695218844 0.1558806394200758 -0.13161343383315227
0.549573187183114 0.15876134254483532 -0.11396755411686854
0.5925774324047097 0.22262334705919784 -0.03742139291227886
0.5646228053472839 0.14840506848705104 -0.12924813794043644
0.6006155932536927 0.15129161745727515 -0.09784224815996367
0.5796444723094396 0.08464366068415075 -0.04497965184557984
0.50086221975549 0.13538670998147495 -0.1481448586227998
0.5318887333109359 0.16822389340833865 -0.0690484867687502
0.5667046490430607 0.15178825885482183 -0.12082284671170385
0.5219105875637808 0.19367674880589902 -0.08367507202949298
0.5102843695747055 0.17280327041308396 -0.0809908596572626
0.6099490011162203 0.1750908446341839 -0.12731212475956966
0.5375652183669928 0.18568480752682603 -0.07565629084297143
0.5391598775859023 0.16496886556231516 -0.0931249863245398
0.5507986785763705 0.1136459555597753 -0.14564458430574234
0.4202037606911233 0.08592407225992815 -0.11597891073412825
0.5112850270805609 0.1600400509626354 -0.1789336588299335
0.583222055293362 0.17055941396174035 -0.11892858982818666
0.5577790140245469 0.15034743097828596 -0.16246317775400598
0.44764700772435617 0.06383981731843846 -0.263378208170451
0.5682969001368434 0.16549397212139638 -0.1107937007476778
0.5464050174690556 0.21199100157073758 -0.056176833961004036
0.5315508663827586 0.2346673631271301 -0.01063696578562201
0.5910696503317041 0.20475702486780278 -0.08212916789996427
0.5518194175584483 0.16687357405092484 -0.108667773621832
0.5380875588568728 0.1649506632003579 -0.22334451215320428
0.47406858027807175 0.13676070685872332 -0.07763615783564148
0.5777072407265251 0.17151383329189684 -0.13039539775934372
0.5703458432695783 0.16268596389241452 -0.1393159704101805
0.5122573260738079 0.15830349950888944 -0.06782230194104955
0.5415783804395886 0.14447953978699957 -0.11180736806953462
0.5474862978011146 0.13432630975020743 -0.13781236241420913
0.7180791933857193 0.19134844424232256 -0.22288125108401857
0.574382688354163 0.1642315900753033 -0.18202135081671145
0.5990504151509555 0.17547722262787602 -0.12895086987616367
0.491131398118668 0.18654011691018013 -0.149521409448667
0.5132245479933459 0.12934442821162406 -0.07181401238561591
0.5889956612103617 0.1847410308294286 -0.08022963927393789
0.41827466161470284 0.0999620037325144 -0.07688886877139112
0.5586012953925774 0.12157748639162946 -0.1656013902083231
0.5520110929701332 0.16492340346619017 -0.10871543492115165
0.5605845556127065 0.15653926178288202 -0.1235492449084461
0.5155550206001465 0.1552749230083066 -0.10784507564255819
0.572431760685916 0.16662942339047504 -0.11165443733648317
0.555341062204576 0.19890155979857127 -0.10587315662746732
0.5339597695106164 0.09929041635714952 -0.14596669477259638
0.6036351807215681 0.16492491715030155 -0.20096403559396947
0.6355636583144673 0.24713601780479166 -0.03221332608306682
0.504201500316924 0.1492636724158558 -0.07810617234363804
0.3199348804874802 0.06336944826770718 -0.17733542063253083
0.5684610928641405 0.14929498025549037 -0.13680372004463948
0.5252232458962993 0.05866383460357838 -0.20097190242461238
0.540812613130953 0.21518506436012785 -0.06649795246751466
0.5132602185863817 0.1327402114949905 -0.09738977020126072
0.43035206381537705 0.16918802098052765 -0.041291198637480875
0.6101404573695106 0.16115837833979185 -0.1924255827736232
0.6012171418636854 0.17943931164418814 -0.12063812275762587
0.5937982391166514 0.16793548666160518 -0.1312252380635357
0.563232359209735 0.16704808164334395 -0.11681374809658962
0.5332236410419426 0.19100006778936063 0.04127251567500423
0.5709896097456806 0.161074630499769 -0.1116299929147857
0.5395388963355572 0.1361330686341944 -0.13342312562294012
0.5287952984877933 0.1667451527199546 -0.10767852918387177
0.5939018313612365 0.07728157084537202 0.07571107201559357
0.5896019951128011 0.1740769921805736 -0.12708332273942347
0.6181718442808943 0.21583461013096894 -0.050602332832184516
0.5569591238243135 0.14228822584698264 -0.11993144052922844
0.5613651172634349 0.15009238897704336 -0.16790418622453274
0.5830442771396065 0.14360777056748475 -0.14859726038145027
0.5693153199577949 0.1578389125591002 -0.08715242042599414
0.4777793209007086 0.16833033493438165 -0.08202916373622315
0.6159749972360942 0.11876232567411193 -0.1401848239478909
0.535873939498785 0.17803321723508247 -0.05977053463861637
0.48320420880047266 0.19286970181613583 -0.052044531981636055
0.625296311461625 0.21420163300194872 -0.08183725092645489
0.5465870742279151 0.16138436210590612 -0.12144899699907796
0.6370741579059427 0.16496801884608203 -0.12305749403046207
0.41193145263792985 -0.004320849179919151 -0.12682132142111868
0.5153569515083376 0.15136633574806524 -0.07976070147169878
0.5194488287990708 0.1661811728386624 -0.11489344034673366
0.6608656988099426 0.2801028108136734 -0.023478891327954443
0.5679218595529107 0.1462781351051774 -0.07571641306812182
0.5334588434535448 0.1724911479606419 -0.11148949112848072
0.5430282518535847 0.15668259645175908 -0.1057440857919687
0.571743574319882 0.2166061918555897 -0.1601933640318407
0.5070769640999657 0.14322145269514408 -0.12914810137129962
0.5404022561951365 0.16607257220499605 -0.10756728014669648
0.5833438182593369 0.1909608684785553 -0.06715920675993914
0.5675371185819102 0.23345776191700907 -0.1704043454248847
0.5520422757506651 0.17375031124797147 -0.0803884684474383
0.5479761610421718 0.1582388968038515 -0.11970097870070617
0.596522421802419 0.19342352641561433 -0.08177864977486138
0.6282549604546546 0.1719656277076922 -0.09147153619956327
0.5579213726357608 0.19374176953871824 -0.11049116568226225
0.5602569778275495 0.16701870596867252 -0.11380849442697638
0.5539969124101134 0.14898541296545886 -0.10471277535617673
0.5523724006258703 0.1333320262709492 -0.14666957670553415
0.631682979366758 0.1862224779256394 0.08307231330132936
0.5529596914580992 0.19618033036385896 -0.12953870406417423
1.1050978462770615 0.7846988894290519 -0.27641688885563553
0.6326352166313143 0.3021133581493416 -0.2849565540379473
0.4971010515669292 0.16043944275077138 -0.08761437140569228
0.5478833763453963 0.17570528101859395 -0.10579948053127453
0.05689331521632823 0.3902118731352573 -1.0983927274163392
0.5487505447727159 0.13513932535062168 -0.1330745205501529
0.6359827011205539 0.14217965342768935 -0.004759925867745096
0.6454252619580672 0.16471279669207206 -0.1535143955847218
0.5518726463337345 0.14017898097446846 -0.12275705702091955
0.7118498778829832 0.14177081816555415 -0.24413228618280414
0.6144154091290943 0.20760476626838908 -0.0753820859418397
0.5249622248869628 0.14033915731641855 -0.11601759959633284
0.6834046844746524 0.08674852314169357 -0.12589915752950276
0.49721282774842734 0.12402833821602144 -0.14666769495123333
0.5530493386273321 0.15669874030768938 -0.0888843454676902
0.5943386625279174 0.18619480227351914 -0.07229752211968332
0.5262143217039892 0.13275461715173265 -0.18047157507392342
0.6126119294407033 0.23019544019001614 -0.13630888150744624
0.5033513568643713 0.20534427603942618 -0.09428299990497635
0.5745742056933381 0.20211488774083364 -0.0758475357401096
0.5614287312491513 0.15939052991527092 -0.11124927408810947
0.5978234211258098 0.20318199210211674 -0.09431227950814502
0.5726201000764206 0.10966802087168048 -0.20398200421506374
0.5395704276929791 0.17474965817376642 -0.1206058253193163
0.5250173490878467 0.2252441634074387 -0.037373917055774086
0.6112875018328907 0.13374026599012723 -0.19960250634748888
0.5507504654866722 0.19994277942635108 -0.007967684203975978
0.5785574893099295 0.1412938768156664 -0.1644426027683039
0.4473705408165074 0.13291932961047337 -0.06530282938705056
0.5433905082750812 0.1967500996895808 -0.08463836051801366
0.7766520031954656 0.15543627782847125 -0.20192986070493646
0.49822663779404763 0.18332421599717463 -0.045063191594536534
0.5691707053927786 0.12773020829234838 -0.15719009291446184
0.4849342214378396 0.13900668301172914 -0.14434600790329455
0.4803275957328026 0.11085230164309223 -0.1589610289903618
0.5594930416131376 0.13749800414626634 -0.14836068368343547
0.47675459093579775 0.13152042102515793 -0.03412412077614135
-0.750018752298999 0.2990675328789223 -0.16829942327120762
0.6062219133067686 0.17881794275885454 -0.1151055112312207
0.5976916429962813 0.2092649939733917 -0.09658234196237458
0.5127676347696166 0.20321245722101366 -0.006711227399492259
0.4256182807815634 0.2489409462559138 -0.03583824720591622
0.6415143977467039 0.22125491405046205 -0.15148430718217298
0.3810773630338531 0.1604819725091602 -0.21900146126475306
0.566664542625773 0.14330362837949906 -0.05084492151857489
0.5584205441537904 0.13909049646136395 -0.143835451701122
0.5278576135563782 0.14899150850828846 -0.1207771843457408
0.5678976429447857 0.13757767748109018 -0.13238478274242027
0.5168398327541297 0.15410060285401528 -0.09965737734951574
0.4736924322746603 0.2544404873607391 -0.1438589073620875
0.5525875106324918 0.1681992914221837 -0.07907809211516792
0.5460205566054412 0.13634323871886522 -0.10458642210426206
0.5072003978737456 0.20934135276360166 -0.08578607617171485
0.5533398458043592 0.14721185203180198 -0.1256463954331224
0.6753004711416821 0.18356002395185556 -0.04339178738629812
0.5612077022576187 0.1541322177565405 -0.10561660408907869
0.511066310326612 0.11022026297075627 -0.1770502212390852
0.6041147770326489 0.22939227952053898 -0.07190035042282261
0.5033701000958786 0.1342399203975333 -0.14078414036620757
0.5330856812453106 0.15324355877541507 -0.10519825144594108
0.5009301211814545 0.20556581011871344 -0.04522935934429029
0.5484158859071755 0.16568834522288967 -0.11956050467789225
0.5213603305284806 0.2785348904722298 -0.027579855124855612
0.609602875977302 0.2149632403563544 -0.0703999912832387
0.57292419229627 0.17559959804424352 -0.09663704681133822
0.4095236196537684 0.055894804722441904 -0.18216451032355963
0.5978634493448709 0.16438054318879836 -0.1418190977758087
0.5347525478431407 0.1729689152993501 -0.07366224272928434
0.5126019417161558 0.15793915441378203 -0.08496615717459122
0.5313923397708038 0.16722867198086533 -0.10201852254412813
0.5348056899157285 0.1647066931012091 -0.10827697492081256
0.5398853420716563 0.21830162953682475 -0.02812144682575024
0.5298767639935846 0.20234634519121641 -0.03048840055541291
0.5134705558533312 0.21805603164040122 -0.04069405100224799
0.6167055900577196 0.20539456521078137 -0.09042520323592385
0.49980513600124254 0.14539174017110668 -0.08674722344184715
0.6294735062926975 0.1786953455860214 -0.1734513664524684
0.7189954282603708 0.16585186098703275 -0.18038074722414876
0.560940961521851 0.16716640035397745 -0.1224737260499893
0.4031419645374683 0.13345116992610428 -0.08543784239161312
0.48116017791846843 0.15244199982143414 -0.07352131049316313
0.5208872248366134 0.1664706846525803 -0.0851229876654287
0.540759667900204 0.1311022400536217 -0.15808423343725053
0.5915831444508655 0.2027069001744053 -0.09258743908790734
0.5561040116973572 0.23756573395195346 -0.007073129143535084
0.5591538858190148 0.17589174174352706 -0.10467373819018633
0.5230952692376007 0.15323167487727574 -0.1298094347853862
0.5662170794874584 0.15707774925598983 -0.10834263380331777
0.5669033457849366 0.22928088697858584 -0.0600270304428534
0.5549084099997685 0.17105566118596016 -0.12387235984527933
0.5620152222744963 0.19043560754579403 -0.06747361461098933
0.5422736749165011 0.17767750217814182 -0.09541278611065707
0.5816025992725713 0.21649526128820185 -0.09461613658204726
0.535113391228677 0.1338859103364598 -0.12118871885849103
0.5250821021630259 0.15297367050715138 -0.0603596885544988
0.5417702169544611 0.16462127915883684 -0.12938003154964406
0.5608145388070227 0.12693350639219148 -0.21819811653706722
0.5571436994183045 0.12014680707170555 -0.1615996389931098
0.5859857378070359 0.1466687355762133 -0.1290735103956706
0.5115553668681798 0.24387842004827576 -0.15960354962714973
0.560707272500764 0.16129391707232799 -0.10359315049196027
0.5201027172883954 0.2242998327643022 -0.06703453043151342
0.5306286797513025 0.21684644186746027 -0.08777367923029544
0.5943041026871896 0.18100253429608415 -0.1253689368357982
0.5578782431652058 0.12143692718302646 -0.17743491948132828
2.6176412478104396 -1.6340572658867814 -0.7495967657722247
0.5015680396507207 0.15820690974010176 -0.11769206617655925
0.5152759567701395 0.235813685155847 -0.10616689517736688
0.632969981300235 0.13521633342739392 -0.1772560988338654
0.47337603508754 0.22724383711803853 -0.007047859329787798
0.5491367586420353 0.18375478963386627 -0.1232513221275724
0.5517444519137626 0.13819398681184225 -0.11871071046570592
0.6056364394015077 0.18566470826061732 -0.05781666874750613
0.5315932235454994 0.1775732795263707 -0.08425406719483419
0.5376728310331202 0.20865978581579725 -0.07905533590870562
-0.2890164031915674 0.7143879284975583 -0.5506215873977283
0.5374355703835789 0.13255497374419178 -0.13307792512230776
0.5536435890637961 0.1837050445403463 -0.11197649760183026
0.5054453722618746 0.12912534836848977 -0.0890410701792348
0.550076114098971 0.04469588853572759 -0.1696249195617412
0.4200847339447904 0.16875670782846441 -0.09157326202533511
0.5478427008264077 0.14207036173399956 -0.11905374506324051
0.5434630658550788 0.23576447717027804 0.08964490587219132
0.5475096903567476 0.17564428354981487 -0.09469928785732407
0.48368615790937497 0.154340339215139 -0.013142188950411082
0.5244289549536063 0.189293779965368 -0.05681239212493949
0.4619795722902609 0.15317913465764832 -0.13887770355829332
0.5560562418414463 0.17070174493031232 -0.14224459705776837
0.20904525179196298 0.4262302555409292 0.08085954236922532
0.5615400643124104 0.0979545595619129 -0.17359544117147152
0.5281531057481459 0.13658923699188108 -0.1411020581756759
0.47676538599635876 0.1768436846134307 -0.050007994720161264
0.48774639622227767 0.17610981376247992 -0.07346655261656565
0.6589936220953234 0.13802113476586442 -0.29005914151836976
0.546890892741871 0.07301807684265782 -0.18000589840140435
0.5205692902055574 0.15445610863952197 -0.09618955180631872
0.6090935195371259 0.1587512367028694 -0.11472942012538567
0.5163662370231066 0.1271539772760093 -0.1174868961924318
0.5904609168025985 0.07840467828316378 -0.19412899706331643
0.5851827899986972 0.11855941415959137 -0.13851014855501376
0.5680112444687921 0.16905496176033807 -0.16888526183896602
0.6485480724888077 0.25382906351478596 -0.07383087303104219
0.43913821090960425 0.18200328222340545 -0.05921401474988386
0.5720091218213099 -0.09216840067753651 -0.22292158294750664
0.5431125900874747 0.19784408168982281 -0.06489436785138025
0.5938313063041818 0.11535579898156811 -0.14226117344776412
0.5748798164253373 0.1862928482698578 -0.11147866213578084
0.46848515867753804 0.17927598869709982 -0.06477657055339137
0.5301938439195624 0.20355693995702495 -0.06950896794486994
0.5311808029792076 0.16266179114410306 -0.11670608386540948
0.6048122657182375 0.13811543337584453 -0.16125468771986107
0.5951488780066256 0.196277478468744 -0.0631445549485079
0.5492686678523029 0.15913866342563665 -0.11191181722075783
0.5719927396348652 0.21805304430097294 -0.03471873073898735
0.5654986693574102 0.16501602755758427 -0.1347594507137586
0.5144115447416766 0.12858882582500542 -0.1532769578499824
0.4642022735670679 0.22212770328391684 -0.015918503159795705
0.5487622407625281 0.1911504565531743 -0.08634893338680172
0.5920398264740641 0.1532369164670513 -0.08388794204978467
0.6131314135757862 0.14507357558224498 -0.18561407560152077
0.6015263054813573 0.26029351177453464 -0.07822516990110273
0.5755498567746571 0.09285640808920448 -0.19669871776562786
0.5253842887959337 0.13379343097000174 -0.09017430716770036
0.6076527256658864 0.16821066109017124 -0.15163180820975697
0.5730239478815662 0.13114622119101682 -0.14117339504302606
0.516925628205442 0.16701990351577933 -0.10263814333468702
0.6033445025982616 0.12240772788936738 -0.1524862812463681
0.549367694572183 0.141874770522179 -0.11057942062571158
0.5713093079014158 0.13835197328214122 -0.1604728338930954
0.5799370710030161 0.1526613314174199 -0.14085661472547883
0.5454060147522739 0.1474166490114044 -0.09526611800366425
0.46267850584119685 0.23590704708769294 -0.020937985445115714
0.5130136303350525 0.17767758663083555 -0.09779097841513362
0.6047987982435359 0.050795715679612385 -0.031694394217112176
0.5144260884434146 0.06334670312421053 -0.24510330968044514
0.4959129077123805 0.2108567353738806 -0.13517520986547993
0.5934308020638923 0.18459323977447184 -0.1347765293882759
0.5738596141213179 0.17216079503623405 -0.1383219290481179
0.9163421112515806 -0.09670260319134627 -0.29973519407225524
0.5687986200882449 0.17103379683831577 -0.11139592919350605
0.5620944059916297 0.20597097514510665 -0.0444179550160726
0.5661238347538671 0.12253738200524822 -0.18838498959075878
0.514726835794022 0.18861548366052716 -0.03488328701089927
0.5314961088430152 0.17067295924621817 -0.09707648183518813
0.5599094867875323 0.16166721560688302 -0.16462034494486488
0.5667748544490792 0.15448538140836376 -0.09286453487493418
0.5687249737812294 0.211685279619644 -0.08036845385537106
0.6021323013461028 0.15231183022294204 -0.08615503563412119
0.5749211033259201 0.2214456905694817 -0.09800849771802689
0.4795770817808602 0.20903407962092047 -0.028815959732696683
0.40509916162999104 0.06687775414178532 -0.08917885522021152
0.5896604931203626 0.18314539191305812 -0.1204212958277111
0.6055189361227349 0.19909120198383334 -0.09659639894941563
0.5690218773548281 0.1801677701849087 -0.12184553251013597
0.568815432318317 0.16344410410997057 -0.10379742280534288
0.5219701947495565 0.12195208691079529 -0.15714983082042977
0.5777175484008694 0.18329917264463802 -0.10183301343626283
0.4199211207836129 -0.013994005666688736 -0.38727503692466314
0.5737089649258991 0.19214902270093148 -0.11431924356813283
0.5479250442179335 0.1558562468977982 -0.09515337817842351
0.5436312466902962 0.21724428522409767 -0.04141727096464365
0.5411193945398338 0.1964301106394828 -0.07256936363104671
0.5158822545160859 0.23253117786137523 -0.05159939284448001
0.5467483923282117 0.1509691940142659 -0.13995580640262517
0.519216162280344 0.1470640985728835 -0.14551193200895796
0.5616027135828148 0.16238440176090307 -0.10860548818023119
0.5514400106623185 0.19692069000390688 -0.07264853267140836
0.5418325894991654 0.19183694819139419 -0.08787842333308049
0.5645420395345582 0.13337860581202676 -0.11261579516326492
0.6517490136335766 0.20136183008844455 -0.12248889512947869
0.07272718590461125 0.16148958224084708 -0.6629903425359913
0.33915899420597384 0.00820310706632199 -0.6065820400754944
0.5182787797699717 0.211630477255369 -0.20511777099488882
0.5883605462772152 0.16692036699387813 -0.1349240059743977
0.5662531234472254 0.15989402603690905 -0.16223133734673922
0.5915970125122385 0.08255077927609022 -0.04526031845364287
0.48895791088959584 0.169738450142205 -0.09881726323972373
0.5243323633648345 0.12492741403272589 -0.1450937382066826
0.5320699617696931 0.16102113063678303 -0.11375555413196992
0.49175551056539746 0.15103847834964768 -0.11994126277285488
0.5408695984385758 0.2163075689293521 -0.010834658447521406
0.5532891826496353 0.1752281997968339 -0.13023543753656952
0.615895334461328 0.12846567486511162 -0.1998523611174079
0.4994009897554008 0.16019211420913848 -0.08767032619221027
0.5464353614606381 0.14660760385621074 -0.11777658572364658
0.6602079321523604 0.11906882480877812 -0.1512254399886075
0.5498336043239505 0.21987299402533722 -0.042562937143401314
0.49603173603939865 0.16090239221807678 -0.06499099531207264
0.5420732539303685 0.15948159357463965 -0.1282219181022839
0.6039899398284376 0.16442833490140174 -0.09567271947095435
0.5644610095671254 0.12896026051134868 -0.1404335517012214
0.4986638673797046 0.22373328642950696 -0.001796012761531074
0.5709641885986656 0.20409717731439514 -0.11636418362542145
0.5009966527043161 0.19361879022966377 -0.08553976833789534
0.5555437360696374 0.21149109310104564 -0.08446452650510139
0.6405223940455187 -0.030142820403540327 -0.12767721401958454
0.45481621127699157 0.12093985364575133 -0.11548376888615053
0.6521659519906962 0.20068871995979976 -0.12524667511432597
0.6373149818437156 0.1516317063628776 -0.3366322487557625
0.49950673774752374 0.15476930281698742 -0.12177177102422831
0.539988643050421 0.16933586140285684 -0.06634850012227389
0.5490894046948824 0.13393880310886175 -0.16859908636034504
0.37436138271607433 0.026157282711807284 -0.1846848950542892
0.5615453152129106 0.1751927621275513 -0.16021753506076664
0.5590465760803198 0.14928639510691255 -0.14959619435286697
0.5881739117505589 0.14051020119688928 -0.1864992664334153
0.5582979242627459 0.08800044616035052 -0.19273742695932583
0.5663726485677358 0.16182216159765517 -0.14420543764623517
0.5060964459798356 0.17053550670243567 -0.09930659755542592
0.08226100294821492 0.3085094977630263 0.48586970937417107
0.5423404749007972 0.1630716360839699 -0.10612067539135239
0.5721792218267581 0.17081161074548845 -0.11210721333115714
0.5466837201881134 0.16607309833565864 -0.08588811752727565
0.47008632454813437 0.16368065972230283 -0.06590096059464656
0.49969653471333686 0.1443963030334885 -0.09997772743363953
0.5600317794100818 0.17368416924156804 -0.10448548809722524
0.4816659347831518 0.14975769815228546 -0.134388347406599
0.5736912514268937 0.17456966518736294 -0.12287287544189951
0.40158453892854595 0.09360703791668357 -0.20745980367145478
0.6030117786204983 0.1930157294363255 -0.1689372967876892
0.5058178297141751 0.11529882044780493 -0.14020550924630015
0.4805984102613934 0.23749827253570288 -0.044581043301334944
0.6456327580108905 0.20328237701420449 -0.1177686954224555
0.5637197975822232 0.15773211993837322 -0.10825081334527908
0.5503653456143667 0.12781749836389622 -0.14801776695722424
0.5397114792333895 0.16382422041809264 -0.10832847926086231
0.5803892916386388 0.2066782895546737 -0.07882821759990577
0.5555280046682469 0.21980271865547252 -0.08524059454832411
0.5320161362145512 0.28930914662103646 -0.06213369202809815
0.5594853019953945 0.1588464385306736 -0.09844125710428386
0.5590751620549241 0.15748010779364563 -0.13872108583802856
0.6714522206633262 0.1771014224901819 -0.11304610200807019
0.5677888854045392 0.22144876441672068 -0.06720335398728139
0.5112279346487298 0.1613102552530563 -0.12103708031551719
0.4854261862750775 0.10217844043356195 -0.11746426292292256
0.5597265458716834 0.15481613314523202 -0.10964133541015997
0.5203968584364844 0.1263343689473686 -0.10997122989758168
0.5281609494733601 0.13124448531860367 -0.12368754633142487
0.5484600860524012 0.18485144872184378 -0.11840399576706773
0.5564810617720184 0.12208158969440319 -0.14399998599809294
0.616888724405996 0.17160779209751809 -0.19593567743579854
0.3853958287659225 0.07538465701270525 -0.0824639430612848
0.5394918621854288 0.14821724111075696 -0.12234745692748561
0.5191232812387483 0.26425050357030955 0.11119445019245688
0.5922462318065698 0.16621401594125018 -0.11698655163391436
0.6052926996056698 0.16272524067133531 -0.09269381749049899
0.6378036612881601 0.18172091480377617 -0.06906863903954275
0.5651482859664014 0.14404079257670332 -0.12861326318748922
0.5790024712308508 0.1752396191762955 -0.10307412026132567
0.5400643030543932 0.15704916236393274 -0.10327631502453016
0.5642527514877571 0.18308465087110903 -0.09414270335136621
0.5988433422634074 0.16578571268487963 -0.1454216323767099
0.5617629269853239 0.18463231759810128 -0.11563298126488064
0.5542197303174419 0.17137883712663893 -0.09487743254013026
0.5787689366982818 0.21741899463515324 -0.10117793276697284
0.45961519895193703 0.1500864103128663 -0.08692140307890384
0.49674948929985874 0.17445528596203985 -0.06969569253767816
0.8116305688753016 0.2713994835825133 -0.0010491246142549926
0.5485880080630068 0.15444060037415852 -0.11957760029244469
0.5302407328467069 0.1737549639459246 -0.09401864343429622
0.5346171458945861 0.136593944728304 -0.11042000279275044
0.4535751614294554 0.1395517335887746 -0.13139032235899606
0.5568992135664672 0.1884759554453126 -0.07696164641836845
0.5169492775827678 0.19557240033080348 -0.057031438049946814
0.5552927034943593 0.16830582811385852 -0.12548288462636492
0.4704536561168453 0.1677728886217551 0.045765881721422375
1.3268433974546952 0.7697221482215753 0.9084242450549169
0.5410323350080972 0.11091766074756038 -0.1747812359483163
0.5516776299072603 0.17889649846009092 -0.1112221746633395
0.5344324240793128 0.1744538622280345 -0.06737098428736488
0.5562885151366999 0.20514312715388883 -0.07099246942276238
0.5887684713417656 0.17191924019209637 -0.0994755908905205
0.5638868555545002 0.09018458729485701 -0.19658251929075732
0.5224935108173696 0.188347637296431 -0.11977844680902194
0.5446028900680631 0.19791729175491923 -0.06394227642687156
0.6624708764189364 0.18329588354077941 -0.08627490577947583
0.5669589427971715 0.1147240631476052 -0.16327245605791063
0.49559369537080045 0.20606487728207412 -0.009187944499046807
0.4969210456076638 0.11885991354949965 -0.1511482462026521
0.3993408464697268 0.24469246168183645 -0.8566174145299215
0.5570471601074303 0.17744856810369924 -0.12238292968672226
0.5701326665323165 0.20184213367357984 -0.09413827228482319
0.5405675189735604 0.056805757053439265 -0.1438646205036349
0.42366803838838507 0.17242114172952938 -0.11167451259753136
0.551726993954432 0.15574028471428392 -0.08264689686278359
0.5792740406702421 0.1503135301065015 -0.1802340104180189
0.6095161866066121 0.15759769678561497 -0.13198778910519593
0.5377112598239933 0.06078595540353149 -0.16854233510973415
0.6526510878690033 0.18459263551810068 -0.15447389005717582
0.6246163110911311 0.16677276484929848 -0.11825290685715117
0.5643360145143959 0.180508213643634 -0.12844378354074593
0.6223499759905877 0.11265495934472369 -0.18681551426857368
0.49612940527798344 0.16893724995213688 -0.08658219283898916
0.49940878826377855 0.12487137490262512 -0.13491060494570206
0.5800638954683421 0.15941667713434526 -0.13935851145407696
0.57906241917496 0.18263435667188332 -0.11261625687531307
0.57736259885354 0.20609657118347968 -0.10855256902544852
0.5619331540416539 0.13794391191177624 -0.08910579212714254
0.5460900230190902 0.1623110537819059 -0.10309358625542586
0.5547066093512996 0.16901406767365756 -0.08803257455588209
0.5818746766612293 0.15702692507687743 -0.12575646968097942
0.5377656099114319 0.15731626039328717 -0.1086650996735159
0.5252662188208603 0.1287671808065909 -0.13895864882297815
0.6440785257402268 0.17285599011441377 -0.18934627997397513
0.6698970250670726 0.11048935709547436 -0.25724709711117555
0.5624854744521031 0.15549290685001438 -0.12456862835705351
0.4941853709287045 0.25235279157186596 -0.05216958998404664
0.5857110339067759 0.17399130184205092 -0.08858415794205143
0.5996368666503429 0.1852874000049951 -0.14198611122860427
0.5737795701606814 0.21982414619864699 -0.05514480804973232
0.5310960327267225 0.18466434906633822 -0.06052879378999876
0.6338165893820644 0.15573385522756666 -0.13766735217039638
0.5934777602326733 0.17024987195352992 -0.13807985553677327
0.5522428319014097 0.17421000413989418 -0.10908953176598857
0.5919378784377898 0.17263506011940422 -0.12194953730249836
0.6127487654003261 0.19353249310924525 -0.14824786648971156
0.5728221216258902 0.15726890156605577 -0.15009843660057243
0.48859944729375115 0.1866852722634178 -0.025604326870038108
0.47911741616003667 0.1246441979976396 -0.06192651018517381
0.6671512907294215 0.20352022353299049 -0.14537265978069058
0.5319574299555114 0.13249051897108188 -0.09137577965334742
0.5815999190988492 0.16111800025984735 -0.12648395844556148
0.5612606651749559 0.2006474611818021 -0.0382996555240851
0.5586906473260456 0.14706486619627412 -0.1282294438074274
0.5973096535717417 0.1528467722216078 -0.10081196226829547
0.5488701481062748 0.14013606610058105 -0.14779607021338848
0.552205885193672 0.13299159150477635 -0.1481701317751174
0.4064377104885182 0.20621013709794056 -0.10687451113392399
0.5300947904116953 0.18089959978348702 -0.03597457434615592
0.5312480878145323 0.1387230540522637 -0.11086485014959635
0.5521827119214606 0.1389702791852585 -0.15840322471598256
0.48104239248698377 0.10203944428201339 -0.11880842709639694
0.6116829372082151 0.13514156246043285 -0.22120288053702097
0.565485434862083 0.1489308532918301 -0.12717520702715035
0.5439882488430356 0.14897859541596858 -0.0799729411759671
0.5850271725209808 0.19228560370191872 -0.08995151178179128
0.6721730459670141 0.08559962350727801 -0.29194575518174304
0.5087495789459808 0.1365738545245847 -0.1110188378373067
0.5457657918419301 0.15892839037999806 -0.16487913255238595
0.5292515926832237 0.16234109835684762 -0.1404682421031822
0.5555224812180484 0.16371092829928102 -0.11156600121766758
0.5533394946730823 0.18585699440328085 -0.17081127076787084
0.5358482369843358 0.16394866731519642 -0.10490990914725273
1.1219403271119859 0.2521636454262648 -0.3219753401481569
0.5883012092864277 0.2732439935357718 -0.09462024948346937
0.5663014617244073 0.1892539551115533 -0.08988301082553107
0.48317435164993583 0.12073799627279413 -0.11081782168935206
0.35364602855047167 0.24078074667033889 -0.2048860175414262
0.46262062171300045 0.21003176091284104 -0.07763082865210436
0.6213957187183752 0.17573275654513054 -0.1371806952917609
0.4920192903847038 0.15625281746497421 -0.10759907699778637
0.4868965187717009 0.12117004843418044 -0.1203281050049867
0.48244659102226706 0.16871684009262822 -0.08265146733164386
0.5777544270687827 0.1804552530725516 -0.07553508877704473
0.5635010032479073 0.18485715538048453 -0.09883779327464026
0.5349045649241475 0.14834900122014005 -0.12580464290158488
0.5073523040526737 0.1545094081198215 -0.13057881023394202
0.6081568630329599 0.20573959539558473 -0.16589346066889732
0.42971943775674504 0.05647683350341026 -0.2626716469407171
0.6354696266325419 0.23839984511391776 -0.10907323827343873
0.5380442553819051 0.1366577897106538 -0.13622553246239022
0.5810435493089585 0.18276764312511773 -0.09935050506521748
0.595105062323384 0.18128815662322495 -0.08803909146813282
0.4776020281778983 0.13468721792247607 -0.14999032597877715
0.6094888778198708 0.21902449411297198 -0.0859310176250574
0.5624075562759003 0.13159193592372276 -0.12055072003727219
0.6158943261346792 0.14379096355864363 -0.13945403418429692
0.5502012571427457 0.11228954418015746 -0.146698883030993
0.4688964836390568 0.19357725915833157 -0.16965256147824448
0.5802415683761524 0.15736545600873342 -0.1215899204740225
0.6722004103510528 0.17984105594118205 -0.17772905119170446
0.5039423530752174 0.1647102005071872 -0.04026185271206373
0.573934995569175 0.14223037286720341 -0.12456342003410725
0.5398736008263398 0.1953778025576014 -0.04147467243296887
0.6527723936158338 0.12386235819363378 0.19314762192254875
0.4275525433105116 0.14977968959462373 -0.08315938365583975
0.6105547862615452 0.11207870753634097 -0.10199416125209382
0.6199057867392384 0.11440089796175812 -0.07848143692977771
0.5412312273716537 0.1557866461103572 -0.11098277047027238
0.7355810978133235 0.24846667467593875 -0.3092912631333604
0.6115139669076655 0.1818566367789458 -0.17921813731260272
0.6054894902981118 0.1943607242656924 -0.08746179734811221
0.5188433366250109 0.1711446992385106 -0.18203626673550843
0.5472269447393074 0.189549845023663 -0.10366285068438685
0.5599451109874849 0.1644642509958203 -0.11938277754123305
0.6641658524972627 0.1997897028727209 -0.07247366864514504
0.4722213989324189 0.17164199550651915 -0.06660883294867403
0.5545771289589396 0.20597092473266798 0.00648732059256929
0.5263725490148516 0.18271373759876042 -0.11502599159314286
0.5402790032820519 -0.05351837283825489 -0.07682292616225084
0.796648055486969 0.2793075698591565 -0.30338707920635954
0.5405162239275256 0.15984804077709214 -0.12276571258637148
0.6699119968863272 0.13989098476486106 -0.16102810258405498
0.5085325892113985 0.14986899558996924 -0.09892001515692073
0.5473405448494617 0.17023334521198308 -0.09786753671718884
0.5802672317172437 0.16599440922311715 -0.12703176387070414
0.5990274431798213 0.23896149685603518 -0.05474977198402087
0.6564795312390146 0.18597444494142223 -0.0850086358026374
0.49099323702616005 0.166326662425206 -0.0629067527872138
0.5269369565999398 0.18028804051306224 -0.054938561950038434
0.4809343732766962 0.16122027985670684 -0.10263181234758179
0.5867199585801899 0.13131536854962178 -0.07405980574603177
0.57857698148986 0.17903764183444082 -0.09981601256060912
0.6202250450860447 0.19207054584560979 -0.08464430958034086
0.6653167874821264 0.14063845732576397 -0.1422183608114551
0.5591412726107023 0.12903618676983797 -0.14241382673603198
0.5196189312763124 0.24108016295008383 -0.020388096118196586
0.5351963385322449 0.13492348473150173 -0.10746598889417669
0.5182673353384928 0.21046515410930056 -0.06660082728461703
0.12435059880448307 0.39893570926798816 -0.14131580262144894
0.4919084337057882 0.19072877797631804 -0.034200646104736165
0.5288206788031573 0.2082584496442621 -0.06565021806973448
0.605313823042053 0.19909081480261648 -0.1375463372004191
0.5519268491122489 0.2206129790870932 -0.040008564111332134
0.5526714512606077 0.09749131628973373 -0.13685932145457969
0.5523657283303436 0.1893065955299562 -0.1070404838164194
0.5398628490679869 0.17659291947782663 -0.08829375334308054
0.5639332733225473 0.11964612452280221 -0.1861037638398102
0.6192245712078517 0.14491391578226853 -0.12166257034462546
0.5245660763833655 0.20917891515114206 -0.08625809104239579
0.15655418898036544 0.11343149032032329 -0.06848599234830033
0.5149220735859643 0.13962661111415287 -0.06061318219661871
0.5293275627592351 0.17238481260017124 -0.10852856246985709
0.6061809105469678 0.13071949281268758 -0.16746838698236388
0.47821105470690384 0.10690812231985092 -0.14002189055663905
0.6676615090112819 0.18225537324900642 -0.14226394140402476
0.5494119275386282 0.15801349780977603 -0.1171447115555111
0.6723414281265292 0.1680928331130076 -0.14337929982299613
0.5693332080343936 0.22131851126485458 0.01923386516803305
0.6915716205409694 0.17300156890530616 -0.08162463877935977
0.5638886398682246 0.15460044273737594 -0.1163357414729802
0.5377152966466525 0.23234672362747233 -0.08345471635843182
0.5830491356205982 0.13245200407962443 -0.1574044959801597
0.5354474954767738 0.15028138105932953 -0.12201443281300328
0.46115663004854923 0.27294024789310356 -0.011382136084435501
0.5209405049218674 0.1995079264340518 -0.0534310684044641
0.5111487458304254 0.14136270819770402 -0.09886043565420266
0.6158140061307904 0.12156526456246297 -0.17214438655769015
0.5278105939971738 0.19152069971252672 -0.07391919086110477
0.5083205085919786 0.15022709717132443 -0.09777718855994522
0.5411545118853525 0.15712347957108364 -0.13710002366028107
0.47386605382585856 0.10589379849380975 -0.15719921729487396
0.4188939285560309 0.1133567551925978 -0.05244525524683752
0.5758701949789327 0.11647387630912931 -0.16789027341899043
0.6135295306258826 0.2103660214277454 -0.06015865002531484
0.569469850510572 0.017065399320841834 -0.2127487790528022
0.5287775637198138 0.13757819220910505 -0.06424679111748333
0.5996693771251245 0.20777458927028647 -0.08904963883442463
0.5338268359610367 0.16768764790722912 -0.09313495659027637
0.6244792409658118 0.1715772218404652 -0.10035990157928154
1.0749321246817516 -0.30614604023065795 -0.0739940628769773
0.5266279930735323 0.1816546612226091 -0.07071073612817713
0.554226753120858 0.1465353563538372 -0.13401994893158076
0.543242315108003 0.11841957753236443 -0.16121461648397428
0.5091088010083382 0.12280918116576345 -0.1270728059563453
0.51829730875032 0.20015290779460315 -0.05423038822866033
1.4294464849550224 0.10902357658400774 0.2267976475822877
0.4282044396801723 -0.03126517523500638 0.025419433741305397
0.398224083637416 0.08454430597890905 -0.08662691909231057
0.6080431311871024 0.13390558521550133 -0.14740315482026745
0.6038668090136952 0.16367076985449103 -0.11795441138079354
0.5573224844730049 0.13023859623712042 -0.15526780753310732
0.519934820835033 0.16475608884610438 -0.1360057096837579
0.4057936376768225 0.15354058397710446 -0.11335726045406602
0.5582644407521258 0.16060529162837156 -0.10602119993102121
0.6318746015135872 0.23324891812112014 -0.11799821811329991
0.6377909454237027 0.30133976227432413 -0.08701827826413933
0.5896118524704974 0.2071764016214388 -0.09359824118944005
0.553527372863428 0.14630545979079557 -0.131262200753838
0.6552876792288487 0.17026871410860167 -0.1462407238877006
0.40582600224338705 0.3425836204981749 -0.1451402797023178
0.5595302217357556 0.1496134574564394 -0.11135139636014912
0.530875581398135 0.11122969599662724 -0.2240969690242025
0.63148829292615 0.14885055079642484 -0.13374543498558467
0.6223664516731873 0.25813934514792436 -0.0993916153143175
0.5055947416255293 0.205188105845167 -0.0538262195441348
0.535439574742 0.1602189583337008 -0.1305469022595105
0.5286049351093283 0.1532765721538567 -0.11237180494502752
0.48778976309121447 0.2572182586353051 -0.0301151287468997
0.5657037664213505 0.11555886108871505 -0.18526123210718026
0.5742635160309675 0.09853790593049894 -0.20633640190933988
0.5004642648889188 0.1705722011569435 -0.10402234154398116
0.3234336812155192 0.20502804461196433 -0.09582430165951905
0.5417389522142884 0.2035792126822571 -0.07773543139963124
0.5369419125005379 0.1042135873713903 -0.12382941989592666
0.6258178140668775 0.2235062704558004 -0.13246347412007253
0.5977566442728204 0.1700776078081958 -0.22260676842797977
0.5217285832771097 0.21559707234155212 -0.028704071887176497
0.5721785650167135 0.1850921812272759 -0.11322631335414712
0.46975188608335827 0.0794194283125762 -0.13275147310646673
0.5344031943526346 0.1941648772425708 -0.08651136216593613
0.5611652106819349 0.1286770173011007 -0.1698286803188438
0.5994481647766747 0.14556015270110834 -0.14064485076171707
0.44926849856993556 0.11962674171530807 -0.05929650837299505
0.5909903656123134 0.15116147415201908 -0.1412669505969717
0.638425432825926 0.20013147254761066 -0.06807425250281085
0.6977874683575749 0.2929446812102583 -0.39950400309867007
0.5658693569852176 0.14517719105558058 -0.139707394813243
0.5382549069349096 0.22255811535845282 -0.044570786888613156
0.5933692794919381 0.2186124460228882 -0.051456088309109305
0.645788992885258 0.19295098955532808 -0.09765344999719616
0.46862342888640285 0.1423922678627889 -0.061129798304975225
0.4713990229147811 0.13509054299629497 -0.11030658392458292
0.5473024309865906 0.15979083334519828 -0.07754060606448832
0.47183013927900674 0.09623914783517762 -0.14937369067186523
0.47548690502863167 0.2556860241012089 -0.0780941644908495
0.5837187343326633 0.1657949695777745 -0.12401432514603528
0.4173717167819859 0.057514449537535484 -0.13014510854473826
0.5426329595928934 0.14121773292040984 -0.15597461508004073
0.5041284118508003 0.18955152639918538 -0.056771334428646014
0.4988310305079011 0.14109598240474952 -0.08642775486329413
0.6246570876718067 0.15749168587112194 -0.1109104231880167
0.5533903975256322 0.16665741617427443 -0.14454209430630272
0.5715105711636141 0.13491841345094713 -0.17801339741308198
0.6072708187712124 0.18181555457439913 -0.11327540994577134
