# .PCD v0.7 - Point Cloud Data file format
VERSION .7
FIELDS x y z
SIZE 4 4 4 
TYPE F F F 
COUNT 1 1 1 
WIDTH 803
HEIGHT 1 
VIEWPOINT 0 0 0 1 0 0 0 
POINTS 803
DATA ascii 
0.5209346226391744 0.17696554527786645 -0.03656154766203201
0.8688871997646572 0.23947419858305352 -0.19711858533314341
0.7886325035711224 0.12793411870012505 -0.07066350346822503
0.5333747314040522 0.17927286400731646 -0.11872199282191787
0.5475330310194693 0.14943691888016986 -0.14921450387006985
0.5375262288836069 0.15516716636003025 -0.1253870105621786
0.5635598461349218 0.16652236519793462 -0.12457550026157094
0.4662743949482433 0.18793205235157018 -0.07418411047447648
0.4941443059096713 0.1526409825149102 -0.11751999389655055
0.6399589581550771 0.2793956054901514 -0.03364063356666236
0.5666540025092246 0.15377332998995996 -0.10937081326201792
0.5599171059478749 0.1513565134705459 -0.10468022966566082
0.603630528891415 0.20569112080409013 -0.07653837372797057
0.49133730201704395 0.12549118753403832 -0.12478221755600316
0.5039792982335882 0.1632631835865226 -0.12175211636713357
0.4423494259827834 -0.1620265542556325 -0.30252372788123694
0.5486706971479407 0.11614223164215787 -0.13625030357641776
0.5296520203292516 0.12554455300376333 -0.1531804770721692
0.5473571261304073 0.16683914771802222 -0.10576572184120892
0.5388922064443733 0.1790948662187617 -0.11054632424307442
0.5520347732758353 0.18453913447221737 -0.09915477936233685
0.5940518982367564 0.20071170275210193 -0.10401698410420579
0.4995340464731015 0.216690784176933 -0.06216999321637218
0.5369926959540692 0.08981776125965268 -0.18680013095713832
0.6453093462148871 0.1394896262144556 -0.2211144527442599
0.5875572996660026 0.1435295555638021 -0.15082783044537962
0.5997940115099141 0.24287710955300668 -0.043851373628214674
0.6529451331657441 0.14406686741972408 -0.19089036440195173
0.5200370247973609 0.18158316964023413 -0.09695711951505359
0.6160617988732753 0.13642605508748318 -0.11186731194243293
0.5411019705870785 0.1632326730403122 -0.10855521926001188
0.5472076334160931 0.20131560371434887 -0.06888351961283945
0.5668768381774925 0.1707841805634729 -0.12730328845047723
0.5873385361252872 0.1693067441042757 -0.12027323734167794
0.508878896457901 0.14800286377014515 -0.06500239066939173
0.5347962237065929 0.18148082133517107 -0.07368689771860204
0.6152167419332955 0.12455750302694923 -0.13210835658884434
0.5150347845666232 0.10755831132281912 -0.13780783543381858
0.554178311004776 0.16404455901314918 -0.10649721012767088
0.5682086422144863 0.14994969193782026 -0.1468893346702771
0.5995543029231101 0.1559545006864056 -0.12042798683705769
0.6636603058791479 0.19683493219584136 -0.04746720909652424
0.490256322361887 0.10872067984676903 -0.0942133767650688
0.5546395546134733 0.14754701377430024 -0.1477437528716905
0.5148013399894182 0.19878350364852793 -0.030621832159965834
0.5624871534617455 0.19596797071504568 -0.05648317554278037
0.5003481440258213 0.12324746610190118 -0.12656039016670206
-0.29613272697071125 0.33611682388993813 -0.1346126469603064
0.5804805858415278 0.14312827635032477 -0.1517239448168226
0.5144913246611083 0.16233333648678183 -0.14250535071930415
0.5717487964683414 0.17807831587683154 -0.13071014515027457
0.5495891637650061 0.09368349110023644 -0.15949167093272365
0.6080189185347109 0.1652993268533578 -0.19535731156527447
0.606333752737342 0.17537661289573236 -0.180291730029694
0.7271944366010246 0.13064900461210982 -0.1773975548607183
0.5156060947026333 0.13657784644638582 -0.13463214879345742
0.5266381980512023 0.14394832164758498 -0.12538502975181132
0.5452607786665737 0.13161271655731355 -0.1724312940191055
0.5673540095149434 0.16860768258401038 -0.1467917247652224
0.5903868320564953 0.1889674900868954 -0.07520109792108087
0.5557010082686702 0.18877948264345434 -0.10118227209230213
0.4570714312559261 0.24129422242529586 -0.08333186341947396
0.5657432833885849 0.2020778278476456 -0.1033175159692945
0.537228441889539 0.13436293705763092 -0.12050460844658062
0.5067827364998863 0.22931892225167871 -0.01769115034899471
0.6064821501976922 0.09139169670021374 -0.23195305757468532
0.42230612332920714 0.22190471344129037 -0.11719861116060315
0.4700243951843248 0.2804637584368521 -0.008436296158421897
0.5814960093702979 0.14839090203774674 -0.1526186852804443
0.581487466444969 -0.030182629562048646 -0.2148865123413799
0.5467876013231034 0.12294293725260275 -0.14484611239437584
0.6387581723097782 0.17212564400797703 -0.11370152409675427
0.5726471052088442 0.20999489742905553 -0.10483220457064135
0.4904891917507115 0.13691825608808017 -0.12799213797136133
0.5593673905121932 0.21426172222388118 -0.1969214204340375
0.3726327477698419 0.10535748515444254 -0.08695868898369952
0.5562891019270353 0.19179781750256097 -0.08542087213811556
0.5051941691012303 0.17247158359907644 -0.08299483895468995
0.537825823293602 0.11691487388797839 -0.12248997463146338
0.49606567018058456 0.1930782400555131 -0.09581885789376088
0.47394612753679155 0.18874184610919542 -0.10848906237397671
0.48053790664664575 0.20946970607995752 -0.038190832721440415
0.5740845941161297 0.18032876812884524 -0.08311668965379226
0.576060012520557 0.16274235135107062 -0.11440730314605219
0.5163237221934338 0.18643426719737022 -0.06052418941698079
0.570369847350392 0.1915961510378139 -0.06817460505394024
0.5378890446252456 0.18192530421494268 -0.21286111716425182
0.5174079802219893 0.08967618374467179 -0.14636095122084214
0.5561436255912753 0.1430681699629872 -0.17527947931301924
0.5771582730743603 -0.09707330058193975 0.09188887352102881
0.4867079389263296 0.1840910466185477 -0.08164097845200047
0.6465503222578803 0.18168678350602363 -0.20847676660098102
0.6098517795306151 0.16091842325894845 -0.14970256152777495
0.5679218157772539 0.19214414558926762 -0.02415961650210363
0.5068477010793657 0.14899995263222365 -0.03702355526135648
0.46725537630300096 0.14127472876720049 -0.15345528799471708
0.577040159438738 0.23777695003280996 -0.04851600360674979
0.5922421917426135 0.1328475693979243 -0.15809949293719683
0.5317675661763275 0.1381266855164398 -0.08376244900136953
0.1566644237048962 0.1324803163657151 -0.24016751790837532
0.6069760845491459 0.20482993995368304 -0.1634257728489814
0.5598426927274858 0.16604144713973312 -0.15949665870807905
0.6022997738477471 0.1823230678324137 -0.06692016599247097
0.5993889529469385 0.17581478884964952 -0.2370159757356305
0.5848714280589604 0.19432567988040717 -0.13017140936879912
0.5928006937352706 0.2473651652849327 -0.0423735243626453
0.5477771895779711 0.16297525405812507 -0.11726490271180978
0.6683081149293884 0.17626845606821462 -0.1617347594830676
0.5615240098574645 0.19066314855629685 -0.12184867933238763
0.5548186680584024 0.15083985688852408 -0.1303429802778595
0.5695533680729312 0.18589953521772884 -0.08361711070926958
0.5542857900617406 0.18011384540176323 -0.08931727538730172
0.5282128930285239 0.1416512033554369 -0.11043252419415239
0.537082031191062 0.18595538029394731 -0.13982458720406044
0.6131060341584629 0.15835224828126115 -0.1417166824194851
0.5663191204293128 0.17853122766206297 -0.10245897529972581
0.5162620091646204 0.1452597190187106 -0.13401818238303065
0.6061320916160753 0.15921339311236693 -0.17001674288772506
0.49780535139284154 0.17348531325227157 -0.11677918740046778
0.5770279847533573 0.20353773193653524 -0.06998976772563026
0.564743218529884 0.15264392502187718 -0.11330125413024916
0.5918815727910527 0.1775825834398006 -0.09726246231271318
0.5311008152033594 0.1492256938657448 -0.11051816718153873
0.6325118827836178 0.21117418897971163 -0.1199850971568992
0.4973627962683054 0.16340559834870305 -0.08741765982141203
0.5565972740040621 0.16927815473448504 -0.1251270194232319
0.5161006573328137 0.16759185773848628 -0.0792715117451479
0.4395786849613046 0.14214667037423112 -0.0684175946024368
0.5519848518749768 0.10405569714728813 -0.16986178713160882
0.6400959989115051 0.199552161635296 -0.1533774814647444
0.6282791413060806 0.14302961673415382 -0.13939985563510504
0.5786265032024147 0.21244370130062862 -0.039066686366282966
0.4971464818551965 0.1258472837469924 -0.13814928903194357
0.5705962623815992 0.1717414654128646 -0.1243709541612219
0.5274186657763096 0.2964191018288318 -0.08309439785260508
0.564813697358403 0.1887488313361274 -0.07917280206777377
0.4850857993102977 0.11953637545896356 -0.09199017213835248
0.5386015752486202 0.12602110315525294 -0.16868482429507026
0.5619384411086799 0.16574037116718898 -0.13684767489874616
0.6242031832909021 0.27108377059057887 -0.08545950721148188
0.5733249574238783 0.17059337247304995 -0.09772518704585309
0.5916219795686573 0.15389387171063618 -0.12517977590516693
0.5808316203248864 0.20290380037164368 -0.04803101730051651
0.6198337837429619 0.1752137001962808 -0.1807277672440506
0.5684662898632098 0.1900755381478234 -0.05077787480740881
0.6368712596644315 0.21723224736605573 -0.10884708584785585
0.5452726071703751 0.21694416330068123 -0.06923851745806076
0.5131329560864941 0.06517736611820624 -0.17213110223312356
0.5963212266927798 0.17589761030262707 -0.12663893379414048
0.5136209611579972 0.16179972733041836 -0.12279508208736445
0.6048722038051153 0.18924333734646837 -0.12742664311278418
0.6398490829572836 0.20837505524769995 -0.13898336024811897
0.5716992299543477 0.2425008413367209 -0.0882596913555318
0.5855810314849208 0.1595083521615095 -0.10110399785999391
0.5770151258123377 0.2159722146591605 -0.05283581031731899
0.5303270552462322 0.1323145792960645 -0.14372189368494048
0.6062015851402833 0.17065186723746706 -0.1286680833671312
0.6093196569935344 0.21363275995167896 -0.10947296738575574
0.5342785373877774 0.14221598546944847 -0.12136940942451702
0.624362145895347 0.13328145751721365 -0.08892206832686611
0.5569296673710085 0.18384824846788206 -0.09665219231517597
0.5679309976562195 0.16003492843555023 -0.16841171910652974
0.48665218407371924 0.09362032103595652 -0.145284083498197
0.4930892143328407 0.16777481496683322 -0.11580587006878318
0.5395001182401273 0.14343019815869695 -0.04487995543792067
0.5439071535230511 0.12604491769623394 -0.19561584976050028
0.4815434763157356 0.11473832851650911 -0.16270334248218887
0.4036230840215751 0.2007223899313999 -0.0313123163860638
0.5626487136978682 0.19214208879273542 -0.09902246729399167
0.5404019180028143 0.1774465645285659 -0.11495182807374249
0.5797256967295112 0.08686596175142824 -0.13283133152246762
0.5028556702941529 0.14563841042914305 -0.09804120778777303
0.5417559987336062 0.1584392841461124 -0.10586136639004451
0.47946129918916824 0.15570878788861364 -0.09421815265761779
0.5663375739569005 0.1758846156650975 -0.13209532886486386
0.5824052438926373 0.14779756301243197 -0.16314284840271398
0.5335988312542952 0.15739105231206452 -0.11883730856749253
0.4965766955556461 0.0813070882723963 -0.17875135961847377
0.6111993296009359 0.15989365640096764 -0.143598101003775
0.5610744802270489 0.19147348939570463 -0.004586019118335116
0.569425979864846 0.15586633764432634 -0.1717211993505856
0.609170481554699 0.1854802676527072 -0.10553943954890599
0.5817696147091311 0.15871536438011447 -0.09492117551391743
0.536987241395309 0.13319870834718017 -0.1337538588269922
0.5520572843344667 0.17254738517110013 -0.11783757928819227
0.5386226788686628 0.13815953030014327 -0.16921514115516345
0.6352431221394141 0.15850060370894425 -0.161750381482463
0.5956607762821022 0.23117777207048107 -0.0407468791897827
0.2232638661105284 0.24084860252062867 0.16129053772772295
0.534184258952294 0.16237322704884605 -0.1073834983865396
0.5573891131040796 0.16276820755138033 -0.09785431801238076
0.5368485183972496 0.11224546542325697 -0.14473879969727932
0.5648847843889939 0.149725363145933 -0.13344795944914267
0.5378416132613069 0.16692922456299186 -0.0785370266778358
0.47423525672382993 0.1433689960063731 -0.09807424038150714
0.5431710723642595 0.05334223839928143 -0.23269224302332248
0.6228857436601629 0.08090741886643116 -0.16414533378318197
0.6904603365207009 0.18038937175698777 -0.10999710456363232
0.6508112464796625 0.09670826413717748 -0.1515839232168048
0.601249825374353 0.1888320576805569 -0.11074352945574617
0.5981881015875672 0.17447276057541217 -0.16314732242895502
0.5951632645371632 0.12335995230205299 -0.20742815969124706
0.5436748964627611 0.171839199715194 -0.1137935169935389
0.5482246992211373 0.17387404320656685 -0.08540838504420378
0.5728779197972358 0.17546706748487395 -0.10741003764204038
0.6094243213461255 0.17983490346767894 -0.11574604578218839
0.5608282561272802 0.16169982566208319 -0.1145062727376569
0.6158918979654828 0.2113844260815938 -0.17149273468477588
0.5519225463351347 0.16722102669211836 -0.11615202717440809
0.5370693091439875 0.17603981348590025 -0.09102639230010823
0.5553631239201309 0.16416072848406316 -0.12268276187371896
0.576545978549575 0.16725757156288523 -0.12193398672343392
0.5796253693701345 0.10160235283005647 -0.2663435125357694
0.5796992868238391 0.1747682286956831 -0.08990890721982225
0.5674874515969606 0.16916655339879583 -0.11107768881605296
0.514683710788745 0.17315080040444286 -0.07823430307173851
0.5862105900576466 0.15831360783754178 -0.15094393426494435
0.6072377181997268 0.20577196524762087 -0.07422760412346463
0.5958529586843042 -0.009469016635662797 -0.17956066299072404
0.6153822714140631 0.1480431059457601 -0.1455834048552589
0.819686209165539 0.2555598530773864 -0.09604695648164352
0.5165232044338381 0.17753907300017602 -0.1232892441395137
0.5482698106687991 0.16892007691212996 -0.10906630369322556
0.4267280327774614 0.03396490876809821 -0.24985644936406004
0.5439565149398788 0.17408135410924785 -0.2142524178601377
0.6460929720284838 0.18049962517122253 -0.14699678637168745
0.5557096818393035 0.03466005328040467 -0.21872917866161856
0.5849446426887539 0.18815531136110053 -0.09857944953363074
0.5187619543222013 0.1900530914753915 -0.07979873598360143
0.5586700087736176 0.16170323924512786 -0.10768023904938673
0.5605729180691128 0.1426834019792551 -0.11732926303841396
0.4792186496250679 0.11694628543367003 -0.23663083245109817
0.057896839851437676 0.012995029848809736 -0.3036264853197963
0.5074600154572977 0.09272390828614618 -0.19254241429490548
0.44674614207248453 0.050806736885107284 -0.010079260457402484
0.5790753959850719 0.2175958267198439 -0.06730065113202954
0.4725659898528676 0.11787122792554783 -0.12520638908080173
0.5722350805470455 0.1824687497876596 -0.11579310841558765
0.5086213840425415 0.12721142800987195 -0.1108816625844895
0.5120576336971254 0.13784694388340313 -0.10852338814576967
0.6403703427194927 0.20895392999777584 -0.12066859242335681
0.5589710662473522 0.21043821841931276 -0.0767678731827175
0.5129726349105965 0.16399915933301656 -0.1070928828989679
0.530983226726292 0.21303849836614575 -0.021198854431432324
0.5422017266600108 0.1685670580380645 -0.10958751893790009
0.6060225597912989 0.1841581620838184 -0.12964172187419365
0.5837551670245205 0.13912999176416463 -0.15515639809957804
0.6303951156778425 0.09828799761223195 -0.21080314631389285
0.6638946102773531 0.14987716126501027 -0.12906190218075153
0.515119175989895 0.19577704761643133 -0.12599386272454183
0.528223398886098 0.20730372921165952 -0.05097449624521744
0.5070399651536235 0.21118654903776246 -0.031140803150663032
0.34730521179902496 0.24222716705595815 -0.14703334379264277
0.5750525570497302 0.09169486652260161 -0.19692718391691244
0.5768237556512048 0.18640757806797126 -0.12003757287946826
0.46563600560574514 0.18380777516291857 -0.070231983937731
0.5837089679793905 0.12788617864424623 -0.11725950549033826
0.5649151936576828 0.14962600563255535 -0.12292634530410851
0.4260732460187171 0.23928905278150125 -0.05382767490064566
0.5671384584744459 0.1961721183523366 -0.1049974285693196
0.6614229064354902 0.14051532439724213 -0.16089709830643528
0.6458017965433527 0.21015350267576594 -0.14538752506950914
0.5494581283629145 0.20717305031590172 -0.07749666993453275
0.5883607435077209 0.12561449970320382 -0.19519187167709617
0.833019883395977 0.09262079824927127 -0.11003535246042873
0.6087051016536407 0.256691028790172 -0.04839805108312589
0.5209031625015257 0.13716920243581399 -0.15191492026089293
0.5743999217197882 0.19919601502914475 -0.11056670453940853
0.5236936663461194 0.18127087728252889 -0.12066339127306946
0.5368048004526145 0.1745018234180975 -0.1152208575797431
0.5153384455256713 0.16401009437463188 -0.08669086815493188
0.5576581862712828 0.1632092512904535 -0.13121420032075548
0.5563422257801136 0.18422590458067134 -0.09051244384052382
0.5649092335772679 0.13774593716007644 -0.1424029184810678
0.520391485536905 0.14550369400041063 -0.11520440321480407
0.5507761916375102 0.1413590193363632 -0.12891231800253422
0.5688154731641362 0.19010104911352244 -0.07244511538770837
0.5719355087837243 0.14190646236433224 -0.15720776792980473
0.5140301551114135 0.10382567283589594 -0.19960782875429572
0.5219633251500113 0.17392606366027508 -0.10460518113070805
0.5045419144946663 0.10039026089859249 -0.1528180199155571
0.579798931962543 0.09312575796397482 -0.1257738609469783
0.5527540815854195 0.20556678551521657 -0.013692268381404915
0.40025676665520393 0.2563087341131478 -0.02943767589511026
0.5959874158174614 0.20592114623850932 -0.17065561218903724
0.5864728850544196 0.21133761223997283 -0.10568891190935403
0.6022430920036328 0.09180669852963774 -0.2246528603908331
0.5407432707819737 0.19631989905757052 -0.13475744882761376
0.5610227913388002 0.11851436704777996 -0.14890078662959638
0.5643545992716241 0.15705611443806333 -0.1207618143128002
0.4598117927139924 0.2079153452979483 -0.03247683260920553
0.5595996282828963 0.16835034909261992 -0.12185853103331112
0.5363043354361281 0.1838943800834585 -0.09128479080739282
0.5328108348854244 0.1448748382012326 -0.1106941737868965
0.5601748215681113 0.14369639269902734 -0.11575141752419427
0.5827366093977133 0.2076402327844704 -0.0532284395571736
0.6204260792197687 0.1414195616970062 -0.16098517989118477
0.5777947132128105 0.1781686782516232 -0.11434551278601646
0.560069003948044 0.1316610510937295 -0.12014339106006844
0.5705887057489178 0.16672756513045783 -0.09862177600396649
0.555755684246364 0.17676368750441895 -0.12058233233125293
0.47542754683036037 0.03178140592731893 -0.1787459969897469
-0.27473131261930916 10.191873620407904 -0.09841369148378476
0.6075651400156943 0.12132025821000525 -0.22432992772496618
0.5279604143454577 0.14974567467270106 -0.092345504970055
0.5741031174201225 0.19990888238395144 -0.11378895320007132
0.5812842705797578 0.14066219312449846 -0.11104499693423975
0.6269307361249474 0.24128904870958934 -0.08250630097265343
0.5070214798412991 0.13804544528642282 -0.10569906197190448
0.6260563003013431 0.11653350536508356 -0.0601741348346394
0.5638035145770743 0.1529668426796178 -0.1227848381706309
0.5296580237926207 0.24886382394248585 -0.031220074769279904
0.5395070636315609 0.1651825715990185 -0.07575055487629356
0.5470785875421029 0.18660021960121753 -0.11387031520584401
0.5597669112235764 0.2833175538478656 -0.1091655491636061
0.5615981806299004 0.14178605416820744 -0.13975347047079367
0.553689804050947 0.19123496639464577 -0.08007551386846501
0.633595070631003 0.17601723125029878 -0.15020193274975213
0.4278965104997354 0.15444913792212844 0.13180304712737723
0.6485165328282534 0.21652338712272012 -0.10525365950520893
0.5223201001726636 0.18378098181881342 -0.08754667396644322
0.5485957163983244 0.0628410101163297 -0.09365324623236404
0.5524266785039771 0.12417475572890169 -0.16399824619298897
0.5455160931615097 0.14745589999316167 -0.11208723112875418
0.5764403244628511 0.17182951168199168 -0.1268258674687246
0.5557284916532979 0.12117539192752247 -0.2118797744333989
0.5897234388927899 0.16641508049907827 -0.1130295633508922
0.6169663654852826 0.2286156733724738 -0.044011853295586434
0.6427978039518081 0.16039197713232056 -0.10107495631247332
0.4667132335544295 0.18804298887089033 -0.10613871964673649
0.20683293947421078 0.025672471284480025 0.4020703019686067
0.6121163696499394 0.12449591669114568 -0.1848118380131183
0.5697873302352434 0.16825340255692822 -0.13514512986384375
0.5652349788981041 0.17291176268945208 -0.11633433610735722
0.45455427353773814 0.1461563004334323 -0.12162754880993987
0.5896233160202087 0.1630142426789547 -0.10356550629163053
0.5480946188812652 0.1781754566675744 -0.12931427914664084
0.5968533255960153 0.16677957793535825 -0.13247985319911493
0.5125342018438062 0.04776502457245613 -0.1958007964769024
0.49396043547149304 0.19295680571059393 -0.08631160015748662
0.6082003758820207 0.22671714955569655 -0.06005548155265217
0.5284048080420121 0.13837606879586417 -0.1316798699475612
0.5463692113285532 0.10490869503769318 -0.172917922156131
0.5386387864614477 0.17762081424294252 -0.056120155120069626
0.542177240845163 0.17979778096172083 -0.09560220636318206
0.5896574878789806 0.2499500840804103 -0.018712213336684158
0.577708966432013 0.1919768281380243 -0.08861544260992105
0.6324526921714977 0.20322763967536162 -0.16225425081702838
0.4929881779316361 0.08969267400571823 -0.2026315504412537
0.5933126027912721 0.09193973403267819 -0.26043124083135183
0.5590473197843693 0.1691229679142623 -0.12062594441610486
0.5470387941767711 0.19698073702394936 -0.08946837716530354
0.5146963504914908 0.20117703165418277 -0.10032968862665825
0.5455068780472914 0.14434273717201052 -0.16170398100994987
0.5443043539794701 0.17211209087771806 -0.11798243766810401
0.5338612429720797 0.1819147033012456 -0.07947024385514112
0.5873177937776859 0.1604992074196332 -0.09471241555731069
0.5416179451872267 0.1262824127112907 -0.12931097054362795
0.5293845289402554 0.11780060472482035 -0.14238343906575324
0.5438707250149406 0.22306820266094007 -0.055309808815493966
0.5468805470978566 0.22163055996796288 -0.08782173273469596
0.5466523853996108 0.17913872234660744 -0.11286408712366836
0.5087713074869811 0.17796277446475983 -0.03364409421338621
0.5342624277648156 0.17898677132659202 -0.06354074564193013
0.5558543914385297 0.15025565777823147 -0.13218981643045424
0.660690924839983 0.23330600014482172 -0.05125012445368782
0.5193818237937791 0.14268646116941852 -0.062072778586610866
0.5180348638700991 0.07515988829281639 -0.13822131735668108
0.5262189964159489 0.18748230055317094 -0.09120016800329722
0.6431120078966188 0.1652267094903408 -0.1888492004365503
0.5608475353999296 0.17257492592146662 -0.10815861431449036
0.5075543814857326 -0.2180934751721395 0.6603533230709218
0.5337805365400357 0.17629753421049088 -0.07908517050658759
0.5499691180714024 0.10022860004676204 -0.17486786133345333
0.5506762862956265 0.1580779028640933 -0.12059357399641613
0.621660481620566 0.261525530353353 -0.1022759768864887
0.6443091798981726 0.1572646305562273 -0.08020714037758125
0.5667127547810367 0.15518310648562306 -0.14696497454954738
0.6259100592752276 0.2697376963485709 -0.08611843403211594
0.6084004313405131 0.20657377200760152 -0.12970020005175797
0.6113083427635502 0.17790611179746918 -0.13299825471771953
0.5333687325736207 0.12515718548633004 -0.13709012053099912
1.0739188206015484 -0.2676441440866455 -0.08021274038902959
0.5816048330867858 0.1840558530472407 -0.11885463180806255
0.5763404105154706 0.16855285665897668 -0.14809783757435468
0.6647675488387534 0.2001043252948307 -0.08061133992815428
0.354015386426596 0.14703038815771663 -0.08650540795817108
0.5181478140354869 0.22946638608753744 -0.04204294905443362
0.5590758007742807 0.112619727981766 -0.14023215652208876
0.7152608879275277 0.16753889722062354 -0.1603694216040168
0.6082803233379224 0.1780136378541215 -0.14059281329566886
0.6825947645162955 0.17335020804443957 -0.16701415757388816
0.5057160675393959 0.15652946099157816 -0.09501459213558405
0.5716164844303222 0.2335001672871897 -0.07054926772320869
0.5382744755687838 0.1402784056110704 -0.151365969277947
0.5220295181293864 0.15660220249836243 -0.09612467643472655
0.5460628283063045 0.16956774754810056 -0.11006953852877643
0.47504800772843225 0.2329071402965468 -0.03744711122178046
0.5434481827818445 0.1460058795199899 -0.1289149467027073
0.4632048894793428 0.02673635259935736 -0.10692388648853068
0.6066318773435029 0.19780683518932562 -0.14502477810218295
0.5310376366098097 0.21444387329549386 -0.06507725310814294
0.8263080842146167 0.20887764400198705 -0.23547694270760644
0.5233480033167552 0.11487707616431919 -0.15443343777559448
0.5494818153722747 0.15985841826298497 -0.08618152584507754
0.4843396532179298 0.10248223554512492 -0.12327659555188575
0.5251027120993115 0.18011055481335347 -0.1900398021683145
0.5266237704957888 0.23879113250958994 -0.0024913890242430625
0.5316864651000373 0.21153972083762085 -0.06501214274985045
0.590446641085606 0.08785533425417213 -0.1902511122037538
0.6099583489541658 0.13771564229016064 -0.12967129017907553
0.5505919273085311 0.1723005579469259 -0.11819115764569688
0.5237563707824933 0.1406570044549369 -0.08939198306434548
0.46871901992886933 0.14868336066288634 -0.05751427837309109
0.5770712144633166 0.15750389149519606 -0.1195165462467287
0.5482330086968403 0.21034832864832254 -0.072929415828483
0.3847858123061627 0.07087196753528247 -0.051787496929236454
0.5135216666673301 0.11974382848187304 -0.15100353023987623
0.5784402905243269 0.1859219328759849 -0.07978433198962875
0.5267342735040188 0.07515024616924393 -0.16876305651385337
0.6073765387368297 0.18980098961938552 -0.10428936927381471
0.5815142723396605 0.13656622785470063 -0.1556594191581837
0.5596669057273829 0.14912364110540466 -0.1528429362884367
0.5544233870782733 -0.01832675380615001 -0.16589637130303458
0.582070779946676 0.1371467438267331 -0.15406581309986223
0.5201873888109958 0.23241620036803567 -0.04321692066443461
0.5887347176309277 0.1868723517576143 -0.11155100876069923
0.5069633566626095 0.2313958146113464 -0.033452095478324395
0.5822168181096856 0.1083413962388704 -0.20718339049236079
0.5862161043637428 0.18175125091505606 -0.11587979718703423
0.6219774268308811 0.18569751966488468 -0.11739626438188111
0.4907748935727767 0.14697204930641306 -0.026363946365350444
1.283261798754566 0.559311021187682 0.077158797720557
0.6002205833610503 0.16404207719480723 -0.13047887316810147
0.5659917020114875 0.15794388686501293 -0.13408204982987115
0.5164031439922496 0.1413919521172744 -0.10731589242065809
0.5903174048394249 0.19710142210252002 -0.096732414441135
0.6336775234600083 0.15390776266838202 -0.15216595408075761
0.694747454743947 0.1834171688723245 -0.16217453464236087
0.6377086499052638 0.20652914651957133 -0.11124552968713886
0.5767962498880621 0.1930451155820947 -0.09060739515791738
0.5125151325732986 0.15535672782938548 -0.1997259171595971
0.6126665710473418 0.22196055987379282 -0.07571509941202237
0.5592126311498049 0.1813094745188124 -0.08195128416225828
0.4724606687036612 0.16017074564749123 -0.1043158995052238
0.48605097162862876 0.25067457176766084 -0.12378103375846194
0.2317685407376473 -0.05988584356597926 -0.10534285770802398
0.509796465201731 0.21268616144008945 -0.023471718013141185
0.5060589755390339 0.14010701628630784 -0.08289526863475771
0.5731457100500279 0.18261845903298024 -0.11566020091437679
0.5413905892371247 0.16682918633743782 -0.17963339102868758
0.6260347260287205 0.1889633058459026 -0.10127245759910863
0.5204861008947006 0.1658125255743812 -0.09582935325211395
0.5917711531172074 0.18685230967980715 -0.15619366762415154
0.5965463512676479 0.12466495195529603 -0.13249412935022065
0.5983211107670598 0.21708058686792242 -0.09555509835173837
0.6969788726239301 0.21376147574906668 -0.05631251063385889
0.5760714388543704 0.177023961909768 -0.10275368041929767
0.6265515936381405 0.15362561143129483 -0.13299652511626903
0.645701785368118 0.22823439817683777 -0.006920736851341758
0.5490653013232247 0.10909294683423809 -0.11017061073258105
0.5687784395192494 0.16825808380448848 -0.09507392813198123
0.5859582459296178 0.22451284447024022 -0.10148163259312071
0.14623704125169468 -0.3748629397036325 -0.05332915971831653
0.5602853607188223 0.14335836140124059 -0.1339124025243308
0.6525430584796936 0.10425726555278914 -0.06228949996496169
0.5542266410561894 0.1712443589710375 -0.0993833092615688
0.5477325757306772 0.18545435758804274 -0.11627267885407377
0.5603724028291737 0.1893399547001593 -0.07710263136041817
0.5492667643607234 0.184842867908813 -0.10628094193154425
0.6653111026651004 0.2002846372549527 -0.05234389641915982
0.5553361052317882 0.1387812259929575 -0.08083422528682149
0.603501123510739 0.14290512051563553 -0.15302481596381767
0.5560783846108848 0.18368093869081292 -0.0850708928732189
0.5129603783187093 0.1625435716320851 -0.1346183875956939
0.5596744802496545 0.13884657725566285 -0.12400407147953274
0.5585678040208677 0.18040071096918098 -0.10011924373442582
0.5421210025637748 0.17240742286142563 -0.11524438438549112
0.5865572369377219 0.24239459401667318 -0.09630003847006208
0.6526584418669614 0.14320529385838654 -0.14690838500756342
0.5783260901164198 0.24881149274308711 -0.008305949231157683
0.7081180070625948 0.19343352234189126 -0.10435947025550263
0.4741899585810785 0.12809163887527575 -0.13910279222649535
0.531734982687567 0.14507081829142976 -0.16405895252657388
0.5267371744943148 0.1709852103921179 -0.11750017795512235
0.5624894458479304 0.15491763747270682 -0.13386434062825003
0.555120689370213 0.23012574676216957 -0.0440101206416017
0.5208040010033841 0.17852062332497098 -0.21354767789664209
0.5505978671998406 0.17070024405819595 -0.11193592913799932
0.4534716443548632 -0.0028660068260393246 -0.012675311682173174
0.5228081966007068 0.18187865625878885 -0.10599625626470299
0.6453927266055643 0.19193311006884528 -0.15212424324379015
0.5389239422155185 0.15970180099158426 -0.09923314430417918
0.6410264704404369 0.2732146212254918 -0.12050205942310299
0.5060096017245002 0.04628318497967143 -0.2192308881812437
0.6069793516256965 0.1716303320308583 -0.13103502768714748
0.593717029814087 0.15369230390010102 -0.15367517496299854
0.5425429379224767 0.13058924476398204 -0.1317556292080866
0.6913307326641274 0.11165428294374635 -0.2745185735035136
0.7318960288105671 0.24207912662575382 -0.13341051942543913
0.5415377017740042 0.15175130214105081 -0.08719166156882352
0.6846530853349009 0.17405806749142982 -0.1571649960883832
0.567310512057901 0.1461556838432756 -0.11446479082458438
0.6125042889672017 0.20389317791065764 -0.1330733821733645
0.5560223416532466 0.18117827903571992 -0.10520155234307538
0.6716639724601379 0.2362989608587469 -0.09554265661716954
0.5033361530066287 0.16472900773622712 -0.1269592436900382
0.5465670049595559 0.17969657384360005 -0.10382577083852595
0.5747168742458229 0.17673215398035325 -0.12066057818444165
0.6599523354923775 0.12563158986071699 -0.18291679800802285
0.5904278713623512 0.17046233195004845 -0.09558923197113245
0.5744599516552853 0.14179729731044688 -0.183106946346129
0.5121293740632069 0.1307304578124615 -0.12054384255908701
0.5641140800116204 0.12344365251604472 -0.12168181807385281
0.48937078574179793 0.10604802919566225 -0.14436751062741848
0.6330000894511301 0.18502564074142924 -0.12666741111689817
0.5360875856115541 0.1546810438687345 -0.12462890905641189
0.5763792078070935 0.18781087140624209 -0.08149909277365452
0.5606697009515074 0.26333399790982526 -0.05014092217446375
0.5399426792105828 0.1418049521794842 -0.12284067346965344
0.5683689210328282 0.1524343229402092 -0.12678546651106615
0.5857766694891069 0.17559270435252472 -0.11572366226751285
0.5517335407310355 0.20190057772607872 -0.08341402928417097
0.5711132130365115 0.1397734779500155 -0.12357509018931978
0.5458775740310386 0.17012225541668613 -0.10434030687595452
0.6198164457959052 0.2507558102004026 -0.10030943693378447
0.48024612737185635 0.157086625818593 -0.20487877140962496
0.5786439355730124 0.1702048490801502 -0.10654546855013791
0.5654461908518869 0.20158537746250715 -0.138437083071679
0.5962075570974008 0.15054412664200356 -0.1104265167000591
0.5605520107845621 0.18172353941221786 -0.09680106288340085
0.5350656315762023 0.17516870696690034 -0.11545285703159891
0.5897190459670867 0.15109335799233747 -0.14726332071445825
0.6320495137704683 0.17169879678436928 -0.14984986994554106
0.5480382995690434 0.17242034995996391 -0.0909969762415841
0.5943441607041251 0.1564508058820877 -0.11234425862684816
0.8833649354974398 0.23931539781068523 -0.07234214833485453
0.5297340786382563 0.17601565612010006 -0.11661978892655611
0.5599894781475285 0.20597997582498806 -0.04695906228396041
0.5404457932013855 0.1373770267453409 -0.11763181071414408
0.4966447137859973 0.20551076228005627 -0.036669434745221
0.4683184880708211 0.19623670964061546 -0.04827011699633488
0.5442868608051725 0.1596973891484197 -0.14195464218026643
0.7349779615198742 0.19053006408213946 -0.18960307763923367
0.6000097911772286 0.17583086270558113 -0.13680628865115807
0.6199234557895892 0.1849532191659904 -0.13399440191967926
0.6189811291099687 0.17249094151389954 -0.1567798047870781
0.5813849398141855 0.20756672506436757 -0.11316520815564957
0.5700120066376542 0.12428860560666521 -0.1580385215884803
0.7197794998276521 0.09017674802149145 -0.33083201815797736
0.4999277537105229 0.10551924378741262 -0.1247702148613854
0.5566321360613102 0.15244038147395145 -0.12377513938434959
0.5950049683173546 0.25606559398234197 -0.06999562916119828
0.5277755195496354 0.19152472730591796 -0.06720003651274453
0.4722672109000712 0.14688938798830975 -0.11584169569147207
0.5466782496087177 0.17570538500743282 -0.10333817283189717
0.5804604270034162 0.17205619289850915 -0.13380410920915153
0.5317939807400478 0.18269079945515898 -0.22517013329112956
0.4684287510039269 0.21707643713908453 -0.05735860337408383
0.5349365792200018 0.13155808873582941 -0.1265470987984969
0.583608560506022 0.19536733616190816 -0.12079313198537989
0.5172453468016585 0.21616471321763697 -0.051562023921604805
0.45820512283071935 0.18025731398449807 -0.09890845259845094
0.5511701190101519 0.07576978985845528 -0.18333404228619088
0.5401461449646092 0.16514858944036348 -0.12310133056638506
0.5659487464391901 0.16573042177479635 -0.14493962072772604
0.5704734892855612 0.14031840460812361 -0.14402176406538558
0.3589631931760948 0.08096530677188696 -0.0872691382061106
0.6843805742912252 0.18546673587204054 -0.14831843553047008
0.37780502548447714 0.09092411693140434 -0.06065606194515283
0.5658838525979917 0.20045587268889165 -0.11930187920742696
0.5190774540236021 0.12310394089878685 -0.10503506413728303
0.55379131829568 0.19947033476404386 -0.07792532128276264
0.6045304752223757 0.16855612219360694 -0.13258010634662298
0.7344091216716606 0.23208274882954072 -0.5039029571321407
0.593073930089858 0.1409966697471816 -0.16908615165606022
0.5126722835039175 0.17010739744617354 -0.03964505029790644
0.4872541851460852 0.14098647950476106 -0.0910116113278292
0.6375917003163636 0.16530007015418846 -0.1421786838706396
0.6040777859877693 0.15241344086035724 -0.1592755922266349
0.44870658381829287 0.2083480330682903 -0.16271136706144773
0.44144728094866537 0.11292495005892533 -0.07538660697848343
0.5909416962880982 0.11037328374627009 -0.1838533899992001
0.6019634689415341 0.18520264996705293 -0.12623181582651455
0.5334323582867313 0.12568424663290045 -0.14523292850377345
0.8569884161684342 0.49053341292594155 -0.611585957441136
0.6025840780292384 0.2014127772732195 -0.10782975667574135
0.5716980766407573 0.19025354841141962 -0.0980343148909526
0.6636105171840541 0.18490217716754387 -0.14240927214189014
0.5841313988631356 0.2571190623281012 -0.10717270189776684
0.5457924549777573 -0.029886510553055246 -0.0830264015199873
0.5439642081924063 0.1571144670481317 -0.13355873350515424
0.5297696482971617 0.14331146432692776 -0.10711003522844464
0.5832502555679469 0.16379124988736748 -0.09632386154336814
0.6462320092449687 0.1611056309345713 -0.17520771888067088
0.48270903669276777 0.18012080318776214 -0.034843782100736576
0.5334257208387214 0.2155438559532854 -0.09282602890169755
0.6383747842299528 0.14134257785933357 -0.14151106774198752
0.4983765228290764 0.17899733377056748 -0.13949241868196793
0.5030052995174543 0.1811040317240753 -0.07315963071938825
0.5525189765950245 0.17708988298953443 -0.11222120566272054
0.49101110180966145 0.13888441628044745 -0.11381428182114917
0.5685150239383034 0.19830697885460324 -0.07398724933311485
0.5488594526413522 0.1887658472758318 -0.09175450764043092
0.5493234779055598 0.15628203443068855 -0.12283277996657205
0.5571128506267655 0.2088485747073321 -0.0541707545104515
0.5135066371490353 0.1579121053371182 -0.1101166632346775
0.6358042137259332 0.233461869788556 -0.1110831415337259
0.43792338129033226 0.18688925162398107 -0.1560253611818183
0.5491022495120461 0.14437825050806907 -0.138971077144447
0.5987934806593387 0.09877556285513833 -0.21899613939758922
0.5721529790881448 0.10715834192966156 -0.17339414597005032
0.5006491469150802 0.18255243439773494 -0.11277528989764107
0.5686691921340952 0.15991971602021238 -0.09810443116420231
0.7747167185400201 0.42883453994285503 -0.312189788209551
0.48673352013931037 0.12175857717853944 -0.13436779001811772
0.5283215213163857 0.19190031637285188 -0.09148223141397693
0.5413044412623123 0.1946285160776995 -0.07875932440411759
0.6610127898613882 0.1663547975096833 -0.12770588837231855
0.477683313770612 0.11213456338765582 -0.1520722623720161
0.5369410950153508 0.2108840806927219 -0.09645761787089668
0.6277791877383692 0.17303430337076975 -0.13444635883986678
0.5671485919244788 0.17766066634244737 -0.14717395477192952
0.5988573046343788 0.21766584594637095 -0.10445547471461225
0.5820528303932377 0.16034849991615374 -0.18803390988438196
0.6123040523987271 0.21317650583280567 -0.1330943825858384
0.6205529216401118 0.1674567582675479 -0.13533095641389536
0.6376305428574227 0.24993698992895474 -0.0712259306794607
0.5854364337553193 0.2291119865670197 -0.005440389941739454
0.5347128617084564 0.1246211640472552 -0.17783611075326178
0.5666221858935785 0.019853483174415487 -0.25198395060874645
0.9023693013000127 0.4768456696301513 0.001340107138915414
0.5844377062642252 0.2198710195896041 -0.04185684704376058
0.6572448197299252 0.15219598077594299 -0.18828112990827606
0.5279330747936228 0.1486097157197861 -0.11693284907916279
0.54325279157176 0.1471342182877038 -0.11688886714273394
0.527570448153071 0.2138632957208273 -0.08121295850720855
0.5631215822805444 0.17863676633861303 -0.14497638805278257
0.4859190317083204 0.03458503790285761 -0.05958699995046857
0.5176183300574593 0.12481088969013854 -0.1266339202600335
0.5816846943199323 0.1389093483403201 -0.14944788909514273
0.48169405906114093 0.10521642282465393 -0.11561465139601523
0.563157774984731 0.12920519054922863 -0.18199660346904523
0.5417639605739453 0.17298816367024017 -0.10800438696007575
0.5993730490651359 0.10441436215644728 -0.15075732946171172
0.6652313065426654 0.12804913080317704 -0.11210098557130266
0.6709481357929263 0.16194176583367437 -0.22362813142267157
0.6096449835432196 0.19212949577257632 -0.07179564331239874
0.48443682440745306 0.1899880180864244 -0.052676619597235685
0.5677961006423402 0.16053633293428504 -0.12020518396185764
0.4845082503052538 0.13088171450166897 0.008074266127451324
0.516465371263422 0.08860569933364104 -0.14761631122813412
0.6466394924768792 0.16572625720890244 -0.17136207301339823
0.6096219859213505 0.17249224317610867 -0.19540006926295916
0.577873091380738 0.1628843005814531 -0.12139672984059757
0.583491588051146 0.1493910688538307 -0.15056042126992963
0.47781063072123686 0.17060032641501266 -0.02876626412084704
0.37477190565988394 0.21439165914490843 0.02755209102814149
0.5476679368979944 0.17384446467941927 -0.0913051526944173
0.5367316900460537 0.14089226961957024 -0.13073803236564174
0.6502640321444062 0.2871137061202802 -0.08456179919490125
0.5100960017484368 0.17017877387685587 -0.10029634106291496
0.5019533664745097 0.16688986423238816 -0.12229419065934621
0.45872250666101877 0.1528814966617773 -0.056238738574137415
0.4638913840945662 0.16061809149540807 -0.05747272913507118
0.4609923332406396 0.13526851344646218 -0.1091258799853847
0.49257248878780047 0.19344645170218655 -0.04289466578480017
0.5691248167703975 0.13702552320795292 -0.17833049761865993
0.5234341687954327 0.17534630476268376 -0.011185695236264337
0.6149591597537523 0.18057685616629726 -0.15078155628938816
0.528025468687801 0.12809039524671562 -0.13855784598098353
0.6514297298255372 0.18981744338002215 -0.13819139050752938
0.49705940817304395 0.17007500868615466 -0.11458884187841534
0.6122995228685397 0.16319216376139423 -0.15774155542818846
0.5716803556128696 0.1552395106383102 -0.15203727838080283
-0.31934277432226565 0.4277628253658605 0.25522235097862733
0.527888023054345 0.17703582515302685 -0.1225352455869313
0.5520216812809053 0.10125051821583497 -0.22198723732179815
0.45696145120577114 0.11681454456055462 -0.14785634783140722
0.6291523803552934 0.33512355371748015 -0.16008084561947555
0.6398972379091532 0.1680899856346656 -0.13244378985348249
0.609313167210459 0.21916939530429147 -0.056672162644360924
0.5836823976856635 0.11847672829128442 -0.12540651002782965
0.5409274409725526 0.20761148234463178 -0.1114010035550308
0.6183413536632969 0.18079480296806594 -0.1254950437885043
0.4576015648290479 0.15234648917169125 -0.04704800206130244
0.5687049596930365 0.17205501602938966 -0.11600224244345725
0.5195725301228293 0.15278854948209641 -0.14087127976877412
0.5659699773506333 0.1686177555848758 -0.10142955664001363
0.6409375471734933 0.22691256123650305 -0.10077192044269623
0.6450024812438215 0.12589825583251013 -0.22857645480844724
0.5602261607688632 0.17945602554911488 -0.10822171365069266
0.5806783591281999 0.3750018308856369 0.5636287139671055
0.5215908128480891 0.19552314807100402 -0.027696680675617813
0.3676266348392687 0.18165025634425547 -0.18596961046614524
0.6560026852717158 0.14696635132690972 -0.13645049604312476
0.4751975411991509 0.09038061012137177 -0.13169993321683648
0.45681933299410105 0.1520811526330732 -0.05602650644330254
0.6358757752861095 0.1551888978125362 -0.1312961403271231
0.5574774354598873 0.21771190873916169 -0.06462177962845317
0.5406109290332353 0.12937962946512016 -0.15502094469276528
0.5569804613654128 0.14570566805521423 -0.14519778596513788
0.6718552474966231 0.20574020494728984 -0.1444403990564922
0.5696915783327938 0.1699580331493422 -0.15747607022254329
0.42288706765482686 0.17429340061464416 -0.08161281043277313
0.6150493692878598 0.193727709263527 -0.19904928765789975
0.59791000460568 0.20461475831211828 -0.10089354966383723
0.5596013831641784 0.15031729291662543 -0.14752907691034522
0.5845847833703317 0.14032468288513655 -0.16563963014299077
0.5280380344487412 0.18903192735596974 0.0036111092132387057
0.47928735148654766 0.22848272790788826 -0.019420066604823205
0.5883005260352263 0.17081170185537076 -0.11950536242677856
0.6262112770808272 0.1167929580788325 -0.2189476778292203
0.5579296174094139 0.10194956718878245 -0.15125227108480033
0.6419303544608255 0.17969005450497377 -0.14225687346505822
0.544743234342576 0.154410174594787 -0.11939701459381524
0.5446595036519568 0.20695221702658273 -0.08475169443946129
0.5702146322515063 0.15802904719251387 -0.0926149308807851
0.6413991696166477 0.16774734535344749 -0.1379123335812409
0.552320328489543 0.23749027507918186 -0.009105518594523687
0.5582218269943979 0.08950371331128792 -0.15434330150061726
0.5323595046648393 0.1785112164767355 -0.07328998613840554
0.6168131471103635 0.16618869715294693 -0.15308548262586896
0.5616771258830653 0.15403912389595575 -0.14721272790168882
0.5186438587666089 0.04190411106826275 -0.1329297182693665
0.6145488633400049 0.1558708707982106 -0.1473781910141554
0.4603115944315874 0.01766022896462971 -0.007059794499369332
0.5275002411560337 0.15041478415825793 -0.08619838994589202
0.6132915019503855 0.17339156859669913 -0.17542037205060979
0.5378811288454841 0.23421859986272864 -0.07366565505185463
0.5494560593257063 0.08499489128364246 -0.12777961366514035
0.38639179825625547 0.1621260502737556 -0.043991130081820984
0.49380756938839454 0.1410334894378309 -0.036873312345107934
0.5852767261081482 0.2346337008933972 -0.08680000732897497
0.4521591854214648 0.2263394704252164 -0.015475329562164575
0.5429100374786202 0.12576125711419195 -0.11408373576958297
0.5702914393202292 0.20641170701016165 -0.07920812907038055
0.44597343291678726 0.10701389113582138 -0.011632140866993268
0.5622455739342342 0.21910424343957402 -0.06914913211195994
0.5025938741662799 0.16915327913078215 -0.1036248957673962
0.5606489286882947 0.13410070908437888 -0.12095366166452948
0.5500356316336479 0.11262481890094023 -0.10863744310940149
0.6268545755923896 0.15663850609230678 -0.15183304871672476
0.5298356754944393 0.1808899186200108 -0.10642269954497863
0.6175732475671509 0.13664516075519373 -0.20196340415846237
0.5308739452521962 0.11096111599471215 -0.0873018363417799
0.5674199022979423 0.15331084965592368 -0.12764217866671856
0.5742386430179636 0.15470515273777607 -0.20451225323057542
0.5233743228963164 0.17968257658853304 -0.06844025638254436
0.4459260275053225 0.11908905689281823 -0.10938674348889776
0.6131132154529269 0.18465059869868128 -0.14438183578246822
0.498967662167928 0.1465922167662086 -0.09646862930635791
0.5541744475845718 0.16281980185206635 -0.10163013374035756
0.5037819567628077 0.16306044568968048 -0.09028767426050877
0.5648559870398913 0.17178689056500218 -0.07083468248929137
0.5165539323188568 0.16772365230868047 -0.10548981402516233
0.5430796406359519 0.20812320959410613 0.003879396175449301
0.5525917837237557 0.16419483623140252 -0.12203023337752938
0.5663090793953671 0.2162777691131481 -0.06687531182112139
0.5627517870052117 0.14719508548817828 -0.12632829353776742
0.586435771018202 0.16092025018240008 -0.14877345396375574
0.6240177202391806 0.1531662015734696 -0.14350052225208287
0.6931991265102511 0.2281492154473881 -0.1889493963692388
0.5484614725467765 0.1259845855978341 -0.15773413751128373
0.5481866785828231 0.1385080821112723 -0.15473024102273314
0.5551323747840513 0.18480049748012561 -0.11673253339556311
0.5492574262316765 0.12798590510780627 -0.16318303009408908
0.5175987979398258 0.16255719286516523 -0.0945222303648876
0.5560601003504786 0.19656327810325536 -0.032388387002342256
0.5956155235271154 0.11863562518314552 -0.21961974516121074
0.5286725911939101 0.15746056750315063 -0.08119695884577993
0.5402563791557355 0.20864699100691553 -0.0520606629693674
0.4773499421320082 0.14336371726956543 -0.04686688240632009
0.5134331873463225 0.1768062857470909 -0.09757435388091551
0.5065509986512637 0.18385083104263344 -0.034961649076606705
0.5981619390599633 0.19245984323072207 -0.14144574081642247
0.5452267547907894 0.1701334320095924 -0.14237921778065754
0.5338248946835336 0.15396044965146416 -0.141867130640847
0.5319131357864819 0.16732414077853264 -0.10267148377239721
0.5498075222175345 0.1634998470449318 -0.11606403420412903
0.6216000606236491 0.15234385080601953 -0.19262128991303484
0.5041347637158538 0.15506613120568602 -0.1162179612848604
0.5627867285549684 0.1737547920826472 -0.18049679131313212
0.5702742754055095 0.1278947626304472 -0.11330643915437122
0.547311236976185 0.18319785273899925 -0.10177311563906244
0.5350018124639178 0.19189544640848055 -0.16910590595209385
0.6782144783483517 0.131213075609395 -0.1975372712633714
0.5406524814612226 0.16481341225986057 -0.12373535686803905
0.5452103080755251 0.13539917121946132 -0.06914997644801701
0.4248971168675837 0.17957834340489853 -0.08701914964200341
0.5388733567317985 0.13387370690654166 -0.1935665723325144
0.6311927785021823 0.09246106394438414 -0.1870376461593679
0.33751087495602405 -0.9905083079653139 -1.106849557908788
0.5562513951198582 0.17883506858943576 -0.10959420975763123
0.5424541346575751 0.17374202164576502 -0.09868914675230656
0.5652669787712625 0.133021387276969 -0.15240508406265008
0.6031837913803884 0.14988599412053816 -0.14580712054819855
0.49592224332626245 0.18509202252070622 -0.0480862538896929
0.6152644738847641 0.17626656509992245 -0.11754361596361207
0.577523394741462 0.2098157959331246 -0.14698782628602203
0.5646022474756194 0.1640584224813324 -0.1383375601845387
0.7024206537254969 0.1618332231412296 -0.19842107203814408
0.528985907389611 0.16422452177774005 -0.10957303013056219
