# .PCD v0.7 - Point Cloud Data file format
VERSION .7
FIELDS x y z
SIZE 4 4 4 
TYPE F F F 
COUNT 1 1 1 
WIDTH 804
HEIGHT 1 
VIEWPOINT 0 0 0 1 0 0 0 
POINTS 804
DATA ascii 
0.5663246326038944 0.22227814421007963 -0.1596342533130013
0.596265090987373 0.16226705933684116 -0.2042876319462863
0.5478748180825193 0.0923821726287457 -0.19180284776824408
0.5211191865789857 0.12053475794857604 -0.12683756906959331
0.5172097872074772 0.15708126017248958 -0.1206674877451519
0.5760247671356211 0.1567365912045915 -0.12565013146442539
0.6122842709786624 0.1284989285987308 -0.18595855429157382
0.4824139668561287 0.0954261316277325 -0.1669965555472288
0.5204054208593334 0.22437164337048898 0.0629735668004372
0.5514031254309941 0.14353208795654382 -0.060556353005708274
0.5732819263632365 0.16089033051603963 -0.12938622068129746
0.5659696714163402 0.1486533802510337 -0.12275949257673346
0.5676423377094864 0.26558100166900545 0.04310140002152707
0.5788401672328121 0.13245527759850972 -0.14280008128110921
0.5538704045358003 0.06341634823056097 -0.20998989233680732
0.6782531944249115 0.11514267546657209 -0.25941073844481366
0.5729146527356903 0.14924336666854288 -0.1531410838135372
0.20962325118853187 -0.16714366655186552 -0.8037640425273906
0.59365413297229 0.13836706126548393 -0.14874813676354393
0.623594751181912 0.2460820495410303 -0.12728601943177864
0.5660504033855602 0.18704908306136758 -0.10085412297109997
0.5743677153713378 0.1660680232231897 -0.12218411389692108
0.5105497499060334 0.18283513741327795 -0.04608880009239158
0.5974471876652956 0.13230539308992206 -0.15191040402169165
0.6122395115273065 0.19670822828803125 -0.12238852807837475
0.5358427349707142 0.13335719665968782 -0.14284789425065014
0.6230582224698509 0.14078900178567721 -0.16207975678710795
0.5480371568689577 0.14551912541745082 -0.10918180793539989
0.5383148191284448 0.16190786197303453 -0.15784773599850155
0.544041551841687 0.16351214501999323 -0.0979977676552295
0.5818107539130324 0.1482667182408619 -0.17716336849466074
0.5234083220498178 0.1583343725607591 -0.1188651920378021
0.5618395583982903 0.2047783917188184 -0.08207133036664516
0.5794009684706651 0.2411857942068707 -0.08668253504976065
0.4741177768492406 0.13218924974889035 -0.08994716462808583
0.5454044149427943 0.1902163728577193 -0.07104989685576868
0.586906059457462 0.21974388160826663 -0.06408823320066404
0.6374611847242306 0.12660067425623822 -0.14232145725817702
0.6448811160334742 0.13028532025964523 -0.17707811341507806
0.5456617154359549 0.2260411404817262 0.006625387632794855
0.5379383213059157 0.11664306635968558 -0.1465547699926475
0.6219310843439558 0.207449315121778 -0.06269315228989569
0.6695395209935242 0.20278521091240975 -0.2282532559143533
0.5258205150868065 0.2404763583111844 -0.05662547795166972
0.5514579308996161 0.11173168054804705 -0.1823645078860494
0.5728298893934891 0.12180830915595209 -0.19619747252471598
0.5424272260319611 0.1982779690312526 -0.08789741067468526
0.33625804518123914 0.3184876078664445 0.07181045172356448
0.5525620200656078 0.22642082565165822 -0.0969559203236372
0.5514411563312223 0.19681213623117344 -0.07054613573453139
0.5419661698953604 0.1605898035279978 -0.1320269972439121
0.6284229263055607 0.1610747803232897 -0.15532819653098784
0.5356924713513109 0.16963721767415052 -0.07422049228722472
0.5560521398613076 0.1565580965307305 -0.12897058945404183
0.5625544100316233 0.1474565496907445 -0.12947577814873057
0.635604374363183 0.20637404419622385 -0.2698595800080881
0.5229321086873142 0.10282635543570962 -0.15784018213291517
0.48853647239158704 0.054846361083207285 -0.07593065118366837
0.5669120968221648 0.18289076039118868 -0.08345135719302732
0.680167019991913 0.1320854248238419 -0.19196027240656122
0.3839005777508362 0.38651866021801595 -0.0729868721759317
0.47930759334074935 0.1618375691511318 -0.07767667412025503
0.5582003330894167 0.16683122219751567 -0.10543705715880947
0.5223432416128446 0.17174617929349267 -0.12218010659086076
0.5665143253693117 0.2111581469284829 -0.08797110464951174
0.5559818370259109 0.16737994189728056 -0.11405926452644621
0.5788967840176298 0.13941498602324032 -0.1317593677810578
1.1013654241330357 0.5668626402732855 -0.27717077600466666
0.5350335158893103 0.15644984734117884 -0.10561997937196566
0.5183771712146807 0.1877681751654734 -0.040614658148399485
0.3469995049084389 0.11708158860525941 -0.052722033320875994
0.5276492140092586 0.09400185944555517 -0.13245705053721224
0.5691227799065075 0.19560183058382563 -0.0982952529285086
0.5327861385716517 0.14536485734630844 -0.14133679439605373
0.5761962771764928 0.1128121720384172 -0.18526634254185126
0.5844912753203317 0.13281913355629626 -0.12636816958982422
0.4969687224784849 0.1054942108579553 -0.1587374078983288
0.568131378083649 0.15157653050260933 -0.12715354987815886
0.6224660867429748 0.07094832135037166 -0.1872076203519697
0.5775594445521222 0.14986745718906036 -0.09429455467089554
0.5703686665985543 0.12487878054704993 -0.15771172902746855
0.3352626798681797 0.21992206971395944 -0.12584473551996211
0.5418413017961825 0.14058250994878563 -0.16583281147138962
0.6006016074419165 0.2034505762999288 -0.1875403929076498
0.573568946853257 0.2803849634048845 0.02930541200939274
0.6679784889890215 0.13535333656149362 0.07195278715565223
0.6188961076811523 0.12850836828283718 -0.17213832206954294
0.6220206543628706 0.15845701354569997 -0.17632405716996402
0.6050959641270452 0.16410488051160144 -0.1276024746462241
0.560627161463799 0.1653635881571489 -0.11795556831962983
0.5029744258961699 0.15568113739767853 -0.11573697247463599
0.463833819321934 0.14406181945865626 -0.0460234919085849
0.5265297786430381 0.14740572025226584 -0.13123182412445544
0.5519579012891711 0.07886572467879205 -0.1880324648750218
0.5537587094488288 0.15509367547667807 -0.12818895562647015
0.6489251425124962 0.1251096146952193 -0.1591676232993109
0.7121767235129823 0.01522100761172851 -0.11327421913679814
0.5788065424381585 0.08798859182738283 -0.16450620033472774
0.5192372117970905 0.15199848691443663 -0.1287079146181611
0.5363781170758557 0.1637310588868104 -0.12105153597104845
0.5753369343928796 0.15024990704766594 -0.14277010647370503
0.6410676861352869 0.1984540265132182 -0.2187882436461166
0.5810304584655199 0.20188031768282144 -0.07036564499925646
0.5666140815926894 0.19677245445899416 -0.08148093943189849
0.6421250544351551 0.19064237507882353 -0.1715957817404643
0.5583109034457294 0.15525780889048235 -0.1347654901666857
0.5618024062410569 -0.20020739711225133 -0.45737154534504043
0.5461593916150207 0.18453194961254837 -0.08858821305371123
0.6076852960874675 0.13047783197293938 -0.15253561079792632
0.5798067576133406 0.20678091337109095 -0.10614915145563941
0.58691538761191 0.20399288051946485 -0.10698751976167387
-0.41635003655763114 0.4133661442290162 -0.5455712595581588
0.5153765089080622 0.16738150488863823 -0.09312460412454016
0.688110104734065 0.27604511632263495 -0.09210852569056271
0.5543316319917153 0.16152253474564304 -0.08575464669162614
0.45084944287629014 0.16080544539715902 -0.0941841499408298
0.5839456925735647 0.24867313232618926 -0.015996227256593443
0.3624052552249708 0.207928121819279 0.052733118296899306
0.5356275954224827 0.16107845769550977 -0.10208070308681272
0.5030934957620303 0.20899602150858243 0.0732117312401499
0.57408848223767 0.15728015298971343 -0.1131547481985109
0.5694843481776672 0.1536817685512517 -0.13680677618816617
0.5803841698106851 0.1911534190417541 -0.10552079192132169
0.5324662315473603 0.17950889863769248 -0.08704181963058488
0.550399548793095 0.21933893318259834 -0.10917347298456548
0.610211567920345 0.18700450003834135 -0.08899366501549366
0.5550496986921019 0.16140598453959853 -0.11984358925082006
0.596579619267601 0.19835192574261384 -0.07952495912041968
0.551797137873379 0.19034928388856542 -0.12813167309992934
0.5504951216301492 0.11360049378932047 -0.13189041929440748
0.6558444295665282 0.21271227742086296 -0.16390440049568156
0.6270302589070837 0.1426454337530032 -0.16497089088636585
0.5548754480724369 0.1908341044567834 -0.0882596762812824
0.5502190464574852 0.16020466496186714 -0.12434430551050468
0.6412775797742398 0.16573803164914125 -0.14800390985948297
0.5018069400312015 0.12046654029468584 -0.10513219949129393
0.5143571128160573 0.1112222441691273 -0.14276473411131008
0.5699339657506783 0.18014741003378276 -0.09185955441687099
0.4680659239431435 0.13527467498883539 -0.1794820484079338
0.5404157528082578 0.1573136041729839 -0.09453830430526011
0.5422716320140779 0.06969718939647862 -0.22913223003594396
0.5713598397333897 0.16148231103403532 -0.11771826154591736
0.2407446571132965 0.028825341695707607 -0.15899061849802365
0.5675517883255452 0.16130540100229496 -0.12533932996598196
0.557745789709216 0.16187171342686213 -0.1159657888446759
0.471755647732337 -0.292601416996348 -0.6532942135018089
0.5727151254481981 0.16070446479383804 -0.14110982518376147
0.6427766944064075 0.18585769668064245 -0.12634419881258907
0.3012741905334906 0.17615426913032195 -0.015321700621512946
0.5185588631744338 0.10540069428132881 -0.2059931052149011
0.567553242930174 0.10652988980123723 -0.17052892871639358
0.5773300976034932 0.1429079630230632 -0.1281628569086024
0.5695007452478649 0.13514022067364806 -0.13400247950364985
0.6318575131803073 0.2132739723644761 -0.15708142247251544
0.5083597517167391 0.13840709387085326 -0.13011861708190509
0.5172808653951222 0.16161251756933837 -0.08874792085410377
0.49539185794488105 0.10882739976810285 -0.17004366241603464
0.5601428558685626 0.25200893744390385 0.0028670732067013205
0.5688830910750795 0.15597855502976188 -0.149832777025793
0.5612814869929821 0.16462967267639783 -0.10040488696625971
0.6169459708284819 0.14846981365364798 -0.10449605661301575
0.5731073996750524 0.1581555941621815 -0.09772351172324534
0.574293002970677 0.16740671813634833 -0.13631041191307247
0.5163915227704621 0.15581221694853298 -0.11552366233776468
0.5416321234369263 0.12784126587587252 -0.18627564909516536
0.6556173578878628 0.16011282793395765 -0.15959210273146596
0.5572142358906547 0.15779097661047103 -0.12324823945974117
0.6330039315747058 0.17745078299209638 -0.1518852569632827
0.5486234091453213 0.16146896440380942 -0.12576478335139996
0.5599426798065394 0.1885390416701398 -0.09599362943953338
0.5918131780479001 0.20075702735111634 -0.10404726951364296
0.5716104553311538 0.15343610292750043 -0.1366834001002104
0.7103081964766318 0.1752361933716884 -0.1362997453996968
0.5899188985568031 0.10928621521425441 -0.1740284895634261
0.6300681610514971 0.1521287612444553 -0.1832558563511526
0.5426219754595962 0.057234703605075765 -0.21168739544862092
0.6464495661710714 0.19723545309201995 -0.1042839753473146
0.5662478054123454 0.17783121505625843 -0.14430753510619354
0.5225509067424383 0.10362929917880592 -0.17138551075092323
0.5754229844848879 0.1901732565200973 -0.12862754440240565
0.6333542469426021 0.13036290825229457 -0.27150938494816046
0.5461781560987333 0.14604015352050226 -0.1393589579056851
0.5707419196079115 0.17780332545345345 -0.1035991629936035
0.5888156145566228 0.1389748048538877 -0.18223767280689174
0.5921091861389698 0.1642047646941336 -0.1403927963728222
0.4601330355947084 0.17334974840537143 -0.0821526749642203
0.5463620779606373 0.14971242032513032 -0.15355915405054077
0.5281982940571623 0.1085683676375453 -0.34673965672210727
0.5578378234863237 0.13796144222168039 -0.1580780057670239
0.5754522866405836 0.20780841792567628 -0.11796947152195969
0.5011539266162117 0.18625569204176884 -0.11602338595258743
0.6022744785407781 0.16357967419725128 -0.14409389029175657
0.5343799258387634 0.1866746538632782 -0.13018462857941415
0.4958407134983105 0.13526643526898852 -0.17256330164570954
0.7122284609440896 0.24962406180615915 -0.05610801232189999
0.6785023942477295 0.16651332717263756 -0.1330251416577255
0.520760143159805 0.1172707311689436 -0.15920872780941409
0.5275951285862135 0.18189150350146122 -0.20255463132895102
0.5568522444054054 0.18569686622173265 -0.09877944199006095
0.5825742924125876 0.18061858388919916 -0.09718557721129173
0.48724899657788967 0.13827663458347672 -0.14813468668754126
0.2923454994056982 0.4404690431511682 -0.39182592297666474
0.6040777304033611 0.12260952908472689 -0.24664505264286163
0.45822713556727024 0.1708163368260074 -0.11612891522275959
0.590883893709929 0.12880515664897985 -0.15338147495432963
0.5609859111409321 0.04353165614460863 -0.1322125101294347
0.5637266258285933 0.16425834510184245 -0.12573228701920414
0.6158094605279985 0.21399485594200485 -0.0645611563709565
0.5978574925853479 0.1457633023806011 -0.2048589678102246
0.5525260241617644 0.163348149004662 -0.10014145607667047
2.3064447315487087 0.6976168021016207 0.6432958137478408
0.6721098380455715 0.1264993921639075 -0.1425109837805536
0.46533658838896486 0.3154294385375209 -0.4760670217138312
0.5270397703499867 0.16225635113011094 -0.10545728520800424
0.5379383128253608 0.1743416420921875 -0.09348241165331217
0.6066428951324241 0.19445985085152984 -0.04410652665700354
0.6061639104414525 0.1474550643571888 -0.13495805885615653
0.502246213254594 0.14285450269797195 -0.11804636420131942
0.6018786377359504 0.11473424298894486 -0.10036946856223494
0.533717501129928 0.17362273408494389 -0.09801059941442247
0.5225640115944117 0.10657564335492964 -0.16507587709577365
0.582322934769735 0.1442759811369143 -0.14703451949993962
0.548397793378868 0.1466993843279738 -0.12381759776138779
0.5499951750215786 0.1236192381764738 -0.16292035077151468
0.6472815330898243 0.16693875378176415 -0.1530617357727948
0.5837167543899255 0.193879922411341 -0.1018592076605529
0.49529201957885505 0.17865553052706673 0.02150440606401105
0.6142419651471869 0.15466075409074165 -0.1325262381070189
0.591727132602287 0.23210676925056362 -0.10795342590948565
0.44903314786172643 0.09851407719784788 -0.030606749843229863
0.546751656463087 0.27694775296950525 0.02808817696013932
0.574639628590802 0.23103289506272517 -0.096448173657393
0.5304900524098741 0.1748251460877981 -0.08625925504679799
0.5725651111787187 0.14200041446480327 -0.12797649359424668
0.587831294235329 0.14596741393059176 -0.1222186862510597
0.5462391423781128 0.11967359231887542 -0.1748034452025422
0.644737380023841 0.13623997000354393 -0.19933094208937518
0.5926719951803676 0.1652618119686622 -0.12794517005669093
0.6079393194982714 0.1381917273568689 -0.174061001359334
0.6527878083349776 0.27479239575004044 -0.3348886528767707
0.5582597052018059 0.19243809057350347 -0.04964047830722507
0.5146006580255573 0.12513141615586676 -0.13785232950547766
0.5870671275477406 0.20699990810281577 -0.03720112905867268
0.5808023931428323 0.17589736466975125 -0.10934760304780866
0.4158783235132404 0.09315204190301074 -0.19508471736074284
0.5340247977762118 0.055339077267078096 -0.1322798455276626
-0.6637765761453807 -0.6252617426782905 0.8760469567925213
0.57532178662494 0.17108760302524217 -0.11666594692491117
0.6241126761340468 0.20842665096512292 -0.17280940662267597
0.6302849421013832 0.11674134914946421 -0.22078787315949455
0.5663226861292969 0.1611699239002462 -0.12541685176924489
0.5421362294547549 0.27362214515511596 -0.03282768807747516
0.5146289254119836 0.1392541094938764 -0.1468535068570418
0.5465806611705091 0.10691772496063834 -0.14637731652085506
0.6906042558468641 0.21815285480879254 -0.1636811865617318
0.5839544457351309 0.23166407461475558 -0.22299076915382443
0.6649669850334305 0.2254257836654716 -0.1168352687765406
0.5881731941919952 0.23533965679793312 -0.02786308711597485
0.5653170287812657 0.1561932909727375 -0.09475190988045767
0.5970055327514103 0.21047807516231387 -0.0700344417151939
0.544602684850048 0.16544695192365566 -0.08613843775552255
0.6245220877827364 0.15497259945512099 -0.17914197060289894
0.6663849929770294 0.21199861224692995 -0.14683696222532205
0.5940921694989498 0.19172224868351861 -0.1470468157735212
0.26171087446689967 -0.17592482930793096 1.2891300523818643
0.6980016294926372 0.18775238315473075 -0.13108913259597443
0.529327599261876 0.15329989535159427 -0.08507460126897115
0.45121092204595925 0.08691009773077951 -0.44636585022341535
0.5324556587682423 0.18501769672882062 -0.04815759118622509
0.5066509240801196 0.17136451323894164 -0.13743941890122358
0.5733775036515425 0.13814430056437743 -0.1315732176939548
0.5314222299878253 0.20339995627149676 -0.08505286523315192
0.4826101848866102 0.08472774443123399 0.03183988674130944
0.3998428415782911 0.21292942055433173 -0.12534493538336733
0.5171332427860165 0.15404243527565598 -0.08465371114179732
0.5390995307518125 0.04726952341795254 -0.26746850532734356
0.4994884569189537 0.1277586761269589 -0.11976890123689543
0.5904112643932251 0.16482447357296337 -0.12795700449031244
0.5594475980520315 0.15319706155463564 -0.10273903370131166
0.6207242918670346 0.18877367386855326 -0.041138604657277256
0.5279016706281965 0.18440746019379617 -0.1228716873250022
0.5450641365707014 0.19810426458637664 -0.12211646134895204
0.5342868582225435 0.2144889248381645 -0.06451855792955996
0.5632114613320596 0.16805026059282113 -0.11748064203901265
0.5327943200163503 0.25969997810709344 -0.07027632978811482
0.5890348638327794 0.14800768670767184 -0.1363426457552066
0.5968045486484499 0.1641734003678863 -0.1469948781670496
0.6161942679947003 0.0559230942433544 -0.2744725599363278
0.537309597661519 0.1723781634423034 -0.0917392322909194
0.589243082570917 0.17536484413504638 -0.13161453579483862
0.5287196269075025 0.12210995550643133 -0.17112552719621021
0.6071276529694387 0.2068932657037834 -0.09329610217983486
0.5714082829705802 0.1851330227921011 -0.062245590178932275
0.5849810957364099 0.16625765424683436 -0.13734655153191966
0.5561034209085562 0.10425445684984425 -0.1854652889488051
0.36866833680070954 0.1454969032503044 -0.13071945009177455
0.6078232979431419 0.16876864700363114 -0.1373675138352013
0.5537325662768211 0.129724329649207 -0.14021568588457
0.5294419893375988 0.21611311262863353 -0.05186960618664216
0.48584758848957676 0.2675861361283154 0.02594009300996447
0.5738813843100274 0.16154720236849585 -0.13827323461580932
0.5592901516063336 0.17547480536633486 -0.1262632311179317
0.5191289838409006 0.22319419014570485 -0.05942754942736883
0.528621217025659 0.14916387822017896 -0.13517079472573812
0.49928355942405744 0.1579816223351571 -0.12995643766795695
0.5345039985010374 0.16036511103006035 -0.10961084842753621
0.6009769845526023 0.1314654008939442 -0.1274904828090513
0.5655302662744361 0.134933342915744 -0.15152916962415475
0.5519188828190664 0.1295837167930216 -0.11045916389329591
0.6219511902441326 0.17123190719485137 -0.15397404509099033
0.5577663315482368 0.10433721983103794 -0.21563515047463966
0.5103905428518516 0.17523502573487804 -0.09091442972436425
0.5588921901512549 0.16894793783772855 -0.13793036545389725
0.5161462478491501 0.17155261130805854 -0.0844472377151817
0.5582302338712424 0.1617193981563787 -0.12328166216332193
0.5714144713246156 0.13353324814839596 -0.16637737897494276
0.5352862849480289 0.1825178294663914 -0.10928561867690689
0.5348875397443322 0.17914458240460363 -0.05693690064205725
0.567157274497518 0.16415476734800905 -0.13059154085931368
0.6812461486953367 0.21195719862473084 -0.1772120940305797
0.5681835376676219 0.1958026708065006 -0.13992877560470163
0.6040166390490214 0.22426186037550622 -0.11297251024970478
0.6449162564529161 0.20144180967680825 -0.07344812837975212
0.624789010411746 0.15854476452103938 -0.18762591011832797
0.5849323395791686 0.1896419184685385 -0.08974132109905497
0.5952176144304957 0.11548836138251772 -0.12999565899534105
0.5538275653193665 0.14011549559756986 -0.25087135852292874
0.5795580827619915 0.15877039306192842 -0.13889320418749662
0.5868674625138226 0.2305256533846034 -0.06545030231067983
0.5615583557521546 0.1407776629252595 -0.12212125572990828
0.5950930651333124 0.16072961217700765 -0.14471885131780482
0.5694804103878681 0.14188457703733093 -0.11874961290786246
0.3636613830415456 0.1882527920920012 -0.04076317056228618
0.5711629348204781 0.16965811399579422 -0.09523562779412487
0.5013511631593559 0.1266862602503096 -0.19896182964428988
0.6313335462524208 0.17793989664507137 -0.16237814622405722
0.2618225669795464 -0.00813547225246225 0.07264465050037927
0.6547390784047167 0.20844327150722108 -0.10635506923451032
0.5413315108053638 0.19783518174419612 -0.07266909630747875
0.6238687307890984 0.1988591685095571 -0.1030948700926615
0.6815716663465992 0.20927494972453076 -0.04732994618154862
0.5673926826434581 0.1619679045782476 -0.11452517743595081
0.6279553495048873 0.1586952697736308 -0.2151721668783324
0.5737452945625847 0.15967565576302434 -0.14973010062914227
0.5188203945201337 0.12997088295689707 -0.1296687382562567
0.6095116835667937 0.18762062965632254 -0.12067802822984675
0.657798758997572 0.1742521548292757 -0.12316202802706755
0.5722688276697738 0.1624902951573688 -0.1266889197184753
0.5941884221517739 0.15986361403030003 -0.12660306824979273
0.5870285665858859 0.129026650820947 -0.07609670939675084
0.5571909486165652 -0.04090464115684256 -0.24562362585828623
0.5089807213927742 0.09277879938819922 -0.1520931063358404
0.5419121787427912 0.19868730503624477 -0.06161123687552106
0.5432821221186543 0.15056802156979643 -0.21326315233019955
0.6092064463472582 0.18786963570632054 -0.11730417984811936
0.33088481372918466 0.05506723295923166 -0.05000767116300153
0.5415254638280942 0.11544456997957298 -0.16594732100094234
0.5549969089468192 0.18438340554010324 -0.09906955210415447
0.6374568321439114 0.09827281946239452 -0.07184838405399319
0.5680338002966749 0.18085613783826204 -0.11322084079579042
0.525740011697863 0.1448674749597103 -0.11471718177160994
0.5737181039555992 0.18707250342714588 -0.08710494063952012
0.5302658369053717 0.1441060668348797 -0.15138506550530906
0.5056383492320862 0.17581837473787232 -0.02849008561540245
0.6084736264974424 0.1756171960848718 -0.14866448037194857
0.5506606679103214 0.15654866492496922 -0.13418298874464085
0.5581982452155927 0.23006970557696604 -0.07128031197180462
0.6114134215901146 0.16396621277422696 -0.1572662328107981
0.5559610618848012 0.17142244441474475 -0.09839930846295886
0.5070556295592183 0.23763789877935437 0.07237601372986546
0.5120628143008332 0.1604574986100431 -0.17178338437415164
0.4712435006483986 0.2428930802743423 0.02829230191777299
0.664316681115281 0.18018986977369877 -0.1417480187611062
0.5928463833704285 0.16557939169706515 -0.1378075478449432
0.5523113524435388 0.1034595612587168 -0.1590731002449246
0.5570351943808589 0.1371599679430915 -0.115440913856105
0.573532542244223 0.14183340447164028 -0.14312856998367351
0.5959198438088578 0.16717554066588036 -0.14454736003405344
0.5202244217171881 0.1296281762618321 -0.09966089167542691
0.5039112666837866 0.15368973089225335 -0.13760705924377703
0.5514765110070243 0.1458684249976443 -0.15518888453493673
0.7226333301183843 -0.06736686231792532 -0.5031999882458678
0.5311652052770626 0.12821354388552209 -0.14583655224033976
0.5735582753218864 0.12797932429766945 -0.1547457632308067
0.6070405821270413 0.16688117634653565 -0.09016428480151717
0.5778843962329745 0.12357658810432781 -0.17558741624704055
0.5648235923683558 0.15286526630252695 -0.08800210367309091
0.6282624570724096 0.15957461438573262 -0.18111509438816142
0.5998324182557866 0.08300171870384077 -0.14069560120766766
0.5254214001652286 0.12923675611968122 -0.15539088835650716
0.6121817648693195 0.13926147837145209 -0.13918549940080993
0.5104186957129855 0.17066399907764662 -0.09677927823103971
0.6292128134210202 0.2424781431451919 -0.03841391279303252
0.6335471020983476 0.2280420939177077 -0.10426435569846149
0.46546683760878693 0.14272820010124576 -0.39746038129734984
0.5989350859540963 0.0945309440635782 -0.1923057144807956
0.5452549796957129 0.13553189565706703 -0.10848402254976008
0.5758983414083758 0.1467951648723016 -0.1431378940147141
0.512474721661647 0.1595483472579815 -0.08366529935358358
0.4585141149056824 0.3383256625731548 0.13287302587929162
0.241469723562048 0.11093878404477664 -0.04940725329559825
0.5511991700278855 0.17191086079959916 -0.11148656807149848
0.6407534872558216 0.2127262256478133 -0.15762892951114793
0.5216656485608411 0.14119993977196543 -0.11733929731555293
0.5397547048461462 0.18478011251035298 -0.08199835495811669
0.5610697499949566 0.14347711569618582 -0.11771834585512408
0.5485401478542968 0.144176170131729 -0.13788863172845822
0.5449145001504121 0.15206905212075128 -0.11286991262841184
0.5958889121136934 0.219521503382353 -0.1353659107154499
0.6604082628650758 0.16516574629930858 -0.11151150585145331
0.5971564236280926 0.13702688492442405 -0.1838815705490191
0.6182639556401028 0.12246523813877275 -0.10550330552642606
0.5460196261601737 0.16812963622378163 -0.0922868169663218
0.5336785804343265 0.1761615047173848 -0.1132664980257232
0.49233483070023 0.1820321776877165 -0.052008895219273654
0.6430057224225862 0.16191588107338362 -0.18273631027334147
0.5720691098036639 0.15435565244746385 -0.13179855520877481
0.6045800238514119 0.1406401934745105 -0.14399444361198732
0.5694338279411397 0.2097978333428614 -0.09368820638566433
0.5863326448479427 0.1464932084558228 -0.16380413266807636
0.5560754446751872 0.12932245889014382 -0.10390927772044734
0.5543507205250933 0.18170210142390886 -0.11276067146532398
0.558301555857426 0.20278973105040166 -0.04256990420081763
0.6142977393201079 0.16211321744825113 -0.13613456373188626
0.4791342469570594 0.13525259738771922 -0.11631412667401264
0.5876569207063511 0.19316886462519278 -0.14038592255892013
0.6567466895981369 0.1557851422459322 -0.19693554483220055
0.589993729786201 0.1695826144496948 -0.12194847310834689
0.5304448631855365 0.21982075303547788 -0.11061523612015378
0.5239259099066658 0.1936812155030765 -0.029498474601936664
0.49707103801064534 0.1871468754687129 -0.02782088474658906
0.45650118265035644 0.09154940435757908 -0.17677893118691657
0.5862484862715149 0.22430390307762593 -0.11670286382639006
0.5147338642309478 0.11113204488231077 -0.14686828264430574
0.5470605879245909 0.21553188810739243 -0.08440783147641184
0.5057226324784239 0.0895829554480656 -0.18580004355447954
0.5104103870339429 0.1441201399422738 -0.10312685225694906
0.6481960693780451 0.14348307881557787 -0.11420772738343032
0.5775126275686517 0.14094337925718037 -0.1561537051790225
0.620588555599241 0.1547986724616237 -0.1160350981411824
0.8304733698080753 0.4353928305097696 0.05867743395909031
0.5775317024170619 0.1647880536248465 -0.13811867152575985
0.6089725471450009 0.2127324658691805 -0.13536326559366785
0.5424589151911761 0.22529585450243417 -0.1338028921286707
0.5456193705451113 0.1742331017632921 -0.14212774086099955
0.5469675805145613 0.17188895218920663 -0.13667959133120178
0.6140055574668395 0.20635000799394732 -0.05016386627974612
0.5858568016113281 0.20576405331655678 -0.12581832698380424
0.5215143474419079 0.23175455804641842 -0.20829190587301127
0.5410790777850139 0.1137332021695272 -0.11934908497154595
0.5998064210434251 0.08691144170001053 -0.16287441588799823
0.5266423706057282 0.1276831809159802 -0.16634235374492334
0.6213821386747753 0.12848126356469436 -0.19525552566614124
0.5678453584506684 0.2688144087892681 -0.04604652134591447
0.5907151143795346 0.152167277836341 -0.1379268024621041
0.5814297350187871 0.23856630893148179 -0.05460217246795196
0.5324555148904722 0.20605072678878855 -0.055466036951045794
0.5844696399168612 0.1620361527857881 -0.07977086121169918
0.4960045595555158 0.15906313754399548 -0.09737543464025578
0.5826527277914408 0.21031889271519333 -0.10524169562545183
0.6301445157380527 0.26194633861285865 -0.07191104411008098
0.29036681864742775 0.17870287322122635 -0.016468223927063264
0.6322143974058605 0.13996400140695187 -0.1403114177889222
0.6003317085284436 0.05816934638508542 -0.19216779898047776
0.5350564507790381 0.131876371273961 -0.14563276090912325
0.5570434218407172 0.17718568064339024 -0.1074434703963476
0.5634729569661374 0.16177281120015152 -0.15257265450789248
0.6332794692795147 0.13464058281381597 -0.06313629564021994
0.5794417592874765 0.1970132940254956 -0.10576455435635523
0.6287481674951891 0.206635880898844 -0.08308755016709313
0.5435252337895378 0.14838879693444085 -0.05646849228715212
0.5216736680511218 0.18136005413501266 -0.05792568542550214
0.6113633169210857 0.1831574545658725 -0.12314065291023724
0.6508465227240947 0.0792536394200738 -0.2311768403549479
0.554289793846138 0.12660986870780278 -0.1390641727358286
0.5828469726650525 0.22456194428453102 -0.09570482637447242
-0.6259758605162489 0.4281096245942422 -0.4530510642047858
0.576191660314791 0.2655953499437089 -0.08145168445847162
0.6023523730991798 0.8264595685491258 0.08651700298433695
0.5851666217830314 0.11798435356796233 -0.17068005220821192
0.5167375388424773 0.12727685488911789 -0.16534351267358716
0.48460225239196575 0.2232450068641043 0.006376969887753603
0.5957549826771924 0.20798768710095317 -0.12744189883080992
0.5381261075374084 0.16393202648170302 -0.14124127150844856
0.5991277005007447 0.22503191594948646 -0.07059327359338852
0.5406754267269349 0.138762687910031 -0.1560082248438306
0.5860417059915903 0.1933712988232088 -0.08692084228962926
0.5832143243642633 0.18745263051904715 -0.11039415526606433
0.5967059630983726 0.19627690905132056 -0.10349192131074858
0.71354768684823 0.14794883973878825 -0.14741454821789546
0.5632879224805549 0.14655349320912592 -0.1440273419478757
0.5723203181236585 0.22275860853423524 -0.07941932335458546
0.6441809860868233 0.18890956045720486 0.03010315927041063
0.5823687871809113 0.15592693783264622 -0.1361264486720586
0.5520213831295138 0.11308069107576557 -0.15662933903567478
0.5632435417591637 0.1797071884073631 -0.14068323007079186
0.5857977265720109 0.15887201673466222 -0.14294627922009795
0.5313363238393976 0.10679527775609188 -0.19286294770085988
0.6899761463052698 0.18721534529818484 -0.08011060500429323
0.5512191185566877 0.1330999977318612 -0.12358614878272078
0.6261818601278293 0.17906689388348696 -0.12935060824450773
0.5657792930286547 0.15662610626392848 -0.13383792792478744
0.5434166466740322 0.14027834424548757 -0.14179900215539476
0.5345529662683646 0.1538394058011221 -0.11632057164372611
0.5667634848666125 0.21226479489176597 -0.08705909095537834
0.7287485187281675 0.3782731693830783 0.28058172276401194
0.6258907923326404 0.16031247870517973 -0.1665572889433804
0.5719932361793809 0.13627437332763748 -0.14188868443285685
0.5257832120554582 0.15579093851869175 -0.25462579035466604
0.6240606298910336 0.18738081803633122 -0.10476086619711111
0.5432427082900375 0.287660191322459 -0.2806720833822567
0.5412548308343617 0.18947298953084157 -0.10602796124200609
0.5589483098219432 0.15608837569691048 -0.15333476045499594
0.5236876414760729 0.11478049327295992 -0.17188112512350529
0.5811378545948003 0.15420279691643657 -0.12881976629890346
0.5146400456111166 0.2115927443171728 -0.09215928264033835
0.6140828199963977 0.11580577975526296 -0.24494525191322225
0.5779017674989433 0.167743635890389 -0.13116608354550863
0.5848032883336742 0.17137550829464487 -0.10169883735784424
0.5880046504657344 0.15851890154752368 -0.14420028911918337
0.550230146730172 0.08500411957201948 -0.1631865324365407
0.5499202903903324 0.22204505632615223 -0.05607344754434962
0.4934208744582804 0.07479128864406448 -0.21218070059346417
0.5668323790278578 0.12854226328873608 -0.15199053999613454
0.558803279274315 0.06672576102714345 -0.12210988509988852
0.5516610275440712 0.1777908282297176 -0.12196799934824298
0.46933682016658906 0.24846962079043067 -0.012823860820006416
0.5661624189774273 0.17518214277397703 -0.12513692296965928
0.7402186283737393 0.3794997633740991 -0.16020768734668422
0.5852858831133858 0.27960087503365116 -0.04046692988383427
0.5890444667340375 0.1015612701008024 -0.20616888099752373
0.6224378541949847 0.15480308344908167 -0.15970946668970498
0.5611046808689935 0.21384452173961677 -0.08998299419945965
0.5191788148876242 0.1321953139726304 -0.1305999634150652
0.6059881594751886 0.07449810945928448 -0.23913681378058982
0.6526946459144938 0.2290817563980312 -0.13234988559172223
0.556431227247046 0.15312541043483918 -0.13078903245975937
0.23883528977179935 -0.11651647234752716 -0.11615315494933043
0.5625523335973099 0.1660667272262515 -0.11030389023798648
0.5057912595285501 0.1313708228841648 -0.16366098913644578
0.4780599917819046 0.12043799801216437 -0.11570353754405005
0.5768136658023337 0.17737679375066762 -0.11852005190749537
0.5326195820714759 0.20135194859352623 -0.08148426217191229
0.6297327031070665 0.14975065972672041 -0.1703729972024064
0.544089105022934 0.1459962670759296 -0.06390985292219398
0.5690286354259371 0.17309918702022742 -0.11965528922809199
0.45264617720887657 0.13292718281859095 -0.10882153876286793
0.6123179898017668 0.18170051216441152 -0.07717613709628779
0.5583920734914045 0.19090364566342544 -0.07446134884420985
0.6016992638828924 0.17395874934771882 -0.14169729573089285
0.5840093513172633 0.11802906586957818 -0.1566519224119105
0.6016533441563041 0.16702884104090288 -0.1651091151602344
0.5749218667558722 0.17791994078640982 -0.11334353098018823
0.6291055991305257 0.19225198337156257 0.0032730687598103714
0.5332098839104731 0.1347068376216356 -0.14315935245116407
0.4182443510472069 0.12640410945788005 -0.11324537155550729
0.5254267227914653 0.1621082917675949 -0.1285519259941026
0.6497253635661338 0.2742561556377012 0.025983181978133985
0.6498356266860981 0.15418692450006688 -0.16134209975146518
0.5192543418071978 0.22516727369627176 -0.04576839409160982
0.5108021219053853 0.2582495159580134 -0.035081471227670136
0.5917852153319245 0.09100077525734207 -0.0985517472318378
0.6067311414133343 0.21614606929355773 -0.07559499095023625
0.5876781920374441 0.17353134833918205 -0.1206067390513681
0.6088205064889678 0.13711291368960588 -0.1437912149537084
0.5852604739470877 0.1769407472244353 -0.0806614327602091
0.6252388736416918 0.16844433043036133 -0.1347815937889294
0.6090859683187659 0.15292918206333184 -0.1440826803721933
0.5848430545006664 0.16629684037759773 -0.025911013535363736
0.5503588727818709 0.16547161642961328 -0.1263503457503674
0.5499572766140659 0.16171375937999244 -0.11842391289141574
0.5205731252585366 0.14036070500070252 -0.14714970756463686
0.5768947502304087 0.1799688502922976 -0.11387628497483604
0.4823471015707099 0.162985232166605 -0.09239865493789523
0.491922065549943 0.1385501729427716 -0.17925948509646616
0.5249407314917249 0.16826749483601589 -0.0878398908776461
0.5837703190992158 0.10285226508118228 -0.20080129113846112
0.5636870826650977 0.1661678664691948 -0.10243499566661285
0.5016298755260777 0.15543773659599935 -0.15271384889177853
0.16590376877466895 0.11923786464799946 -0.27992671465655405
0.5571058948112153 0.17923341559460937 -0.1054857126350015
0.6956139278010909 0.19615218648962696 -0.14625010468058974
0.5529623260785286 0.1692488596377757 -0.12587643550855887
0.5669810745924337 0.1893365986714457 -0.09547865851018855
0.5306103120995971 0.12837405995747986 -0.14949344058496195
0.5510402550376483 0.20590091403370536 -0.04973970180471099
0.605117996940578 0.2500742407815295 -0.031221859261421514
0.6159374856030411 0.24071393281393227 -0.09761998024056595
0.6185870903800748 0.18131491396849242 -0.13223207635583378
0.5975510866988998 0.10145929620435368 -0.23791116890910757
0.5522884814645579 0.1647737919364971 -0.12476868616694503
0.6291120108103314 0.22959784960440288 -0.08038436868982046
0.6226181662732273 0.1608754472628533 -0.1516369218824849
0.5565193083439084 0.13406089595824255 -0.1458519843188668
0.6082301431173107 0.12285292417770677 -0.14005335177743916
0.5614955458647728 0.16597536589405593 -0.09837946052135749
0.6541681371654704 0.19974033562299098 -0.12245595096648287
0.5424127110525632 0.22679969300777714 -0.034756726078015276
0.4978031167155308 0.1499423482670892 -0.114134082735589
0.5492985659858505 0.2206825001550925 -0.04363944831537481
0.5584771043173902 0.14956577898450973 -0.1130768786784131
0.46621426541841515 0.17739141326600816 -0.010868113721542727
0.5514928987807792 0.14562680473547118 -0.14335715883363775
0.5358017443102057 0.18135530873799155 -0.11965968949381534
0.6404928619256225 0.18212633012410606 -0.15732520635980052
0.5358811890850177 0.08260674213627794 -0.1904900140764738
0.603335959585479 0.18509173211002405 -0.12772025321227432
0.6209348731977968 0.19061221230974468 -0.13420084689107625
0.5336646802861083 0.16233385635459285 -0.09308330157819
0.4684479426395569 0.20141548891150762 -0.017646873706681276
0.5855496636076936 0.13064191490751398 -0.17573717492575724
0.6217925824358161 0.13979153471279915 -0.18441721508433773
0.5973382545910653 0.1719644402904521 -0.15078411196496688
0.599586186915019 0.19411116246239146 -0.11565159612756304
0.4351534995083455 0.1590946848871937 -0.0590633559583722
0.5819614570662708 0.18642975589986577 -0.005174613873052181
0.6280895372599247 0.17172395901799575 -0.2016378127856484
0.5960023334570934 0.14397817438546667 -0.15304575782163
0.5913329779986043 0.1824324689896457 -0.1375968100190761
0.49610721749304787 0.11881286284912562 -0.18956165840600647
0.5625045194215943 0.10821601609191589 -0.1909864210218899
0.5345219633023532 0.14631812835081348 -0.09652287219147127
1.0535709638459423 -0.006513573644895132 -0.3647415699942087
0.5805100394676401 0.16246965346464037 -0.11216680867329387
0.6456929455703744 0.38978810417144416 0.04321473248856478
0.5386471945262343 0.11154237253441579 -0.1784059107032192
0.557887825174916 0.19342871411045337 -0.06733279994308816
0.5044344775116087 0.13026515054608012 -0.11944428994280543
0.5830904684806058 0.10352076750638162 -0.18475065281400305
0.531651626540409 0.18957134282136678 -0.08562885712252921
0.7330626657397659 0.12185032867586187 -0.125923625821045
0.5738973315104232 0.1554268601693991 -0.12524910192328775
0.5367629808944798 0.19421657480793897 -0.035621879322960126
0.7091678668797528 0.19346632781848427 -0.17030202979495357
0.6217832999997626 0.22183434720128048 -0.08812738635673156
0.4365805661738591 0.24893996844930655 0.01778351034862169
0.5711958508227468 0.22212294934438148 -0.08004180738356581
0.5603043086258879 0.25875747412632677 -0.0670614167795236
0.5943602171366535 0.16526241752954718 -0.17452103542144926
0.5614646158831675 0.18002535348492188 -0.10211232609114518
0.5833891903575648 0.17972010667091354 -0.1083073859912389
0.5546730299752767 0.1594431246182637 -0.0986676202664114
0.5297776347050984 0.13328970685697072 -0.14078899477868845
0.5747419108134295 0.15123147302776374 -0.13559827090722365
0.5797671679270024 0.1570811486995325 -0.1408607435753595
0.5298754257051996 0.18388065545310894 -0.08914968189107242
0.6108796640843224 0.1846291429931881 -0.10548123728541725
0.4475006703321327 0.0838106832030121 -0.15092311667352476
0.6025204347947835 0.155236905811293 -0.14271360191571603
0.5646344471593494 0.21178461913184776 -0.05381226114067772
0.5772319752380639 0.17224129374315567 -0.08623026288579183
0.6285310275024045 0.2696807728227526 -0.16731003346193063
0.4745786821949025 0.1059726626984343 -0.1065982473892717
0.6624632442727858 0.18624598015301785 -0.12999082559083774
0.601727991189307 0.1646964044383168 -0.15593231766881388
0.5489663396172944 0.17141564630730954 -0.13939957724191743
0.6721251724771662 0.32976915421254205 -0.6687276531673376
0.49805406130178653 0.12892301292866648 -0.10173876072457233
0.575265497880622 0.16447802442625914 -0.1279707577935909
0.44413704820645705 0.1054994778274363 -0.09743862957974159
0.6429412622925526 0.22768802742106686 -0.07164121759934972
0.5827974021869124 0.14155765663677755 -0.12448302228122543
0.5304145660933273 0.25864797775716397 0.0677902406796278
0.573704819660648 0.17100217158875353 -0.13443007078384994
0.49542848276210805 0.18313283248082257 -0.05487595821294633
0.5726856697098839 0.11356988671683155 -0.12551851674716374
0.5643982515368577 0.1821998028420353 0.032495965586022635
0.5016771382189376 0.19632073776985237 -0.05869052573798683
0.5457803349375041 0.17188508977530148 -0.10947679915057051
0.5584235063198122 0.1665676304224064 -0.14428613661412726
0.6184889996194585 0.26443125640862775 -0.07037188831631624
0.5566437360370742 0.006914775497051551 -0.27062383550990887
0.5783881937352504 0.18177470527021455 -0.13432797863330848
0.6195082067214486 0.12937373569342014 -0.15298822200813333
0.5539521205756728 0.1618331558410233 -0.12414074162866484
0.5927285172432022 0.11120216559115192 -0.11237009878401238
0.6131511704518715 0.19666521617989474 -0.10355407529009142
0.6144939488334842 0.18270002621490278 -0.12463744361481588
0.5399828808855318 0.15385217753259894 -0.12660418842261834
-0.13702434867578006 -0.379418855111723 -0.08751300269179296
0.44420346627485685 0.180620141572291 -0.10208291722666729
0.6112694705831245 0.1738250571095108 -0.13302026002541822
0.5408663818811164 0.20707800171005886 -0.0667933385930155
0.48038595386907446 0.17744670170675647 -0.07125862354273238
0.5451052510178442 0.1922402025680583 -0.057519320513421235
0.6605999956978508 0.15732468853323667 -0.17032920744317437
0.6018364914589966 0.2198683530920249 -0.05050159143391397
0.5134647762586013 0.10286866049270316 -0.17304041312308982
0.5266002906209906 0.1493691959823309 -0.10401565367905619
0.32815324368334586 0.445378743884163 0.4475525725748497
0.5327593358274214 0.15722590015798232 -0.12963710690677033
0.6545593887563683 0.1257215639434861 -0.12069909107444232
0.4523679773989784 0.3760315766536735 -0.1307095393133153
0.4687394053698313 0.12620218179607434 -0.181590957661399
0.5727178697612345 0.13218204666625866 -0.21934753851336097
0.6151590317144837 0.17708140534651307 -0.09200297444829175
0.4956867804261975 0.13175264522097052 -0.11504157122874403
0.3803452825688254 0.004277427691349089 -0.11148291673569588
0.560459191341522 0.14197730577681966 -0.16908542786369196
0.6465822368081433 0.17413623400810252 -0.17973903840324112
0.5078162305960916 0.1565088806603967 -0.2016725034142155
0.5851815724177669 0.19647725454392173 -0.060880018500611754
0.8884067979147829 -0.041797586382585905 -0.11825194220030255
0.5692139130236882 0.18965910798037555 -0.09066833586422263
0.5098429309180403 0.13070150396229963 -0.12348587733323768
0.5085071957462048 0.1052702768657241 -0.17113102561143023
0.6205145524035345 0.17457129674808414 -0.14333249278688243
0.6036719890268358 0.18317922432019884 -0.11863865442732902
0.5485438383212227 0.15256611900672112 -0.12727933992955798
0.4636266354987413 0.1861296748958523 -0.09110539199646439
0.5706451948267244 0.11822623527994836 -0.13576323853730798
0.44241709064866086 0.07348049444797766 -0.08381570544031547
0.5406868413285082 0.1546419349701722 -0.11225995295393432
0.5797496849853729 0.16566889752726865 -0.125984461559824
0.6032383247523398 0.27350995061812 -0.5609449435415712
0.5236764260048972 0.18117988640462102 -0.05590535322875212
0.45356105652493284 0.11514298979686544 0.0064615983579585645
0.5425593966557756 0.1516777526533275 -0.11433379885173167
0.6313843801151791 0.15597282053555261 -0.1437130879674271
0.5290050626584133 0.14829965812366197 -0.08038976982419399
0.5969635960666011 0.20740310522307936 -0.07659802498146462
0.5824055647073294 0.1489585950683363 -0.14305564112700608
0.6694994865889612 0.16447934955820642 -0.15354851494466004
0.5280051047059686 0.1016240436488971 -0.1360310497152284
0.5916570407165409 0.1132817175936367 -0.16055347081054094
0.5602861957665652 0.13717785265481552 -0.14410504372605715
0.5595056624045043 0.18822022163141128 -0.09343317981038979
0.5445559852893922 0.21252683174076026 -0.10955690114694505
0.5837092264137596 0.22885795181733215 -0.07866300247752633
0.556336722081241 0.16376503098688033 -0.08265637668498016
0.5591247198896099 0.1994202543643695 -0.08173426595055844
0.5643833563885465 0.16547391426426827 -0.12279328916778809
0.4354551870245018 0.12543974128918478 -0.08790360162215904
0.3826156797779703 0.10262328858662784 -0.19039430085194908
0.526631265445971 0.12532567055768595 -0.16261151127531548
0.5745776314008566 0.19182458927767243 -0.0934867791966667
0.5680837831941119 0.16707350538491994 -0.12479459244993052
0.5783188275940461 0.12733343515867546 -0.14237352132801107
0.6052152041540779 0.17170424026363662 -0.14076954753949167
0.5981578507189766 0.14009245581394225 -0.1582851196046562
0.5729138359508141 0.19579742021635127 -0.11888738790328546
0.56206989045576 0.15864328389449156 -0.11010800644758945
0.6357564653039134 0.1723551165012509 -0.15774876086955203
0.5910032394208287 0.17569473545667336 -0.11933174505672639
0.6632658993040081 0.14277187505651057 -0.1421277765349771
0.5466187494168366 0.20057437731840366 -0.09565552419870471
0.5828975192241757 0.17255859200993484 -0.1005203008031259
0.5782563583916556 0.1495904453529988 -0.13067361643153674
0.5897301161569857 0.14885349435866146 -0.15269642282333962
0.6052178572987401 0.24524506628088716 -0.07071355240947241
0.5639426430343946 0.17481068961198787 -0.1019310182107489
0.5657371268141418 0.14957767600891714 -0.13706950046810107
0.5855741053128583 0.19222062831232734 -0.11478990400581779
0.5794384495200262 0.17184557636626607 -0.1112357333644809
0.5311483621182731 0.1542034914982935 -0.091569383501934
0.5116625988666073 0.1703790542851351 -0.11859333123514659
0.6066723258934843 0.16927531905550097 -0.1510876123562781
0.5968058153811029 0.23541263063751217 -0.03027207823819822
0.5511484435994447 0.12942717521575275 -0.15441338892827616
0.5227115568406475 0.12221871655317784 0.005884529441757991
0.5796791261337262 0.1875858488604223 -0.1053319041165679
0.5485697795574396 0.0695232732414297 -0.16603683880273934
0.5422272107461481 0.15196578654479254 -0.19038980959274454
0.5201477860107531 0.09113858446643519 -0.1794045409152858
0.5646747703907806 0.16730339456358934 -0.12137845299811545
0.5650268962333485 0.1531350421177109 -0.16705788681278477
0.5434821762483466 0.18725296718147888 -0.09460305889014364
0.5423779527021537 0.19913080826952978 -0.0464113151874983
0.5453968220362952 0.15530847884001275 -0.12474268545282996
0.5330384178869991 0.21994785812843531 -0.08389451151663252
0.5451909461420712 0.19421864930662025 -0.07944045146770407
0.6160977528674465 0.18579811065181673 -0.15020313433836918
0.5739528833218088 0.21069667125539127 -0.14550957768609862
0.5756657735744852 0.236876030569789 -0.06648256748177062
0.5534338856430026 0.20476922618996696 -0.04783299965257015
0.6350283354346118 0.13315353875226776 -0.22909889531572958
0.5705281745983228 0.0990181794376781 -0.24822742696851208
0.553573882240272 0.1367004720210332 -0.1544934084098344
0.5882495434725996 0.16291139126721532 -0.15007742613772734
0.5895263975490508 0.13975579210347178 -0.12910094628148272
0.5264390872089706 0.1503189882815832 -0.0646051005756334
0.568458042201172 0.16838223172354105 -0.12222109734040032
0.5461066180818079 0.19784898804677198 -0.053505043594611834
0.49662849573286394 0.08790960765524858 -0.14988478133774663
0.5592931372209904 0.171752763703779 -0.12895193972445895
0.5228432758858332 0.1588748203998449 -0.09045354065436584
0.5298821495797483 0.20553172500065386 -0.05642643197445807
0.6031782131072134 0.14684581189335688 -0.18186576103190077
0.6530760638572559 0.18603567843810254 -0.13915537550700208
0.5017212220314917 0.13681383090938937 -0.1413815136302361
0.44589580909486415 0.16368221030960228 -0.15840856456637198
0.5866748554598757 0.2515299394009105 -0.045223953332154565
0.5594953821498194 0.09938881341432193 -0.2161834445010129
0.5337592514672309 0.26915232487584717 -0.12475072159595868
0.6227572047282308 0.18363976860482012 -0.14641968267271466
0.5460571960211951 0.08172941618141749 -0.15348757194601603
0.5404002618929411 0.13589805646566333 -0.14020749391325182
0.5582145162013461 0.17671430750137063 -0.061771181598231806
0.39730101454956923 0.15831695892455855 -0.04832920479704228
0.624654740165056 0.166711655040217 -0.140643805426933
0.5581488703913493 0.22198069713051893 -0.037152953072762784
0.47778039767088387 0.2051460895188626 -0.03847134038834099
0.48338131256235783 0.12051451759029419 -0.13461344550466947
0.38537536738425615 0.242010760892029 -0.0332682378055722
