# .PCD v0.7 - Point Cloud Data file format
VERSION .7
FIELDS x y z
SIZE 4 4 4 
TYPE F F F 
COUNT 1 1 1 
WIDTH 804
HEIGHT 1 
VIEWPOINT 0 0 0 1 0 0 0 
POINTS 804
DATA ascii 
0.6797572828088505 0.11812394535496651 -0.14603031620924867
0.5581751226026483 0.15264337779885295 -0.12117461690675668
0.5637677446009945 0.13112364095428575 -0.14786985045151368
0.4596391069671881 0.1751337477349324 -0.07595848634849744
0.5784427729730055 0.19313559595266838 -0.19997654803043474
0.5549006073727583 0.08143926441969995 -0.16588200175709744
0.5606078543781052 0.1533412981583666 -0.13258202514390405
0.6613197510362454 0.09763885835465658 -0.16674678323238368
0.5433805012846449 0.1286734844430839 -0.15044696226578935
0.5995925301559737 0.15008451497608633 -0.13656344341299587
0.5245490001885571 0.14310016724191144 -0.11959490921162796
0.5342633922680875 0.13023104923796325 -0.19445329006205725
0.6207345843176029 0.07212450343166665 -0.31144568579884435
0.560350556100957 0.11049976173241305 -0.1871008115600432
0.5488713655110473 0.17558309235019465 -0.07960328156815422
0.5394580635412751 0.1223937696762647 -0.15272768988663188
0.5488624592297526 0.19397040541683452 -0.09651674560888068
0.4743348276046504 0.15824507362657414 -0.049954130849044986
0.5809062132094311 0.23196956046291461 -0.05294530414622045
0.5214978591993429 0.16978833556756 -0.09774728015418077
0.5834988280169 0.1368735150105067 -0.138814751092724
0.5610717625694406 0.1943371322302454 -0.09607130855772539
0.48264976391158143 0.1559450390925008 -0.1042013416542602
0.5510825138551638 0.1403918508792259 -0.1647277911045535
0.6149425325160678 0.2347385615793911 -0.12607711886727202
0.5653998581867938 0.18511699005441073 -0.10123884421435037
0.6284822609519836 0.10234842740567274 -0.15306263670646558
0.5744018832707809 0.18566413451509334 -0.09015730068753669
0.5720229059866995 0.13755260862599528 -0.1492932108780849
0.5379674231907359 0.15349809007122417 -0.1217840154015164
0.6192319954700167 0.17353458852763026 -0.12706889981609493
0.5689130689850685 0.16112236973525285 -0.12364872768006308
0.4993454521756462 0.19102582642148036 -0.09128404786386568
0.5542510630135951 0.14900687352007935 -0.1239241085442302
0.5619198870667503 0.15472430827901462 -0.1291797117499982
0.5605593241858458 0.12659449465576245 -0.14987598206548114
0.6216119305234713 0.18048724515207937 -0.14524141719471118
0.511403919839438 0.19848180393002224 -0.037960653168056524
0.5252887752340882 0.14853085636056562 -0.131157214069475
0.5070365206474605 0.07484170979145688 -0.20021027579667816
0.5874242656242643 0.14761166567487294 -0.1591017202314049
0.49487999304321306 0.20444280622525923 -0.021274552012044978
0.6198819839703731 0.19456429351899374 -0.22212100508585308
0.39887547677324164 0.10592135571388894 -0.07088619634433257
0.6645322207062918 0.23452646597431226 -0.0935402956186806
0.5632165478367597 0.16545173947729097 -0.09572967788716369
0.5836142647012537 0.16297680592019503 -0.12695008017567488
0.6265780936541603 0.14564245768224282 -0.15049408951210808
0.5702746507123777 0.14574959816137323 -0.15607911328112323
0.5564651377367795 0.1355014589374548 -0.15663190007600747
0.4020943636009804 0.14783280290261303 -0.15517302407198486
0.5924317002239547 0.051984979147306376 -0.15333162415649326
0.5231642897768438 0.14940405140926316 -0.11193684764717204
0.6277647860071625 0.12181184795419142 -0.17595423983047453
0.45235736938525406 0.1477851742890266 -0.1115446562135105
0.5435058132728159 0.18732118765045414 0.004003152081480721
0.6821957643443568 0.05292151767770292 0.02707873658627591
0.5704125586900091 0.14156729661598888 -0.14021691348170862
0.5525472868471581 0.15796879017206322 -0.1434036438376154
0.5555260773699047 0.17877870319375688 -0.050114260484178885
0.5038546263694457 0.10315372145980461 -0.16181991495167836
0.5827117454427082 0.16050658399811368 -0.10299168737807918
0.5514588294513203 0.15762832454045395 -0.11797540892104053
0.5749813724729904 0.03940682581406918 -0.2199226423263383
0.6259032453547206 0.15278700386637922 -0.19354127958055756
0.5729591816430855 0.20242839065143414 -0.09452492813639424
0.6389758416184748 0.22209228964545957 -0.15679917922494724
0.6068942256268031 0.18899990343278716 -0.1324249368406356
0.5383050672731713 0.2998493934053954 0.016274047317722307
0.635829635407049 0.15320209344618263 -0.0978589754630832
0.6290721390854515 0.12384522168463263 -0.17643414865614204
0.5446061563578155 0.16795252818356232 -0.14617227827920942
0.5190248631725467 0.15768739726303238 -0.1099285544200086
0.6545830225298346 0.12254825351521959 -0.20526450845625277
0.5561644408816164 0.1816043205461284 -0.07779708277604414
0.5614456564239276 0.12467174146007665 -0.26097932844535876
0.5595045432975212 0.16773966097493087 -0.10892113992250074
0.6078885799642251 0.07971547820164915 0.017264151268591377
0.575720846815102 0.15659719385097048 -0.13217992256048205
0.575502740372059 0.12597773388093003 -0.14929042489009703
0.5740177197592686 0.09708219326626022 -0.1895255964049909
0.6952612429342651 0.09376006221003763 -0.2517315841744221
0.5223101454043899 0.027292082093723025 -0.20155389729580975
0.6885673772175096 0.19772741362933743 -0.10267581933561587
0.49148708351557957 0.21558723685770076 -0.04777917009448629
0.6651745618918596 0.11379837116695057 0.03830085190773502
0.6673194758157308 0.14350783413772206 -0.17854448567734948
1.1799482274060438 -0.23029012127527437 0.11860582976396472
0.567788983980364 0.11773056079260869 -0.1779790586287504
0.6583327998123991 0.18024117793703454 -0.1635039513194272
0.522285415574629 0.1575103290142863 -0.09295504498126661
0.532381768945072 0.13802151840684473 -0.1268517282846915
0.5640314675048899 0.17063915364956017 -0.11583565547394414
0.6673215520045801 0.15571785469846589 -0.1810889381884806
0.5785614441837197 0.1493988209647057 -0.14254679250677782
0.5247074047381659 0.15664372519829328 -0.1674136034928324
0.5429028201751862 0.272769968353046 0.0070956504791581665
0.6175883345423188 0.20028127221178238 -0.11504180340836001
0.5171423939520992 0.14239493279387716 -0.12808339614949205
0.5641028443349967 0.23688413939119357 -0.10376512143395189
0.521233846157088 0.16769479002103083 -0.06582968033239922
0.6941002592471648 0.188538406458008 -0.13201665377565064
0.5388347531268778 0.17581316174977246 -0.10743685842248851
0.5812762219900947 0.15102465850290514 -0.16779169329637966
0.6871525668613572 0.10720221982893463 -0.17336836250348142
0.5547728770214064 0.16966185714596804 -0.12227084185076365
0.5466448718075299 0.18615699960275833 -0.09414075128304944
0.5647043726202412 0.11814397429790802 -0.12112257700917439
0.5989391382901772 0.16457806139376885 -0.15817353841055137
0.5640249771988977 0.18405751206786647 -0.14946203775861022
0.5462566005842007 0.16930210430889758 -0.09568164640211307
0.5266395462026026 0.17585780893955416 -0.09679797600330176
0.6094978890567688 0.18101082561589976 -0.07595184036406977
0.527014533228737 0.09442333018550642 -0.19173646986820359
0.6104450389357226 0.2073474724435016 -0.0697628818819851
0.6579576070652706 0.14302328153439703 -0.14599702089654443
0.639201006184436 0.060526097668812895 -0.05684627575234913
0.5012164108861441 0.17100695284453593 -0.1849209091432158
0.551253686345035 0.17163661419482423 -0.16520716007764236
0.5719293320645704 0.12134740229940633 -0.11363025049445241
0.5579071926283063 0.1612136762686731 -0.16508246339776633
0.5271874874275397 0.13989287738029077 -0.13041576963470902
0.5787012998014802 0.18339725221964898 -0.10007229022386355
0.5319417194239691 0.17123911509537493 -0.09574376408608032
0.6427635426844347 0.24697241148508908 -0.05536508901641923
0.5746554643520483 0.317761057121686 0.010747345041949075
0.5931860874522954 0.1651585604593322 -0.16479227016927211
0.6258137320594699 0.14937224384706838 -0.17744292622253965
0.5378553698699307 0.21069398430489628 -0.09634578161134755
0.5599622295842153 0.16248099241053637 -0.1474398923182889
0.49546079725814707 0.09163185712547772 -0.21047764588701057
0.6322298742879866 0.13032759926218773 -0.17064653511746997
0.4969523411196519 0.06004274757438566 -0.16713743402473824
0.5800226111063864 0.10886944577860902 -0.21923598857176785
0.5858851082725209 0.18880721222036811 -0.0552702877967306
0.5617229637301762 0.20374876101863038 -0.14621698500025104
0.8471225555568935 0.011192079439680924 -0.08503236764926214
0.5174313743862626 0.10442251875397801 -0.18378907283826607
0.5268741215069213 0.131352048258762 -0.13470102657086613
0.6309815442907336 0.19889310611635835 -0.2108501262719642
0.49030403709741677 0.10644992437687506 -0.10598888711334098
0.48990517112792986 0.12562174626947353 -0.1267615660773913
0.48217173080550424 0.14590950879735942 -0.10993217277064105
0.534072819954531 0.09784105754640393 -0.15972129189611906
0.5430502966578956 0.1134314870786568 -0.17836486508943494
0.553866285862398 0.14784638678382578 -0.15104945964776562
0.4784975493212471 0.1287580481221795 -0.11646140774530522
0.48789384943640357 0.21619797123818785 -0.05424384285055339
0.5173017958541664 0.286732793377908 -0.09108884926178007
0.536919878062946 0.16861647026715332 -0.11002547248918404
0.5514345944479544 0.24830450501741552 -0.07028272513653633
0.5776422293655799 0.1874178552568253 -0.12673465300153453
0.5815557929614954 0.17701417180002466 -0.09975136741783786
0.5701241066414582 0.13351055503518694 -0.16188159277604086
0.559607825922825 0.15037752595516451 -0.14046380015224713
0.5404097858236412 0.165681684842113 -0.11425226504613306
0.44681708574643153 0.09471949485011066 -0.10125441318885464
0.5885805079911961 0.13276905603247258 -0.2150805501717059
0.555599576914517 0.20158039459701627 -0.09489960573807821
0.5084624094999128 0.1718574176481269 -0.06852726989481539
0.557885158276946 0.12516734428702136 -0.15061314723800479
0.5448179837747773 0.1709413141398386 -0.12164877588372747
0.540624335093753 0.1247242056295903 -0.11582684715756386
0.5404802239292792 0.15659351535357757 -0.12469143206413946
0.5282077029693824 0.12496999693343014 -0.15322317964913168
0.6349859431801974 0.1736389964372762 -0.1260413861092502
0.5395176681736302 0.1520432903322586 -0.10620618467496001
0.5542924989968299 0.15832556505638706 -0.09901921584065576
0.5453559911259163 0.21339267490806435 -0.048576495915426676
0.5232471414050792 0.19523280398688314 -0.07425627571811333
0.5766618267539911 0.11677134231354103 -0.1629013680928324
0.5272956919888543 0.25070460124206306 -0.044343576275963414
0.5475268051874593 0.1697094426898076 -0.1309115109250456
0.5384647006650312 0.12779476445960825 -0.18131574758828606
0.5797923221970507 0.15342327024114866 -0.13592584230445937
0.5295536801180276 0.15602040518977844 -0.10074058857398427
0.5402652247631465 0.15294329735758083 -0.11561157387731669
0.5887826261615885 0.1173536222384115 -0.1836710906439123
0.5301197379237976 0.14931170799232518 -0.11533275398738851
0.5726521516571665 0.15340543158231412 -0.13909672432978937
0.5385018376945538 0.3065773324377119 -0.07316799096079762
0.5532258957112788 0.12721065671372855 -0.14541749967585815
0.663934464803674 0.15239303516088398 -0.20162674837646932
0.6042469837250053 0.1636643548318233 -0.12438716909406367
0.4867899820064565 0.08641701557925785 -0.19441047748284745
0.5516717048434145 0.1010062488726362 -0.1903965702681205
0.6083941082577837 0.13022964762245692 -0.10671542754892016
0.5532743343484015 0.12345506825798225 -0.1657129867628555
0.485530589687869 0.09186718173684483 -0.15431129312821668
0.5281792915913854 0.19477477928505493 -0.13586894847654207
0.5672224791053964 0.16295059401021206 -0.11352237891614436
0.5462718700277946 0.16299548085413562 -0.12329111711821383
0.6723694217072307 0.2443329553767768 -0.10518379143471179
0.5695977859747927 0.14170059470782803 -0.14269940035379136
0.6081564800983301 0.17874702946753018 -0.3640282172934519
0.5544131131155154 0.1454461133680809 -0.13550224339465444
0.581645787917779 0.1273160869678378 -0.2130692439106383
0.5943372345075488 0.17565476066296526 -0.07969714037753306
0.5138261292426307 0.14153540100302564 -0.11966111523085488
0.5243817548058018 0.25221824042594676 -0.012054171830499172
0.5645314943991764 0.17086863505031147 -0.13711777924854118
0.5945572330919333 -0.1256857136034597 -0.5370398139018278
0.5837166014467527 0.10419137389988009 -0.14991400922320963
0.5059532969002589 0.10345356443484377 -0.15009919969270413
0.5694863261826697 0.13973752755138946 -0.14778898673324647
0.42370380833017407 0.22635565092126342 -0.015332700835841706
0.5216149193498438 0.15623559318777325 -0.11586675896583642
0.5947490063881844 0.16932923411994238 -0.14173393164702475
0.5639882303594561 0.1519140065607445 -0.14475798604510715
0.6272869472357172 0.11682064125045599 -0.19783354756469862
0.4992188745956412 0.1660587190238232 -0.08389343537177751
0.5654541384459151 0.19875439964627617 -0.0671899228547943
0.5789426066353087 0.18587022479000836 -0.1288504282402414
0.5892473341758091 0.17873704151062952 -0.149999189014153
0.6734099328770924 0.11873701903725475 -0.1659223825443803
0.5246498627277276 0.14119734219895008 -0.13283331769065398
0.5784660146985345 0.17245597608587104 -0.1370613268737202
0.5979027049602621 0.24737539849527934 -0.05464109393341232
0.5520862546441379 0.1420409059048353 -0.15073343236983305
0.5946848692878177 0.149528277736934 -0.13664821990906262
0.5428489246278616 0.2226339991938744 -0.09269028085165587
0.5503071906007051 0.16750046239627636 -0.1320891476615884
0.597654622326445 0.17130103216702253 -0.11459569206175502
0.6127887229943099 0.1295101368695697 -0.1570636036617259
0.4935385633605165 0.15781055156706714 -0.1407154666988788
0.6234558087385835 0.1976926812526898 -0.15365937820604358
0.5764816797651235 0.22032819086305722 -0.07781815019384908
0.5326880268130765 0.18540280989114422 -0.1097388560681054
0.6024594837870438 0.13295478161620622 -0.1588140792972581
0.584236420028077 0.13794982720222038 -0.18439721897470918
0.5527266137135598 0.14662943862582267 -0.16110138578764577
0.5546042413716634 0.12237616423018949 -0.22647609372438637
0.585610506311184 0.23424813361391728 -0.06568549247896271
0.6030619900236047 0.16401480578471705 -0.1583332831097266
0.5088553824035955 0.07768926723113623 -0.21123636543893554
0.5688996162258775 0.16832737543619203 -0.12655337356062546
0.5576652806885534 0.1696215208866505 -0.13292912660531897
0.7107675486466007 -0.010461663950010802 -0.49905210906550224
0.5695844116425235 0.047759846555109675 -0.2034636986919054
0.48874301178119595 0.06930136907145368 -0.19962962052142075
0.5827719003653442 0.1461439140095422 -0.16698784865255334
0.3840079751735459 0.1576558708561322 0.02182429984517853
0.5668018843865354 0.15633439957322537 -0.13616394481567795
0.5977128680689816 0.16324223973705898 -0.14851745665737326
0.6107632468838347 0.10724595435222284 -0.2352715576579385
0.576868851864333 0.15816662688470728 -0.12841186389812265
0.5665382156390422 0.14554104235597265 -0.11671205788925931
0.5475503078519353 0.15859430698274934 -0.11739878016248895
0.4897525601138 0.20131288833194105 -0.060351281692277325
0.561761541329588 0.1593905908449642 -0.14809323405526698
0.5688740921654869 0.15399146469175662 -0.14369863435959473
0.589724884759022 0.214626727968934 -0.08495507698739857
0.570014188547475 0.12211305008351303 -0.1781794531275125
0.6135116294820762 0.2046620224136717 -0.07487247170121236
0.5527202914229008 0.16255240588397157 -0.12468562069764744
0.45912789306311197 0.11133337745410188 -0.1429786111893634
0.49118893352837745 0.08779183183510497 -0.14833746559460792
0.5629682737894939 0.14461294452510742 -0.15560155067493042
0.6043466243577313 0.14791530685340604 -0.1339935831349237
0.6132614231603384 0.1412905043050472 -0.167707305840338
0.5163396161453022 0.21521198071052083 -0.028224134393951772
0.519857277328498 0.12973295142913344 -0.11539254411857769
0.553351483911058 0.12864723305507653 -0.1399112710706163
0.6203564357333562 0.21499304247332418 -0.1305172487904258
0.5537025376605129 0.19319894873873977 -0.09822028716013165
0.5494537148147742 0.0882915522150256 -0.1795732640209451
0.5619142538933204 0.1575036007417907 -0.13451330285880658
0.5093611865103185 0.23653586550429395 -0.04253800839057931
0.4762532338939707 0.20668940563102467 -0.08701731851633099
0.5614401999621634 0.12487907738342585 -0.15741595624339766
0.5814192468233443 0.16514053261337835 -0.13676272001208645
0.7036436160323376 0.08300157938586494 -0.30532004385415235
0.646310903937632 0.1734390141588733 -0.16965523374253166
0.430874447833304 0.12297025180346566 -0.0899877906643951
0.513618104582747 0.11335572409515748 -0.25545301923085617
0.5561800043149105 0.14313204152189485 -0.1364850938350628
0.6367986817151063 0.1598975347178282 -0.1910546075540367
0.501397649466071 0.32504841087059333 0.4244347255952903
0.5411830281204004 0.15859711037444413 -0.17346838044878155
0.623824255328941 -0.014554672900729315 -0.2625577175970477
0.6930274145489363 0.24308375170487295 -0.02397999459520861
0.5668791108113567 0.24102091031699047 -0.05909655454641438
0.6660251883407966 0.13930313748284107 -0.18184912792062846
0.502509428170498 0.11167945468841367 -0.1330441173678878
0.7270152423238017 0.2776540212750547 -0.06437203678686387
0.6801005635500701 -0.026688478614730116 -0.05534063341897877
0.5885503448814688 0.14630272439313785 -0.14988115428698734
0.5522518787279296 0.11236240026234157 -0.1723110538375181
0.5970104782239787 0.10695244902194645 -0.1331631142680294
0.5560832389566599 0.1079609514962101 -0.1804158842167567
0.6872881601514393 0.21314546262291856 -0.15003998066055146
0.5557032010854357 0.1757507505344904 -0.06039009800235817
0.49717628782701695 0.16495223237336631 -0.11052058326632164
0.5694372755539518 0.11762832141970136 -0.14687328609707606
0.6202630187899558 0.1489413694102666 -0.1339444440345119
0.5390273501624563 0.1254341373925314 -0.14178735749973725
0.5372049436719237 0.1581614642979332 -0.09170155263277024
0.5715886713666691 0.1774149943982053 -0.13782689394349745
0.5072455360378001 0.20665801279237428 -0.05911488603700832
0.6677590933879571 0.29208752621345013 -0.11215270243451414
0.4909983088803642 0.14552375024499042 -0.12913559137018638
0.7977853442942262 0.3907663022535388 -0.07829255689131287
0.4795947136796599 0.20388866986328935 -0.07879521257459032
0.5893492956624016 0.10961922756163744 -0.21088951226457198
0.6519203622399914 0.2115145275723762 -0.1425051949419185
0.5549867204217662 0.1404853317099537 -0.15139114242981577
0.49413026781328995 0.20802947620892098 -0.0824002649827662
0.5252348781405658 0.20662228257334903 -0.10185736348176988
0.5526869805677563 0.1866540511796302 -0.11619715369675987
0.5481974043746618 0.15887389834205123 -0.1016319685747078
0.5158355335365172 0.07381487079612725 -0.15400329450616823
0.5642111556009013 0.16571256937336898 -0.13030528686718412
0.5962137967696606 0.17806436926630909 -0.13647433566686118
0.5052723481016699 0.16325188460923812 -0.09236379265129813
0.4887263537797253 0.15660451149256005 -0.08048728683468198
0.48925989450759744 0.10486530151410989 -0.16004920339528894
0.6153863905664991 0.22009499216576955 -0.10458354399824543
0.584524412215103 0.1395682472403621 -0.17847337731419088
0.5442650765501185 0.17458179367747562 -0.1084815635539087
0.5922608417958486 0.16078017940350264 -0.17128738955960898
0.5606458985720337 0.20676422648435278 -0.09174717245031161
0.585141225538564 0.13180944943208317 -0.14435176551936024
0.5648360659602929 0.16531256928558946 -0.13847100604039042
0.6452018615322856 0.2077421377126143 -0.09172073582502094
0.5715257536442095 0.1792988684186696 -0.12355635132945508
0.5299049153467479 0.18495744198318675 -0.09133262315003776
0.5992278026164399 0.19519410603865595 -0.08061771425815323
0.5300742980337532 0.15370970575138188 -0.11012709688185396
0.5803096928217713 0.16755073312523905 -0.179052710059608
0.5409610584191569 0.11839756708040738 -0.12121284588559433
0.5123848839873801 0.0681339410710251 -0.153723660482882
0.561347149838042 0.21023568361383127 -0.04515651595627901
0.5917873723393257 0.27319196611416885 0.027400319195919565
0.5102145679184957 0.11003269938858296 -0.17220291746744465
0.6541057468776614 0.1785707615931642 -0.1313378254133113
0.536103580478283 0.16666512256064436 -0.11011657722920631
0.5362311794976335 0.1656721734788249 -0.15557790137032157
0.653871566959225 0.14630314079754214 -0.13290287932454703
0.6645748622301539 0.22199676517408307 -0.1846544384126787
0.5257284284607522 0.1775633762607498 -0.1041525685373017
0.572913132684647 0.1239134400349684 -0.13442848620738346
0.55469243112762 0.1653795369479667 -0.15721933213797
0.5830946206940553 0.12258557827075833 -0.19682892546967423
0.532539133214442 0.13476610270795675 -0.1269708901688773
0.5600944618133497 0.14088471602532593 -0.15228185276819772
0.6493680340965398 0.16544714814857286 -0.0580641207499184
0.5585903423886691 0.16726696527834406 -0.13931658415771153
0.5635687644180507 0.12252430024841487 -0.16323346921362258
0.5042490330471594 0.13749148070961326 -0.1294329403987433
0.5629863454654753 0.1681143426689573 -0.08249213988656834
0.7744901635273322 0.14892567438802473 -0.04556495202859878
0.5621101681709888 0.1554190683900032 -0.13365237882666747
0.5447822595072296 0.1259317772215951 -0.05647937398506997
0.6186718277062369 0.2164292654902482 -0.13512684652366147
0.5855957104425897 0.1489045756107572 -0.14066049837691708
0.5603028611255638 0.15061835653993683 -0.12848513593971234
0.6050871286675203 0.13211275549504364 -0.16148186870393033
0.6057696003524313 0.17458234059770916 -0.1286847013724639
0.5832020517459569 0.172684221535647 -0.08247280039560678
0.5586574349600255 0.18969148116056544 -0.07891932849781824
0.45624633185187236 0.15198411396117706 -0.08954785705287804
0.6616565171226227 0.15805004970266623 -0.20780974178376255
0.5107117043317544 0.16364593200198385 -0.045744391816157304
0.5874132426219489 0.13628080397231201 -0.220576973810779
0.5700051894960154 0.15315847638068192 -0.14590034620511005
0.5542039513232737 0.15472490025115349 -0.11627308437698503
0.5818024118876224 0.16151054838148582 -0.23059869030544178
0.5230698424865068 0.16668230367437786 -0.11913651677909343
0.43756716071763435 0.14820661327134133 -0.11528276036779062
0.5284064127548618 0.11865159105394696 -0.283315284355524
0.5879014964773717 0.13760992143230055 -0.13631537431436413
0.5270082510424174 0.12211279527058139 -0.13382229059880046
0.5579162819132648 0.13564902164981163 -0.13492598754666574
0.6125899355269837 0.24018505839656257 -0.09834442456480019
0.5273940428417632 0.14080397979364534 -0.1586597235180136
0.633794569211517 0.1299271333937213 -0.15789706008172288
0.5020509082376634 0.20272130462615223 -0.07375113023033464
0.6077937553082222 0.15993004760697715 -0.1372593672907385
0.5149500777522178 0.11037608495632867 -0.1856958019269257
0.6500737314557057 0.24920542178338678 -0.17264066144289814
0.47543269477463923 0.156353627333516 -0.1529887045658711
0.5350611111626336 0.15112676829022575 -0.12313725232567663
0.5503225550756099 0.17953200434710936 -0.14232471320374884
0.542665737313655 0.165804663268446 -0.128671257217718
0.5643091859388392 0.19106421952507446 -0.11774739129356249
0.5775989233135022 0.22276954495767143 -0.07185079310809783
0.5516026950376443 0.1612059538454531 -0.16342080299975237
0.5289959148185801 0.1763983095623871 -0.09891148720225829
0.6781625328442829 0.15114620006056612 -0.17402505091169473
0.5764464719869409 0.2055774405578461 -0.08761752837733638
0.5748109212023564 0.09974840282325204 -0.20490127549564363
-0.4215605512986258 -0.4257844272310365 2.9570147673524616
0.5256487238362979 0.1831577951640213 -0.11285879088578099
0.5693305358662428 0.17233988064602102 -0.13845787511323238
0.5320571432490908 0.11793073816191679 -0.171702601083922
0.6555506686507044 0.12800130748779281 -0.17539497578485452
0.5686850483071737 0.17205480262430228 -0.12734594729059268
0.4716179431840146 0.1780798126476526 -0.11732899394692708
0.6872279177774203 0.13757144047343672 -0.2241210976024206
0.5524788782160783 0.10710267074412627 -0.1775191453529601
0.5086048116381505 0.14127493116932044 -0.17432104649120106
0.5338065850357623 0.15993156475190062 -0.13356405410456773
0.3022896453642261 -0.051612973822628305 -0.3113427036082612
0.48371908598133473 0.14311350885576246 -0.055680614724622046
0.5243723026634655 0.17822387338446788 -0.06730614748872199
0.6197544405317785 0.16196251065194645 -0.153848847698697
0.5728849123706254 0.145612416115938 -0.14818349362431604
0.5386932784267913 0.15201558906395007 -0.047756422980199886
0.8397549694773261 0.1893121397662867 -0.3394718138013104
0.6514171462613092 0.165578587832087 -0.1955615287315311
0.5354993061593802 0.14117561667214318 -0.12470577448939935
0.5735847931546516 0.20832285116973992 -0.12428697739517247
0.5518859150103879 0.15627566055241005 -0.12962209057877772
0.47411331845060545 0.11632913615756024 -0.1330172031289294
0.5391240615868753 0.13446157336737485 -0.11162594755685973
0.6516663845794142 0.12382334647109872 -0.16906216948052588
0.6852752244980422 0.10884700974057182 -0.1380382516755958
0.5216492747932762 0.1846035476323209 -0.08841114192784971
0.5452367421569875 0.13148328226121464 -0.15528841679909533
0.5684629823629734 0.14899116610969543 -0.14798186175653427
0.6159301534422639 0.15314691275659698 -0.15993332667429172
0.4793339458155401 0.046205154198730725 -0.22296999217826396
0.5636652698299827 0.15320351690506584 -0.12567937639079219
0.5149809637850353 0.178592935843497 -0.09259034586455073
0.5430075047173659 0.10879805901799955 -0.1547980142475467
0.5720495577176905 0.13483903308485878 -0.10733010071635363
0.5681977790529231 0.20516746516240403 -0.02668412979502932
0.35569012771622965 -0.1927046951085316 -0.5199340276706721
0.5204352688830909 0.06144262964986069 -0.19420460208260693
0.5620753189411118 0.14554879709166357 -0.14226560914690367
0.5548489636378235 0.18593681247550364 -0.11340677573483049
0.49807945108818785 0.14769759523963444 -0.08598433413897055
0.31680544629671203 0.23981672567902024 -0.1479597273458637
0.590760423087886 0.16080243882902323 -0.14680044351078436
0.5724754857671996 0.17107414221659667 -0.10649276058572354
0.5802647818273101 0.1648224429065266 -0.17533979939818778
0.6176765796350878 0.14447428260906747 -0.1294510623721692
0.48561927711719477 0.14947077755032012 -0.06504566904675357
0.6061662767840232 0.1943290312256778 -0.12744004257748998
0.5977732198217325 0.13835199930773 -0.15502576882559538
0.5752151762904703 0.13493256789845987 -0.15559339646861758
0.5669872874401278 0.17559012345110148 -0.13875762258246027
0.5365993149642918 0.16202698470026178 -0.11522081510793214
0.5118957515176135 0.15055330019727364 -0.10970382985897231
0.5745189151252532 0.1730312103031082 -0.11433355067362072
0.49508567030486006 0.09313662871336703 -0.17020496239013028
0.5855029812252326 0.13346939587152917 -0.1718974665510018
0.37233623175356456 0.2618695646543898 -0.05160908219286853
0.5659339956998224 0.14660222329446526 -0.1401439498812067
0.5035799411121218 0.12812804247795384 -0.11558394688219664
0.5912588343453251 0.12474134854103625 -0.19531359373590362
0.5610169650308308 0.16392361304329484 -0.11718109310157843
0.6204834336263616 0.18845952583816938 -0.11682663660496928
0.5145082119188373 0.13321605072300713 -0.12385481056344361
0.5714412862895415 0.1929141638621985 -0.10761192907202144
0.6153575251062477 0.18086296222305975 -0.10196018918711047
0.547203716916016 0.1864487551854097 -0.07808403131187447
0.5783912242272891 0.19909772373728174 -0.08487292844637295
0.5684215185361836 0.05760991722968356 -0.19128417805447384
0.5936986015875902 0.11135706581619331 -0.21617408094164148
0.5626521432469644 0.09837920740147865 -0.27770226009448606
0.5138146759318545 0.14823252947996934 -0.12678208976686278
0.6566462723369 0.1906572360164347 -0.11305957628840702
0.5187385901178345 0.12951228964938366 -0.0701490951696826
0.5244756505183545 0.18487643816081345 -0.12689177250297234
0.5250788235748871 0.1445848127136884 -0.14931128872729005
0.561907661005705 0.19617337307693106 -0.11757038066696168
0.44682800590064176 0.14268180853966328 -0.1647311254346846
0.5831472628060794 0.14647175533687573 -0.15684453702118617
0.7174923611287056 0.11505771936796805 -0.21143282700481336
0.5279113161594466 0.08492674499767361 -0.20890695449296004
0.5518479950452786 0.09447727553610719 -0.148344799319716
0.540898127851392 0.1688562136261993 -0.10630842861121437
0.5361999035370957 0.16031797158160543 -0.10939110249506712
0.5606710900050302 0.1647202907067964 -0.1234049304082987
0.6038474876175712 0.19917865384717004 -0.05159269927520427
0.5551714366571616 0.1657891300839509 -0.11977577658643668
0.49643291348175467 0.21187126354440977 -0.05780316222015358
0.4971606278141678 0.1855846522244633 -0.0785536181409725
0.6198160395948662 0.20847022763109635 -0.09652464582470088
0.5260572650496158 0.08066839656976299 -0.1880697820701016
0.6365925572683864 0.16982997793331833 -0.16374033099256735
0.5717876896780183 0.1586970424808385 -0.12020873561127132
0.4698040893466384 0.07073793389938032 -0.1304794076160647
0.5760699239276335 0.11367270358954329 -0.228659266963831
0.5092610152756833 0.1562730802444321 -0.07343370880249722
0.5489863715278318 0.10276127552614867 -0.2023299185682106
0.4881239174295047 0.15894716252964258 -0.03574992891367401
0.5023597907576516 0.07677817085171057 -0.1292149031309009
0.5635586327989017 0.18189737541290185 -0.09825247537588666
0.5812771971049244 0.004496066967789147 -0.2676352248806495
0.6612872689128153 0.118142995993054 -0.20626512308109568
0.5261256823224301 0.14000347371982969 -0.09855389335098153
0.6294721067391436 0.20047645412988402 -0.12572852653048017
0.6469575971122481 0.1406906859871242 -0.13479285226907223
0.5180413487007058 0.1986509018432514 -0.10003679424812617
0.5603227596072884 0.14365267551760041 -0.13119944366570735
0.6638623593641455 0.124063612406772 -0.21607141465912605
0.6576416893740031 0.1587414945490906 -0.14262472865183895
0.15236716344770684 0.00822300192352543 -0.5294744505893334
0.5172533841430891 0.124966782365874 -0.157426428653622
0.5539559640177458 0.17412913711770273 -0.047259714426729715
0.5757678621981768 0.19124613424811798 -0.10292148030319481
0.5924065209734124 0.30676202202919 -0.03480249830644766
0.6509582373148532 0.22121398312692975 -0.09699731566269065
0.582953798590836 0.14814760129418403 -0.15667329857268442
0.5649219314232425 0.16125885167967624 -0.11650685764558943
0.4971316701012256 0.1702784373731845 -0.14143819637061483
0.5472295398835172 0.17654133367381064 -0.12088888698190203
0.5810596788793134 0.15800279553934615 -0.15922544195862542
0.6916199516961115 0.22972386521350074 -0.12158661474131804
0.498096933727993 0.1454865986109155 -0.10753788490154648
0.6283303689604054 0.14220366651022687 -0.2074935512089553
0.5564715167834606 0.24904196648715526 -0.07611315417483411
0.5929758240916669 0.08721848434996105 -0.14159957836804438
0.6038845719800463 0.20678300378851588 -0.13316769071064982
0.5743940617066698 0.1972337049524242 -0.10912106508587271
0.5962452859681378 0.14853143896100107 -0.14087940317924108
0.5551602657839965 0.21579365452639365 -0.10349889432791315
0.5636058839276359 0.24293003979407501 -0.035689396340927715
0.5379814974379542 0.15719840239449923 -0.130523723617614
0.5937535615421723 0.24764240271632332 -0.08090463024248606
0.42966891077506375 0.11312476277731776 -0.08352125865417293
0.5730531815640916 0.1759644871784758 -0.09946104346735751
0.8786666254213458 0.01901554444135911 -0.17593110943170132
0.48967228962322906 0.22466493256361275 0.047722786577935494
0.49795233528783456 0.17227163730601092 -0.1140527693037825
0.6137234031454852 0.1622677284082954 -0.12465957519466997
0.5275683818800871 0.18013338983362814 -0.044909290890871034
0.5912125221895792 0.16101449056753836 -0.14686001762191836
0.5689993846513346 0.1690519799412158 -0.09606780829383865
0.5715565457929017 0.14794170022041442 -0.12685878320692723
0.56350673670741 0.13038818266457497 -0.1547003446795827
0.4877832225746772 0.18541520847762172 -0.06994711738602177
0.5335630083142462 0.21590690918846178 -0.17142078963547647
0.5933233398152424 0.1626294070043457 -0.14825705253528554
0.5305799430776403 0.14277747978890432 -0.15596252550520262
0.5380768588935609 0.11011068642410748 -0.17507116956716118
0.6414489306569351 0.1371931633268133 -0.1741199098102868
0.5010657191255632 0.15307690411250974 -0.0892957863834738
0.4562489096202853 0.19756617023330136 -0.08536961274720056
0.558058110844911 0.18386048291247903 -0.11312235389149805
0.547611025337801 0.11747224928735989 -0.15135751650640827
0.5745178383890277 0.1677261116763873 -0.1871209450261233
0.5310042397653376 0.1434116607741771 -0.1586268980539387
0.4924735857567839 0.13650158380242772 -0.12139743275665182
0.4907307346391576 0.19858168988410796 -0.07295020762597915
0.530180547043642 0.15677258117221982 -0.15179718403121
0.513386321033181 0.1415576735783901 -0.1302727037714817
0.4944581024785464 0.17356562130621 -0.12878951678442263
0.6597980972342441 0.1977318903208385 -0.14557913484108553
0.5746945538729165 0.08921727508862887 -0.20761442910998085
0.5480396120126727 0.170351672007385 -0.13736903225483843
0.5332924576244409 0.12413415526417282 -0.15832817430782598
0.5506709238532608 0.14842060600049933 -0.142759419265019
0.686955478005359 0.21984242535573628 -0.07943009314325877
0.526065853025159 0.1481462767519588 -0.12486751258958861
0.5615874640849938 0.17007652729873257 -0.05809951814947567
0.5480221443012283 0.13671192617779582 -0.16807751823699846
0.5310296580327929 0.1442440452184428 -0.1484887456108197
0.6012411904461885 0.1430399249261427 -0.144147524824092
0.6001148161505512 0.15118972113465645 -0.15867995294669868
0.5589294045090298 0.16707390806355704 -0.10567172980344708
0.5617507189793116 0.13928050981982665 -0.1460595529724742
0.5696626565668055 0.15468789058834886 -0.11713046329765575
0.5691149617409508 0.2081001348540923 -0.08298332620501014
0.5808718968817175 0.13290423381489802 -0.1911286846922451
0.5383224252913692 0.14156712996188503 -0.12079725227752647
0.5371974742506325 0.14457476881327125 -0.1462466769578441
0.5117979666032966 0.09249985679615236 -0.16727563562784553
0.5613577236724723 0.17557017108079265 -0.13429654759582377
0.47903891546818045 0.17144459753960462 -0.09246324142048934
1.1368890052336837 0.004406834055018294 -0.15411346168539808
0.36249906367845597 -0.23429090191613966 -0.32980395580102595
0.6110732365258684 0.19510155346419822 -0.13785169063515923
0.496509179614975 0.15936253819975832 -0.08068228873688099
0.5982758311287171 0.07263382523404971 -0.08269468389789836
0.566023444932938 0.1265479818601989 -0.1852363300799027
0.563934386224247 0.18977917706388325 -0.10974179688935237
0.5362917152062039 0.14324546219228296 -0.12973817181000413
0.615288644455859 0.1716802689501833 -0.1746283583532886
0.36388878122627943 0.13615078469619846 -0.09698696727468814
0.5560186380904213 0.1523372477509355 -0.12433082273204832
0.5709224184067239 0.19321665230538088 -0.08367109520838767
0.5021598823342401 0.009986188799189222 -0.11457133722214508
0.6140296941505312 0.3521740383869627 -0.3103414036850438
0.6063960242006203 0.16793890452099447 -0.16131380870572798
0.5693264743198085 0.1952062180206866 -0.09479792714145674
0.5333732928629615 0.18839642095973375 -0.0833477989662299
0.5290196793061455 0.16467478516531742 -0.11697697601513823
0.50218728443798 0.1116685032614555 -0.15883543605144723
0.5676712100043346 0.1646175982074567 -0.13607874493595773
0.5728647517645697 0.25047904297682066 -0.11764576336085497
0.44602681902071595 0.1935687071766239 0.12874802363219828
0.6164846627198983 0.19237884735824196 -0.14451602916770412
0.4736960633364049 0.1342260286392758 -0.13150688904798358
0.6404672721552629 0.15884323368112518 -0.18689254861592985
0.5360490589489189 0.20681853246809112 -0.2194918785035327
0.5265537353222669 0.12776743383969347 -0.187242502851376
0.552179092685833 0.15529113643479775 -0.14598519495640971
0.509167333723866 0.17173725649232097 -0.10034936987420906
0.573603720380305 0.14792868171312534 -0.13445669747545708
0.559421403710445 0.1417946141403803 -0.15267601824663757
0.5713289594549167 0.18407750578525395 -0.12039692620587061
0.5228085992742137 0.07092049540176504 -0.2650736612669107
0.6201561052021987 0.08502017664216055 -0.23800572325126268
0.5318603564003013 0.12461545066838653 -0.1836222482654648
0.5744004785127856 0.1062611314315518 -0.24090670184418173
0.6122983628169436 0.165350294526732 -0.18735524048167917
0.5065544316542798 0.05994593548945204 -0.13804921925645885
0.5021113945665547 0.11231994043049554 -0.03439127159165878
0.574352911716602 0.16031701513823293 -0.14715232865449934
0.5241874415202403 0.17960299549321235 -0.09842467260978083
0.7826538453310832 0.1948113847546864 -0.28569070516110173
0.520617601293452 0.1696902349001732 -0.10688832240526835
0.621428702895571 0.17243417141543205 -0.04882246704204363
0.5365233616408602 0.14603140946393012 -0.13949733156866273
0.5289245266779119 0.1779818459403799 -0.13565488765206624
0.5341368615842725 0.17647420672241765 -0.1129437951565535
0.5436461827992503 0.1385263049508012 -0.15374595880246034
0.5199999965846303 0.14227166211624365 -0.14081226188960727
0.5062920880295962 0.21520361602483717 -0.020193575807098796
0.5875443158797111 0.1960322194975106 -0.13724745760868018
0.6315949734983519 0.1649865230891976 -0.16755988144606704
0.5330526139246388 0.1216593346868109 -0.10032999767676642
0.6592650123763804 0.13139628428430683 -0.15464960498346159
0.5071465167773681 0.273792829455644 -0.08878115989890034
0.6990896352742766 0.17120173202170008 -0.15180036350403725
0.5651361458887436 0.14774218705809972 -0.13253134386835086
0.525779716677107 0.18051175859349655 -0.10969701735342596
0.5402431883285317 0.148257968958049 0.010934005276055814
0.5636396327399211 0.1341120146000776 -0.1129358752332621
0.5635656549870873 0.15527037020379453 -0.07472076660874905
0.5948840084523113 0.10671182367636334 -0.19524531906247944
0.589169947353696 0.15013858741824038 -0.16880173086326522
0.5602356086732811 0.16792294585887646 -0.14077431287654463
0.5952230969723757 0.19963770750908338 -0.1413157966869676
0.5150139211690714 0.13771139472770244 -0.15017596748643314
0.6395469034426071 0.16378050256611232 -0.11369764449685249
0.519258479546636 0.12557877569553 -0.13884713778875835
0.6390474618819155 0.17887022140655517 -0.18325809500015566
0.48877121457709904 0.16181274536903345 -0.08080794629452726
0.5806754772874285 0.18398321406752416 -0.12064195098270147
0.577695962897991 0.1099890454038075 -0.1647095512910255
0.6146418422360966 0.1338884211114788 -0.12001681636394324
0.41683259120975436 0.22329990859805093 0.06963388813534266
0.4521501780650965 0.11424676280654467 -0.11687913280675843
0.6088545558871772 0.18575065032401028 -0.0899348450862476
0.5341518627564596 0.11637105464092201 -0.16950907594647902
0.5697072609097518 0.14348426852818363 -0.14078945256102315
0.5932117355971798 0.1739338171692424 -0.12165225903842725
0.5529190413924141 0.17174220150069175 -0.11039684446811293
0.5700471602778237 0.18673949831692482 -0.06832166584317179
0.5927839400557957 0.16555479029725007 -0.11618670530020836
0.5189278218676918 0.15635546996988126 -0.11577394484152137
0.4838389500338849 0.16193393534042855 -0.077916194985022
0.5738455328354064 0.14612084538484282 -0.14389895725173574
-0.5789562822060645 0.09205960481136799 -0.4644088494358982
0.5812058315057129 0.10290651397467343 -0.1613160956537456
0.5986657342891419 0.14443515680987673 -0.12623655079357832
0.43170067214566643 0.16244181837032556 -0.06071349680425442
0.580168192360702 0.1661570608071088 -0.07379656012690816
0.5592708477352062 0.16435685438163716 -0.1443827594245306
0.5286791926866385 0.15703594855141034 -0.11910881353830405
0.5257653350677174 0.20690129622099107 -0.0651612974526472
0.7753256382908091 0.14085280350538198 -0.22068153111848687
0.6040836460713308 0.20406560353205805 -0.07269509978945621
0.5511596636517595 0.11500408922546512 -0.17106049862445616
0.5351298738332559 0.14389808866728515 -0.14293253327099364
0.5776119343277912 0.18403592005434177 -0.11920932843574406
0.5065411546033829 0.2391360094731425 -0.003901860600024065
0.5652458982394819 0.13421272314013777 -0.14764802340039296
0.5376375777054534 0.15483429120817505 -0.12121970666470361
0.5747425438221967 0.18342032605231395 -0.10732795327848521
0.45663131649601496 0.17619007407951415 0.005340574417800781
0.5447384980588197 0.14081391779127728 -0.14759379245367654
0.5067572042255222 0.10986646589323357 -0.13621259610141578
0.5871070516803627 0.15452053322243842 -0.1517078089285917
0.546531342931047 0.16258384566584994 -0.09214833908797004
0.5201031130461047 0.04842722352736928 -0.16279554796079765
0.5793034874309342 0.14898249785800033 -0.23874919066332723
0.6271388822834751 0.1676462182880556 -0.15250679200315176
0.5708600626771272 0.1252128946602511 -0.18652983281839397
0.4897301094470947 0.1996194210875899 -0.06308616491904218
0.5151099602549607 0.10791007702883348 -0.1294933841778061
0.5694810810386741 0.09732500615874073 -0.18120296878220188
0.6412516722746204 0.15543355122004243 -0.19945769972562744
0.4973066696591104 0.12278897819903989 -0.10254550163395493
0.5227036740266158 0.2571317998009306 -0.04454006782762576
0.6047279564450321 0.1978478263456509 -0.14451597348656264
0.5571921264878199 0.1510869600475644 -0.14523251139635818
0.5256609121492488 0.18004916312466435 -0.08491588798489147
0.5998500079213045 0.19119596675110984 -0.14800046795573962
0.52864367219928 0.17154411677321946 -0.08505025247760045
0.48455883949998224 0.2095943659602142 -0.07964908156449724
0.5706848325029057 0.20424718250566798 -0.08021516601112921
0.5563782587874471 0.14965606902021023 -0.1951020506607506
0.438343100923845 0.18954923598576556 -0.15726226320546743
0.5890026282844758 0.10639400155112355 -0.1442177391810162
0.571545341050296 0.1455122373550779 -0.19014946581725667
0.5753873416776116 0.1668899660879788 -0.20632373848343377
0.56828272721296 0.16225262324753942 -0.11726814414728892
0.5694960059613265 0.10176560639405352 -0.22898951003563184
0.6725931470249122 0.1284151512216738 -0.20329116267140535
0.5156302650639759 0.13392074915073238 -0.15586501802610542
0.6516004227175642 0.17097007300131395 -0.1632748304769791
0.5431411696398527 0.16554944632210322 -0.07808851528312744
0.5885589102452116 0.12364648939312417 -0.20355013315591464
0.4852458205853054 0.13701067395196276 -0.10412048329365575
0.5441929619568953 0.18041317997078465 -0.08721136310128941
0.5735931681869886 0.17059850793911835 -0.09301093284676654
0.5244003952753928 0.2262020224032426 -0.036870894542119004
0.5403498491050129 0.15445013022008425 -0.11731756638087631
0.5605504604252474 0.1287260132938144 -0.15265373143469674
0.5331647808579874 0.04649240879679439 -0.17279155225566
0.02881406084273408 0.2376466542246476 -0.06696239871251919
0.5609723382534355 0.14952554580140998 -0.13698091675374258
0.5926165896229918 0.1459916999189801 -0.13406590418307474
0.559807158373701 0.1542519752482292 -0.13693069959728632
0.6041356788326198 0.17617468494171362 -0.12633607373848577
0.5362183600953756 0.14075698924698088 -0.11304705244810975
0.4865293257750807 0.141358272689331 -0.10101823049365066
0.566300649722649 0.17709738514886908 -0.16637481292980283
0.6047533123111748 0.16517225393455703 -0.15419608645174776
0.5814668701720791 0.20638865276187346 -0.1235486877946812
0.5527721819538556 0.22415868142581985 -0.07996248835775077
0.5884512099162293 0.250417100030333 -0.05767389210257079
0.5138735545451425 0.15347358303311864 -0.09332538829059445
0.5209592396670075 0.13499747039261933 -0.1266717963306121
0.5713513246275284 0.18675000989499324 -0.09033980441060407
0.5594169573685122 0.1143754187235686 -0.1322335856640393
0.5472047402316775 0.148915736707238 -0.1199751082582452
0.5282251427329072 0.15309094422001124 -0.09139060779352803
0.583258181482222 0.19141594820210628 -0.11242389959832622
0.5853254535318797 0.147820122175645 -0.1470178621955256
0.49385376643343193 0.13574143563384666 -0.06240340348955442
0.5776588391635187 0.11747538477959552 -0.12613652216444393
0.6614856991907061 0.12772065877413752 -0.17744809682378104
0.7020537387387549 0.11404104408227056 -0.13734823359831694
0.5504450906915679 0.17976208233469038 -0.10647368092222109
0.48769903072522425 0.25670134075424755 -0.03823404181616752
0.5337375568176697 0.17480680541549987 -0.09158608400136359
0.6404271932431982 0.14542699637547685 -0.1982705363754178
0.6469304103975446 0.2022430255071015 -0.1413711062768641
0.5538835959546589 0.2043593654260576 -0.03810358877660747
0.5451465168981429 0.15666487347537839 -0.11715909312525241
0.5585201772790072 0.16134846455256024 -0.14322735039522172
0.5046903440051267 0.11358556294460698 -0.15271809028288885
0.5226361715589007 0.1188914939787935 -0.1864031210009216
0.5053116282952601 0.1861826511634206 -0.13382874101671405
0.5997709236069113 0.16829280376445865 -0.07337718558625284
0.510505025874437 0.08985013861105529 -0.16555446298679044
0.5791574735565064 0.11510859787085792 -0.21623561977901318
0.5554987389044186 0.15786235931118142 -0.09943067885055257
0.5404958819799504 0.1519130445664416 -0.13380243148114346
0.6124127132747219 0.17566772276968834 -0.17075549893348807
0.6060189748490075 0.15603742761992123 -0.1554402522904752
0.48963090136678034 0.16954694479834131 -0.10668237285580062
0.5644471503735247 0.19031345999573546 -0.13933762444554532
0.4623738593642486 0.15307923224922604 -0.09989188666023097
0.5561050335149957 0.14001460072501004 -0.16021495464801205
0.603755495556328 0.17801300850348412 -0.2969629772633766
0.5963465484770438 0.14654817612597526 -0.15092356994577472
0.5139680483185884 0.1658696325034441 -0.1244986877336487
0.5612405907965581 0.14231059174652216 -0.1223720893557072
0.6169635616688822 0.22964550127515793 -0.15377710588782634
0.46552169991119285 0.09012444326488378 -0.21146123981702658
0.5293766603907386 0.14639454976237687 -0.10664199099130656
0.6155967347214926 0.12655096393231702 -0.18079016691723382
0.6425147945874983 0.15028292096846485 -0.15948530072202516
0.17402576189473962 0.23943404872208873 -0.1267340229305205
0.5789874040536347 0.14419749445850982 -0.1228988320522717
0.5708654621692801 0.14703725745627594 -0.1570868659524649
0.5986944683687625 0.1530486252290899 -0.1726637951517489
0.5790782256548539 0.19029383212993878 -0.13168852220852045
0.5333309311411369 0.16979956323466183 -0.06929148297115262
0.6806595257395998 0.008420860617832204 -0.21646452607816968
0.5452459843489237 0.13951311679122114 -0.24649059947407181
0.6051831324498096 0.146269200900349 -0.17957542942525606
0.7207430696396955 0.10582705606718434 -0.17539129417832555
1.6903694431498195 -1.1212971194171644 -0.9047801297684259
0.5788952221032275 0.13773156160600308 -0.1531509901976449
0.627503976993637 0.20241171354403775 -0.13571500101940615
0.4723415326786551 0.1371934013147893 -0.1363801112092915
0.577030073936811 0.14974845687625304 -0.15905770597782976
0.545288789357727 0.20159555651153482 -0.009073514766924973
0.5743184570485766 0.07578633230356502 -0.23272487215965043
0.5655219125428346 0.11046226705394702 -0.19151718264868123
0.6541506461191489 0.18950769668305156 -0.20227100892859085
0.5751409644153114 0.16555217901864694 -0.11623651380946853
0.6158023424832777 0.1522478751304419 -0.23485550281878886
0.5372956635923174 0.1526867625557884 -0.12093980700353768
0.6123808512252538 0.19804522371518374 -0.08995115037313894
0.6131365572590823 0.1491001667023113 -0.136443565778535
0.5405815908252976 0.1696472416333421 -0.15089611793462154
0.5604402139903186 0.17292394360414676 -0.0701309855883494
0.6605754484610031 0.14537660813820708 -0.21161945810678162
0.6073840478356658 0.17846152818940197 -0.12310549838619522
0.5766398049470638 0.21767813178423978 -0.09470098657055814
0.4407131213159232 0.1780790083970345 -0.12583036049164775
0.4411523252090319 0.10680177417408743 -0.13826001654950915
0.47769847398004117 0.16647735978658318 -0.09903656368507541
0.5999322959485767 0.123217167525425 -0.14334809729746212
0.5671442327642353 0.06286417399611821 -0.1335362725164373
