# .PCD v0.7 - Point Cloud Data file format
VERSION .7
FIELDS x y z
SIZE 4 4 4 
TYPE F F F 
COUNT 1 1 1 
WIDTH 804
HEIGHT 1 
VIEWPOINT 0 0 0 1 0 0 0 
POINTS 804
DATA ascii 
0.5409112951612514 0.15729357151828083 -0.11378197964467063
0.5281994060632229 0.18530230476343945 -0.0839008885688628
0.5505381380623362 0.12432934177266475 -0.16534233367204365
0.21015398559345044 -0.17860275242290413 -0.07396333943054856
0.0841156545803301 -0.3368032253845854 -0.29089010724159436
0.5340427445682394 0.18860729203061055 -0.04908526838117666
0.5556649972878631 0.15833153307568182 -0.1325995486211582
0.6576316688386612 0.1854479701155327 -0.11065590472856002
0.581853159024746 0.17366226245781036 -0.21748840859045515
0.5418390348600752 0.14075578421820012 -0.05078075469445764
0.5683049515902212 0.16329679160895694 -0.14593702184758683
0.5981576721326718 0.13390062264787161 -0.22173066310138267
0.6281049595505124 0.14301069616085726 -0.16325992376636123
0.6042572620783346 0.18902997798360843 -0.17227407892382018
0.5266935466401321 0.10968966273340186 -0.15768122665193118
0.54794081491589 0.1889629050085091 -0.13482815556862704
0.6080401375645579 0.15087617627851557 -0.14132911849937102
0.6772995996922617 0.23098822240066852 -0.09676021174674077
0.5625516809987232 0.17260944077386853 -0.11650761283368638
0.6427238663428341 0.15270686982893267 -0.28081209517729633
0.536403541283633 0.12488286346889765 -0.07347459758506147
0.47616619925324244 0.08994513034610918 -0.213973060440523
0.5171483002579151 0.17237871563585827 -0.10039705640622287
0.5547767335353768 0.16907105900288855 -0.12571474992046205
0.5927189237456361 0.19334613488885566 -0.08874986432194021
0.5580203586776378 0.1768740215062934 -0.1193299229210254
0.5810167423405943 0.14438353093103728 -0.17451548161425023
0.5453374661561838 0.13055741293609913 -0.16117077667308877
0.5493752487591479 0.15663127367253082 -0.12817302992259272
0.44863252308863366 0.10896736994533285 -0.15303156236012683
0.6138978435382683 0.1602635092120579 -0.1569722785612413
0.5544562916197009 0.15927531053092991 -0.10105532772190884
0.5269122981192709 0.1838586856228943 -0.12650125051199268
0.528731586464076 0.1231963649507577 -0.17413255890851076
0.5112313223616809 0.1255998247472263 -0.1049964859332988
0.6118222873310089 0.18534535772708693 -0.14400484444381334
0.549153239868275 0.12430102557166833 -0.15078752251621097
0.6237472066065521 0.1663280085653156 -0.16190724504021148
0.5675135867647327 0.15349566188609742 -0.20254725321494504
0.5739764051630658 0.20409028778615834 -0.08445043275330022
0.48188042135393516 0.11584333412558578 -0.11976831936615895
0.563425024895281 0.17947425982927712 -0.11946784305068547
0.4998819713656957 0.18095901600366915 -0.047369231869410555
0.47610455618850267 0.1322605841044293 -0.16210657955680574
0.6037246529251803 0.19097649967825703 -0.17108999430975302
0.5473140128711265 0.20671708497395969 -0.035120223493493086
0.5658076011822004 0.1593019804678164 -0.1214156620284399
0.5359182566921703 0.07664175803488149 -0.3473932561415154
0.5246689405012432 0.1705986457423876 -0.09697566888169717
0.5474062018730592 0.12569481635469515 -0.11209221418602056
0.5256374711384098 0.16505938195361125 -0.0882096910796406
0.5792389058004233 0.17645133606156094 -0.07847273318695613
0.5324357888212035 0.3193107499309349 -0.006762795606789496
0.5582494368309909 0.10026703995201558 -0.19854947902770448
0.5921442494744866 0.12496781081567576 -0.15337298233924912
0.5314479052004799 0.1885029692453628 -0.0848118937151412
0.5386459768586747 0.13345645935021366 -0.15637750144888685
0.5583013139927999 0.045207103307078 -0.32298157125509874
0.5618730893885981 0.17131110132251592 -0.11294310441650168
0.550016467059038 0.23239196327885736 -0.06487455929125474
0.6304874735705965 0.17872516216226586 -0.09694491844368258
0.4958378479028198 0.0025265375581540184 -0.2247206665314394
0.6589722080356637 0.23496320884055422 -0.10033820847722552
0.5562948414819004 0.16182195082659234 -0.07287059306587196
0.5123980950259437 0.08472800210127218 -0.2029010454743485
0.55867218492115 0.2132788575948581 -0.02807900698802257
0.5267561965528103 0.17484203954371935 -0.10035084525631532
0.5436780649955182 0.15673197667453564 -0.05645075782958031
1.1887014495805488 0.0881286281798026 -0.2629587816107062
0.5919718048772182 0.18356611709928927 -0.09903124310771716
0.5476389096835703 0.14607747551511352 -0.16746401598248895
0.5701144406598928 0.13024344007088473 -0.18262934737964542
0.5442060184925737 0.17802341546624234 -0.10137850116166192
0.6012765595624217 0.18703174560286584 -0.14188331508205465
0.5577241779934639 0.15412259380129 -0.12733233301965186
0.5645642724095978 0.20436373653802775 -0.07540052529047614
0.6217346339925172 0.15131822457024668 -0.17558040096231764
0.5854038516559683 0.22351922171053218 -0.08666611526020063
0.4621587703969112 0.08103338617323175 -0.11123422599573018
0.6044601673455219 0.11690227082975468 -0.18583771645756997
0.5836758364273038 0.20841569798582782 -0.017197869299650392
0.5765689192367205 0.13551924147655825 -0.18174478332623778
0.5622946321785349 0.1975729572124436 -0.02141759991640413
0.5568507412358201 0.11803367780041185 -0.21115796183632085
0.5456392055714474 0.13492519614496246 -0.12322131768431177
0.49415871480402984 0.04016963124443862 -0.25963933793302374
0.5556867734640889 0.18030608568160744 -0.0843857026961814
0.590817072269374 0.1617391996299773 -0.17003255668747386
0.5789198307724206 0.1302317258909227 -0.21626607827637656
0.536660423958935 0.17306749383857323 -0.09452929778464636
0.4919654350740217 0.18653986070775375 -0.12278821455430489
0.5486426570715679 0.141365857586635 -0.14127762508496744
0.6168298488602062 0.20535758592143338 -0.1039425328480661
0.5590427267975144 0.15202379974184055 -0.1469005874541267
0.5698817402207794 0.15770896006279145 -0.16230255547039008
0.48712348961440455 0.1921000251162468 -0.09416611569476174
0.5031694296039433 0.13085161952916735 -0.12638449106529492
0.5231482940519356 0.10525261016718446 -0.1496477918623924
0.6939094367834855 0.23369370991538574 -0.23307531574765505
0.42724107535282485 -0.047196525920028876 -0.0341829962961242
0.4392167955585222 0.114056922837392 -0.11692763352813529
0.582778853825971 0.15629104761644896 -0.1292523224165052
0.626417634628055 0.2906749604384089 -0.09032324564842042
0.654464555989037 0.1133669934156103 -0.20120171897579553
0.5682038963798988 0.16427148621676224 -0.13253025664204188
0.4813130828948857 0.14207883792022358 -0.08712939760381744
0.5226059821369518 0.19813234022986137 -0.014520731183012003
0.5763589797805366 0.19975827116319067 -0.08736063268960947
0.5430080594469757 0.2565624924479124 -0.05606969996553346
0.5616130779289961 0.17170024736849143 -0.11619958834984345
0.5263196054284691 0.14717828615262363 -0.10878809708886195
0.4490837227272806 0.1842236849065273 -0.11430046510683667
0.5836654875622003 0.15378019873146798 -0.1278392132296915
0.5399774602604452 0.1662468141631308 -0.12882671156036452
0.597217665727868 0.12867235317548875 -0.15428284434958073
0.5928028756706283 0.19650259637745648 -0.103437491316555
0.5550065390574446 0.2026841351034392 -0.06716055222079831
0.5623184527634493 0.15973230927788507 -0.13059624185414975
0.6135294755378027 0.144130126677112 -0.16579091647834332
0.569888566549011 0.18283199609903988 -0.12554535528354904
0.5568552453610067 0.2178890556830737 -0.0839152730021624
0.5630818336372556 0.16847527495490056 -0.11068948314409965
0.5933097752764809 0.1844165495009804 -0.12597927242916285
0.516440381238624 0.17787594155862507 -0.10182178602828174
0.6344879041585614 0.21483965944543115 -0.10247731992487275
0.5941210657144467 0.17230489921648484 -0.15194818807381694
0.6157622755014955 0.17328004209828407 -0.14391712722866146
0.5546879307101307 0.13638461663722978 -0.17355428600475875
0.5693696543018802 0.18267166451441597 -0.10036686696167862
0.5379862247346097 0.1931809661859205 -0.12901352427390123
0.5549774467664719 0.1790125311773636 -0.10440592225441492
0.5535386586892201 0.15638443766927423 -0.127973563749606
0.57531631640515 0.27375128532865745 -0.04656754446465072
0.5784961905023067 0.1331768668787987 -0.09875656444356196
0.5689222444332955 0.15479902938503187 -0.16106651014312945
0.4915280460464686 0.2842537992565468 -0.021523397012586543
0.5833518452502346 0.1854525305136434 -0.10574985658195146
0.5649041196134021 0.18132588060423416 -0.12554587894433666
0.5747922317732304 0.14947738641664898 -0.1298262297239603
0.5174170113930501 0.16208948458719874 -0.0661816134405484
0.5898497840668 0.19431010323701514 -0.1335736979265505
0.6433418331061063 0.2590373216503252 -0.06653576217887291
0.6154184885817102 0.2591229000913131 -0.015933357775395507
0.6498439116274284 0.14587785794512342 -0.16053915323058732
0.5817203230404147 0.19989879284426593 -0.08220937078769452
0.46943272763911637 0.1614677514455849 -0.05197005627698559
0.5590505165650796 0.15921374812145928 -0.12172923257692503
0.6215116245430323 0.23336786855637115 -0.10290230635959574
0.477970497757056 0.11142905092195576 -0.16764386632783612
0.5255175672306933 0.14261071297718786 -0.15400076505645188
0.6119104243437476 0.19956775306393126 -0.1050041934967254
0.5290797399777318 0.17070844758457326 -0.1037507094384722
0.4761645486858441 0.1886569913473295 -0.022286774783623287
0.5723875579139275 0.1602951279401168 -0.11794339710367296
0.5502919011710077 0.18238716577509706 -0.1302512842690362
0.5252833448569731 -0.10719116818891905 -0.4599869740335123
0.45808686530826037 0.20166304709350413 -0.027995252624748446
0.5690232420336088 0.1605040469627852 -0.13053769790406022
0.5350150228184418 0.12765156954260704 -0.13899457407414673
0.5361020677426609 0.1365214390210241 -0.1502285081220549
0.21870673299707732 -0.204000134310391 0.29685417477749354
0.46738313881645865 0.1619935350324937 -0.1656375989390284
0.5474153513343509 0.1506696696640688 -0.11990713268899356
0.6034303296345911 0.038294916831816295 -0.27026930821105566
0.5394608683798623 0.07154583628839362 -0.26039170400346734
0.6452144459436937 0.08792564763633948 -0.17092025844550562
0.5587142547270645 0.11146899229886742 -0.13590086020828096
0.5832457220894014 0.2144380906760972 -0.036239879096072514
0.647142350552329 0.19559871349269997 -0.11844707705188284
0.516313311761067 0.1198713681023662 -0.1777765655055248
0.5027112578372197 0.12310428657498562 -0.13033291309038475
0.6387153224755053 0.14144124891994636 -0.5940563210340315
0.5558137742409173 0.14678884200105813 -0.1221461576394205
0.6425696237157155 0.13802113820607076 -0.168738740856611
0.5771742138941534 0.150496553692264 -0.14077475940602824
0.6239210006068987 0.12464596062149269 -0.17966246623547022
0.5553751954266062 0.2025258652627855 -0.09473530827827403
0.5499985376041536 0.1835212970199791 -0.09524925120186367
0.5907760558889947 0.07644793555995477 -0.15541338948538908
0.5027091191566342 0.06496514578968515 -0.23109619209571974
0.5269640327358331 0.13838944327716263 -0.15147210285753943
0.6669165481641812 0.23138241502623202 -0.22984974519584966
0.7603250730451947 0.3508192372364647 -0.36857470576772755
0.5661249796656449 0.18041680461777787 -0.1274309989787099
0.5103963247381387 0.1467111268047745 -0.186205953394051
0.5591443919906567 0.13950515090989768 -0.13808933611147722
0.6101974119616784 0.27597507167033086 -0.00819434067365421
0.558799119936424 0.12414278433836046 -0.15242523153075638
0.5183771653448161 0.16756037092527265 -0.08953451615985841
0.6254548283273209 0.26461473178444805 -0.006973472970983607
0.5538161081089754 0.18308887581514455 -0.1265877374957256
0.5498319817781407 0.19989801630968884 -0.09262116636489282
0.551328487639239 0.1450852700617986 -0.09727406839185448
0.6354030702431288 0.14331634436284446 -0.17234740806885895
0.6855743774678729 0.25839701676171956 -0.2415379011792993
0.5355614906168142 0.16313618103740168 -0.1169679905088401
0.5831888461768671 0.17088040898909185 -0.12835265441084687
0.6268510231866031 0.21277250036965256 -0.08283245770267911
0.5432727764665799 0.25203572803788177 0.001607796986988319
0.6443392519404085 0.19629553985605241 -0.14555861599838238
0.5068675060528989 0.1675565064991673 -0.07352091041614983
0.5750783568038855 0.1474058696967262 -0.14054058460422425
0.646262439110771 0.15658653076428664 -0.10811839094783693
0.5579367512262934 0.20163329698362986 -0.0473475295731447
0.5655189689256446 0.17503539649547406 -0.11712349271893174
0.5638447093082846 0.17144615815013253 -0.12833263246879767
0.5286143079396908 0.15625031595288874 -0.1343694432143252
0.5421502029206806 0.1795192377743433 -0.15611547471664267
0.5444218866667541 0.06983541201903165 -0.2227005798223729
0.5481677942676555 0.1032414025913937 -0.19155989624618996
0.46247285058184673 0.16044908590544082 -0.05398402578943262
0.5705176170486794 0.20225806034088123 -0.05970006953677398
0.5644102385486889 0.15902667872310872 -0.10674540453688053
0.5592979960402289 0.19325090710637483 -0.08029294600653714
0.6520848926677729 0.09194777780240315 -0.1817165493025925
0.6189534099204508 0.1875867294199054 -0.09694302597377202
0.54373944787325 0.1722998316643043 -0.10546688060300369
0.47745785618049297 0.07162543941264232 -0.1625210093027647
0.5142994323821597 0.2106360854393472 -0.10650364163365111
0.611166027105142 0.18869400708653927 -0.053054760865620665
0.47787657249800475 0.10964614225970593 -0.16897020747742886
0.595562937344198 0.2063931509351704 -0.07334522974224456
0.4667076480922958 0.2041791645338833 -0.04615481918685305
0.5798927923021893 0.17979160299783814 -0.09909840571381778
0.5788549267784902 0.1779134069038122 -0.12848347570096053
0.5236658894435919 0.12037640942621408 -0.11551792330783428
0.5763211290018546 0.19533829887744503 -0.11931476039150368
0.6087689551298894 0.20129342343740575 -0.13615208634735154
0.6006717521035938 0.1646598308514342 -0.1390225417185178
0.4661671525909412 0.09920215321432124 -0.09530976463510399
0.5888120438154942 0.12909165472161988 -0.12070473855830244
0.5391145434231106 0.1818559039167269 -0.0966878008628953
0.48725719726878935 0.1286612603839501 -0.07665390363021629
0.563415148873446 0.17109140926000066 -0.10598340698281561
0.5457307849994493 0.16168246971383837 -0.09608074585649717
0.6084809688606896 0.15693584593381615 -0.238020885121216
0.5311927623649808 0.16437702203594995 -0.12289900303245815
0.5769192999149482 0.21035996986198313 -0.08707303521855181
0.5595250395964513 0.11367694958606478 -0.12258327293419313
0.5141039795044264 0.18656261812267871 -0.08007566780447917
0.47014452816770813 0.05107343536653275 -0.17605042483543798
0.5976113829223095 0.20878214097548664 -0.07720716863649102
0.5463077776158514 0.1433783601514591 -0.1472840026284672
0.5490656288974378 0.2471581252630699 -0.02265280171174311
0.6609414935943505 0.17126799238931767 -0.30109908644377015
0.6026045327815268 0.19679169010809971 -0.08205242315145256
0.5169160054202848 0.1815558755783826 -0.06762001599979328
0.5844462934979475 0.12536503206277416 -0.17550474293757645
0.574703609059128 0.155410605480796 -0.14020777153974961
0.6141831995899452 0.22220421568064808 -0.08902958475746914
0.6038948495521907 0.14635296413887033 -0.08442825596770831
0.6073732770075111 -0.020943556913891825 -0.33043231930727757
0.5865478133902826 0.19104732241248712 -0.10593138050218442
0.5876749751799366 0.12623637614370864 -0.1284251207712117
0.5725516983939514 0.037666160105516155 -0.27767419502244195
0.5275166478235889 0.18239012404929156 -0.09769652875401391
0.6746458147805328 0.2033635092463868 -0.0837341245941019
0.5920461270722654 0.15879382092613525 -0.13445403546528212
0.5660256188889576 0.16838463562326922 -0.16637816271723693
0.5935540247368607 0.26628510364380986 -0.11653376225869749
0.5537914659273611 0.09904693870306858 -0.14232899266380628
0.5604029275798439 0.2229382690903634 -0.10947495083755143
0.6006117850772057 0.16460352335826656 -0.12303159739678904
0.6086896068441945 0.12045406342174658 -0.20726758549695035
0.6389924647619836 0.16416176562248097 -0.1875174661019514
0.4903668204551792 0.20916061366349936 -0.09832140660108735
0.49308600808386416 0.18557296404364365 -0.09140118833701649
0.5213915895537582 0.1837491006116494 -0.09263954398669227
0.5304458254033335 0.1969781445100267 -0.12509706682702415
0.5365146521803013 0.09768610691816093 -0.09875854542164575
0.566490239037023 0.1763402336150648 -0.11317605584352464
0.5425261848175182 0.18673134597219132 -0.09316094124183394
0.5174402033300254 0.17318723284654425 -0.13461728242796767
0.6023078983646997 0.1274637481614036 -0.13526962009596843
0.5378298890396707 0.16319322466378594 -0.07641068949180863
0.6204852015000171 0.16671058163584007 -0.1495882304457723
0.5359652850236927 -0.03590903997314854 -0.2229241884803912
0.5662350895479165 0.14663259871710466 -0.1449705163866497
0.45658094299346885 0.09234034557069037 -0.10088501072512202
0.5787876490395973 0.1992705159745043 -0.11130946699678645
0.5168659525984367 0.02063598479777795 -0.2903013401477068
0.6039576979407286 0.181566492177879 -0.13769277604957608
0.4867634390825941 0.1695863817937493 -0.05242097983868632
0.6111015660609809 0.17612135724155564 -0.10633233329053837
0.5578511389010714 0.25127929901688617 -0.08000795948244388
0.5871060528242253 0.15501185130041506 -0.08032630147033615
0.5609682958825033 0.2212300811928145 -0.08132255375691955
0.6771745459998328 0.1819468616029951 -0.2494739461677966
0.5999293122364548 0.25620549715874574 -0.07448251605457301
0.5854789991596192 0.15187097385080506 -0.13992228403958507
0.5442156324769201 0.2759914624134012 -0.03456467424858545
0.5753724731455918 0.13334436044678455 -0.16557686162296648
0.5767622202330074 0.10388351479896585 -0.4062867305284641
0.5958220835137382 0.12153587654383102 -0.22334032716184993
0.5764324813174255 0.15662426409207342 -0.14743979897450288
0.6056850547878128 0.16393317127570128 -0.11334845603093413
0.47143575815719885 0.17056799278354617 -0.060217993643661316
0.5942807113068085 0.14048817834878946 -0.2036157406564172
0.57884363839581 0.029281838465848864 -0.2690000996642965
0.5926284601593181 0.19624171582927374 -0.09231129653453252
0.5144131045082645 0.2678023095048161 -0.027701141025289644
0.6232409116703082 0.19920206790999373 -0.141655969709916
0.6021602648246329 0.15548987563104788 -0.15958562603147186
0.5466874149107781 0.12258120029092368 -0.16313593343416244
0.5610914013470847 0.163348004008526 -0.11488186391505906
0.6050328060688344 0.22369365627700688 -0.12014944994305665
0.5593206493945218 0.20344889298385738 -0.10270033430828107
0.10238580904453443 0.05814534910570046 0.10204215769415725
0.5741203953789125 0.1389333647206854 -0.12600290656621382
0.5144786793292013 0.1154908812178661 -0.10915342038266829
0.6118282447947649 0.16033403901397492 -0.15767643045369084
0.5871247730243567 0.21086651649804367 -0.12693096580460406
0.5244569131790371 0.1646921238787371 -0.0940821351101988
0.5839237599993652 0.1425199338691101 -0.16548983529503403
0.5593169672102505 0.12115981131104547 -0.1594985839902563
0.6097286948908334 0.08809115014551594 -0.11444100256873924
0.5386539123278311 0.11378624384622071 -0.15985435381958268
0.5725711479837656 0.11572660093085574 -0.17296685396723888
0.5210163142275803 0.1847633720339985 -0.06046150594225708
0.6382630407315304 0.25254606949265224 -0.08847399423471813
0.6171582382444001 0.17484799170841825 -0.09027870192527132
0.6111064346202681 0.25161465432246644 -0.10591329102011571
0.5175598503072223 0.19872399489229053 -0.062131594907583576
0.6697028608823103 0.2832120518091443 0.06029754497726003
0.521715675197683 0.13887373215621324 -0.12995944855705943
0.6844075914408307 0.13042730037604144 -0.20483628776737817
0.5563358701054 0.17376279461737454 -0.11991979599820013
0.5623208442575987 0.21024993117902113 -0.10174100171788325
0.6422493870243784 0.11768113991479368 -0.1520071512462664
0.5087818206184096 0.16057325361217067 -0.08633219875441966
0.4933413087012042 0.18100084007463124 -0.08643670096482481
0.5939978523812357 0.1937482836638793 -0.10479088532203207
0.49564576216330636 0.17001132419248677 -0.07060019785747329
0.5851909109366176 0.14247965727112444 -0.23649548907761186
0.5548675367582092 0.15958171766173734 -0.11577691087516939
0.5633759680088417 0.09956455184595825 -0.12042735786891967
0.5436835147600334 0.13739216583221037 -0.11434052170747577
0.5136675337192429 0.13076749254045694 -0.18271096362477124
0.5333229032980711 0.09844470185808518 -0.133262161468366
0.5904058365896105 0.14916357763439692 -0.17305826274973413
0.5135629716661327 0.15846020454875998 -0.11140598772996668
0.574908706148463 0.17616539722850177 -0.11887733672489276
0.6007731297927137 0.18198373435784276 -0.1254081386857564
0.5181249615484234 0.24784393925234838 0.009991099478355636
0.5949306361382725 0.14018928579154988 -0.15662977009199608
0.7004803045471988 0.105159636637282 -0.29753762859218114
0.5379619894685845 0.20016230214632458 -0.028058938462493188
0.5063535261460572 0.17697053524949524 -0.1066991148539671
0.5506534619648846 0.10748801954375153 -0.3342264235044894
0.5908791203209773 0.16336299498246376 -0.13365738520052162
0.5103601011190051 0.179538844406963 -0.03382688976300585
0.569990523929917 0.2119153261234885 -0.05898574803445911
0.5218497907847137 0.15095204296228815 -0.11202934627706895
0.4999446616402281 0.2658475219084693 0.0385503342253628
0.44821434334998855 0.14651347924845481 -0.04516202560991189
0.5519789648535465 0.12539954966051425 -0.1252455027794639
0.6145706748138906 0.19069113449268116 -0.14897149560327705
0.5525150702573143 0.180872571252209 -0.09535898539434129
0.5388813623887927 0.16942434430603726 -0.08239726303582984
0.5054803639480667 0.19202225273821227 -0.10930611185065686
0.4565046895337588 0.09426022250126209 -0.16065552103987102
0.6082288669395979 0.19589562350996914 -0.1349848976082626
0.5870309625443468 0.16321996949560003 -0.16118705923278753
0.6232567149526318 0.01707548404247916 -0.25864440974253
0.6038248674727242 0.17235031421614622 -0.1480596642733758
0.5769595828790273 0.24316776712502985 -0.033818254043580964
0.5192051574928485 0.11096015738911547 -0.11244617595258433
0.5698776129076037 0.15985475846042618 -0.10980688046780074
0.5746886335811325 0.12088098206324105 -0.11813143335338339
0.5744176862353356 0.140785148262637 -0.15984932132067797
0.598999252583468 0.1545964688793191 -0.1411942381379987
0.8264740342300598 0.5391173450944251 -0.35079358413949535
0.5614534772673352 0.19983159525098415 -0.10464885935220991
0.6028134088127644 0.1025687346466384 -0.1593317184913019
0.5782627483825706 0.16087847261229626 -0.11403284168495986
0.5471339703851328 0.18134751881621014 -0.13067407624902216
0.6177324178014487 0.1576556620181151 -0.1576127556432283
0.5679543676567818 0.15151060082222045 -0.16274858415523852
0.5532126374763351 0.21234558997706188 -0.10346153433758332
0.5811928552166279 0.13215002330969128 -0.1287005790676261
0.48453531162151364 0.09268522351941044 -0.24222063273055028
0.5553318475959514 0.17389176079083768 -0.12196037553269434
0.6148691018945698 0.2058822597913803 -0.08776043581137571
0.5353117456121055 0.17757625588932058 -0.10308443731946682
0.4680337187810437 0.20149979026773224 -0.04723174855921286
0.6439809981797993 0.17005866443361128 -0.15613411157170276
0.583542551480221 0.235654235642059 -0.12728522242586848
0.5378872173235436 0.17335733993201075 -0.13232460122650025
0.5240949733741473 0.17187672822358024 -0.06674110561675661
0.5581073893232684 0.17543256632583848 -0.0947960835308237
0.5668444739293221 0.16986374433163576 -0.14742505078163504
0.5016367755896312 0.1690577756250633 -0.08903144606412638
0.5746852340978847 0.20525320868378572 -0.23017513923872457
0.5626087417851124 0.17431774898747676 -0.12128549921503406
0.567937418134818 0.18706645286300727 -0.09241460777651866
0.5603078312548746 0.1634168574915975 -0.1094949209119278
0.5372111943403723 0.20083072555965487 -0.025260383343720605
0.4895764727351377 0.20751621811133703 0.036856142289934724
0.6123571961062453 0.16300458263553708 -0.3436525033113611
0.6576595309064714 0.2143350865395064 -0.10430554934659142
0.6308201503012185 0.17463018807841024 -0.13788128007115574
0.5648681918222707 0.16285045313028945 -0.12345790219332287
0.5959431502016059 0.13831282070452744 -0.17515109210529545
0.5624576462711985 0.19519553197416428 -0.09849512220893075
0.522722670629733 0.1371603670996251 -0.14544041439582145
0.5880994777013484 0.14341588377531878 -0.16416360545801467
0.6233541898017023 0.18440821577692645 -0.1111355637278848
0.5013017509851352 0.15889209837629892 -0.14889105767603894
0.6498987680104165 0.17051132173844508 -0.10576765185420811
0.6645207523808097 0.3019195114848685 -0.08794371474529328
0.6337050584004373 0.21366456167569936 -0.07461767560506871
0.614527418248997 0.1853828563178581 -0.12431267072446417
0.5613250703310229 0.16467150315909862 -0.1104317195596991
0.5500922409933793 0.20424726687893724 -0.10834407305229377
0.5259985161915495 0.11323512205200359 -0.17298568788625346
0.5093677300999389 0.07948080870518481 -0.16577222507747535
0.6453482993317579 0.18315235746129588 -0.10581420288225729
0.524560992577392 0.14422005739558585 -0.08155488015358969
0.5372927754415571 0.1867265233897939 -0.0994451885159009
0.6158341554413767 0.2159332758609338 -0.07480067952796787
0.6297850669570124 0.15095174167343828 -0.14114789298162123
0.4600860857121063 0.2430211556831665 0.0034267705893142875
0.5276813751310243 0.15592151390751496 -0.2059615816851874
0.48723485663202837 0.15413908405575683 -0.11991594798455196
0.5467592784549424 0.14295120444663212 -0.17023813875290728
0.5559281116156143 0.14528311150860418 -0.1520800745607005
0.4773028428151065 0.1330344702146249 -0.0935432142924526
0.459145200608404 -0.0020339018277155674 -0.21294899741045015
0.5095988065644548 0.08711966072887378 -0.13383444128029964
0.5578901878717204 0.15964619989966877 -0.07013636491353736
0.5196487274548929 0.07252074795324859 -0.47794236835446213
0.6134551787528437 0.09422259837344882 -0.2088747549140777
0.6104731215683756 0.19539678362252744 -0.1252869510871193
0.5862244945507342 0.1322060619077945 -0.16413380858477922
0.5644011761319234 0.18022537801623173 -0.11838073962054807
0.5253216796452733 0.06659891951647978 -0.19611867390041482
0.5838319973691597 0.1405047744931096 -0.15294995723763805
0.4954723779388104 0.19751074030229177 -0.07342720676383863
0.5347158017281544 0.1591641339864509 -0.12981661785642018
0.5247449270260915 0.13348980576067504 -0.1495300717679271
0.6010516495223044 0.15055485451395612 -0.16157938515242165
0.527741049240845 0.16625147055808043 -0.11685542491231615
0.5863114116339005 0.12298786984611354 -0.18129155463455504
0.5779190356492023 0.19339163318176134 -0.10801981433799313
0.5290415481640593 0.14994100556607748 -0.11417648250102275
0.570524376287139 0.17137243089598542 -0.12072836403143583
0.6992715822656521 0.29812960276218803 -0.13944149805998052
0.544809556135462 0.13748320699036753 -0.1508459586909936
0.5462946286607462 0.15779204196401508 -0.1201904663056439
0.5312602121159671 0.12176342198212353 -0.1472437206796684
0.5768157862532206 0.13404454179485015 -0.13881105985699094
0.5501757068213067 0.16975752909091568 -0.11975707360031151
0.5166865192982186 0.16073113154848784 -0.11770966660611748
0.6036385090875598 0.2588261822798188 -0.10393841078477806
0.5975526881395012 0.18666058582796552 -0.14009254234987623
0.6760036879063591 -0.21884247128602397 -0.3307003216689708
0.4163632393763379 0.14170914455804962 -0.0821818781919319
0.5885160047344726 0.14475358810665284 -0.14737642403119366
0.5177568370945664 0.11821355265952604 -0.1381099457697843
0.5446856749172042 0.1670467913249638 -0.14813422586342995
0.5389354517034946 0.14525544254551903 -0.1277108516587333
0.5560970723173142 0.17818322173019396 -0.10477857064589102
0.6830216810647727 0.1406857283746774 -0.1703273986208842
0.6616871240822633 0.21967013431512328 -0.07712504885368787
0.5600573296523663 0.12636921694114278 -0.35543859257396093
0.5955548501577255 0.11902449246022684 -0.43884804293432467
0.5049874644308971 0.11865105385287222 -0.16526833766876337
0.5806905689409518 0.1571601413557886 -0.13966823944291207
0.5904373274716477 0.13272008891136977 -0.15538383733584737
0.5612166888032561 0.1540727774400068 -0.14255530605750266
0.5693385300284461 0.17302487013613188 -0.11770418468879029
0.5202336997544279 0.21695432221792998 -0.06431210213715133
0.6596978146105954 0.0975616461225286 -0.22707040295449588
0.6117209277049795 0.23452348027434766 -0.09038048901906848
0.4704448279962179 0.22470470232023843 -0.042131680580851594
0.5753779457968591 0.179186303090745 -0.11868310202714838
0.5453489314588182 0.18132879396490864 -0.11467521783913526
0.6018676610273985 0.1836567535390543 -0.12953900775535487
0.5591138148604102 0.16576758685066295 -0.11560926723423393
0.5711765622905887 0.17506193806906367 -0.11448067516806759
0.5160365575354149 0.1704147125971076 -0.07466157553776043
0.5696975803376461 0.13331649407378166 -0.15309011681549123
0.5181287768898244 0.19429276818661378 -0.12896179695906085
0.48563065499752156 0.25608349578794787 -0.05158112711457363
0.5713330474990101 0.16811247591387257 -0.11727830086333313
0.5802148064544923 0.20854432271660528 -0.10287287755718921
0.5873955605870407 0.1523455267764433 -0.13262385748069505
0.6138258819156732 0.11744735749653046 -0.15909463053897355
0.5911607715018903 0.21027146734316204 -0.08558947374905301
0.577679998199855 0.19174487491932268 -0.11817906990869176
0.5407047530755875 0.17213241351281283 -0.1544422854222205
0.5193860673893909 0.16649132868586491 -0.08489010275792452
0.5033162468547232 0.16451564398515472 -0.2180636124020765
0.49768291518827823 0.13364815294630716 -0.18801032207812796
0.5160676096141827 0.1333672107000723 -0.1330271056560548
0.5382377174393298 0.11370451699531259 -0.20076490442279749
0.6146229706121176 0.1760425986109766 -0.12660795025099958
0.5678867546418616 0.19622467723789327 -0.10754219911618179
0.5287382958380817 0.18466029201870526 0.05391129680396034
0.5885873188236701 0.14283857960356272 -0.125409846372861
0.48686644114299327 0.12304462979211905 -0.14883104677514325
0.5274978895464528 0.11819060915404123 -0.1366433141923693
0.5950002846871456 0.19258795099027282 -0.10770760047351757
0.5763997013254283 0.10714924011269034 -0.22880415291366774
0.5619495254361908 0.1643176595041922 -0.12144422281986067
0.4279615497483462 0.014641049048222499 -0.5241315565236846
0.5047844264180839 0.16946754414750842 -0.0783832720349551
0.6115562031719293 0.21651712400409906 -0.0990194047890185
0.5739007625633832 0.17047469199788168 -0.11122939067801951
0.5818870161790102 0.2001472675333389 -0.09031918678411444
0.5241270620372802 0.14242344905804316 -0.12001255812903366
0.6177546278621975 0.18725760346067943 -0.09148287520680753
0.5754334279567104 0.15362248357338615 -0.1448589723768805
0.5673370105718334 0.14451906678588955 -0.13220208128387867
0.65873540210481 0.13076852644539372 -0.1770622508240507
0.6219185137983487 0.15989604198473728 -0.14320466226010353
0.5197470812207428 0.20275463702284924 -0.06276520721218048
2.2169244873473275 -1.1124212101295115 -0.6957097878319587
0.9591176971685513 0.5783898690219758 -0.488552795498407
0.5599689088219435 0.17868661809126252 -0.1553517696804505
0.6461102623906783 0.20666502038847057 -0.11335389958765063
0.6027928823722277 0.14397027425343367 -0.14024226602448664
0.5443298358530626 0.14708930275163823 -0.1351746522572057
0.5430850298206309 0.1778063874633773 -0.1101467648321659
0.5516201948776995 0.08021043053801691 -0.23081587111677493
0.5275749440298938 0.07973156149047611 -0.13548841950350266
0.6427916834352914 0.0926460883611071 -0.21188597653618046
0.6326088412882029 0.1979225635252675 -0.08407769382780828
0.5675539929933109 0.17083660180902882 -0.12308702887710865
0.6067636883949348 0.19241637793588495 -0.12399212352239886
0.4993785730321747 0.1495726357275089 -0.08320231495989105
0.44933754276794957 0.12382681144048036 -0.18691548082244935
0.5667105126164245 0.148152626037529 -0.127237815324591
0.5889504020200178 0.12653755348803486 -0.14659950030582536
0.5730685081820326 0.17720535534562032 -0.11285967999401691
0.5301543388507781 0.18905118404630628 -0.09588799063648423
0.45428448643927766 0.13791616822810226 -0.11539416286214532
0.47947343106460494 0.14530572209504555 -0.07522172163774599
0.5303736996076935 0.24037641310165725 -0.07233314013546988
0.5439403867320891 0.1698764792800347 -0.07134574555773554
0.5281817348489284 0.13194331850127128 -0.12950697106857945
0.6848872629166465 0.08326134846647903 0.03154008768717631
0.5647330335967808 0.16680824348435408 -0.11903262653603974
0.543499615973488 0.09408833356376078 -0.33214842842392045
0.4301870383584827 0.11754064586214952 -0.12218695508877886
0.5510201940036268 0.15396470818656383 -0.12968739185723166
0.5679105143061776 0.18269220526134688 -0.1296403192867217
0.557792505423393 0.2110010338710282 -0.062476901384030725
0.5632045624829658 0.14931020145458263 -0.1267599746394552
-0.2613420885184041 0.42390088811689 0.2832011361486906
0.5772866407466353 0.20527070571101547 -0.11434882388057588
0.49256915204166773 0.11964693117469949 -0.12039184041350381
0.5501943055470662 0.1033301484825131 -0.16831595638903707
0.5785095585750071 0.10829026913641826 -0.1591091969395393
0.4779925635407807 0.08020957864573575 0.004258471530306451
0.5338282039651574 0.20308118778505957 -0.0986092603163371
0.5840368936640488 0.1272362181643132 -0.26576321370869493
0.5486906311208628 0.14315451327468054 -0.12219706195986646
0.5580951936203462 0.0939896157291713 -0.21112686142292603
0.4427862134292724 0.06254045829821564 -0.10918124108069094
0.4845666629790344 0.09605644509665012 -0.18203476651234496
0.5400911550879073 0.20884249472139516 -0.056638247951113385
0.525869894743451 0.04922062657298909 -0.13639422856273598
0.4307608783486785 0.2010553270596631 -0.08616606948267247
0.5724477549314031 0.1649619246226024 -0.12192961124486601
0.47105494083187693 0.11453946306792773 -0.12717191425664964
0.4615751855686625 0.12343220276397915 -0.12377741247071583
0.5250636901287749 0.11615323650931941 -0.10685828364159988
0.3532338386572462 0.29269366762548543 -0.19064354881690804
0.4934049021503597 0.0455134230730323 -0.32479325481243393
0.5512753441031464 0.1719486849836045 -0.10009488097627184
0.537172048365889 0.11862319547488198 -0.17025979215495113
0.5025676045942049 0.19804789294575187 -0.05553043336918506
0.5360835465973395 0.20715863870269402 -0.14386952621927662
0.6204960733281268 0.14141569220325323 -0.14851620284943579
0.6571680632872727 0.17912985484673527 -0.13182898470246585
0.5866488187159433 0.1392159822979835 -0.1711255610895961
0.6198154863218264 0.22159772944348788 -0.08874371715975826
0.5598643847742863 0.1680719462798237 -0.09771651287182692
0.5626661614661543 0.1867768213998744 -0.09019925572007992
0.49798368867101317 0.14608978468677947 -0.05676804932561197
0.48627088974187416 0.20487722858189272 -0.07180673696450413
0.627362525639569 0.2670855180171685 -0.05082144743585104
0.5519229047470446 0.1611365519433008 -0.13544885255434735
0.5293161599483511 0.1758867766471326 -0.0670844059288811
0.5775102843601161 0.21200100777801367 -0.08745459219368001
0.6135814819398036 0.19577098646414015 -0.2024724797987858
0.5360855204756376 0.1951429677131813 -0.07310301026502941
0.574878141857539 0.20994934136888332 -0.03682290682827727
0.5265964596000856 0.182879002496378 -0.09072974732978878
0.5555141129931229 0.115150379613155 -0.11971199143660272
0.602119695549348 0.13389315373362365 -0.20402180663755587
0.5626262910508899 0.1615083602320624 -0.19411037543385135
0.5941045327459307 0.15151354063095823 -0.1265235200559971
0.5782789244065754 0.19367548730215844 -0.09236993626664969
0.4447660161368674 0.19748663728819338 -0.057618449092927904
0.5575957821981063 0.16924813326434673 -0.11742064985737954
0.5390302828582065 0.19081910327003015 -0.03850235201973362
0.4967018573641724 0.09569139761704548 -0.16378288928218865
0.5405498301253715 0.20889271381683727 -0.0914806250711564
0.5768706557744849 0.15939208594200238 -0.10059191355912844
0.5518844935265861 0.15954376142018134 -0.12439988849290273
0.48085681104203104 0.13327986208169307 -0.07428869263252125
0.6049853433667067 0.1866731437958009 -0.11575738971190219
0.5171833547598652 0.1497705676352865 -0.04912128689295514
0.5367922730975181 0.20226909557591455 -0.07619315473530719
0.5137153829390684 0.16210165452842773 -0.12119977057615472
0.6132576752198418 0.172829400249924 -0.14860277435526825
0.550068945084007 0.1533850793498459 -0.1403810307599116
0.5936405047379907 0.1475430936095279 -0.17647618846085322
0.6556208777609243 0.12345240706073923 -0.19986829972452824
0.5477240558033287 0.16581412644755744 -0.1278961107966694
0.5497875774296972 0.20096892952422252 -0.08375823061628296
0.5912423510818172 0.19860754420427895 -0.11592170835372428
0.5746610236371197 0.15015108051123605 -0.14612885349464477
0.5538035112212754 0.15940960770804224 -0.12069703089409245
0.589074164141735 0.17585159068660516 -0.0877018477176108
0.5974373252903433 0.1574847136672446 -0.14094204597250837
0.5815400302466287 0.17391322552869326 -0.12575638154338264
0.5451047725932909 0.15671502583337826 -0.1489892627594145
0.53635101776905 0.16521371143144847 -0.12630170336737478
0.5825737603212531 0.19808310391668726 -0.08833970200316799
0.533248888451368 0.13721296463722865 -0.1286716216523729
0.5273096349342126 0.14497492955412383 -0.17018572432714052
0.6243903549509753 0.22455480370793168 -0.06748851359614605
0.6061155281763604 0.17420693560200107 -0.13867895436212052
0.5600135596296099 0.1643678555655157 -0.11623844741777134
0.5588980612341174 0.17468461090261655 -0.11981139018443798
0.5665619962328634 0.1525410323074965 -0.15734322374962062
0.5447766082288013 0.18391034129878392 -0.09726628763118583
0.5647485925929914 0.18311456410421556 -0.11985430591447255
0.6120873583700472 0.12421204517333706 -0.10477549158311206
0.4958437149324766 0.11567540922088426 -0.12420335959136253
0.5992121061496363 -0.0036086184947095035 -0.26619722292659276
0.6398989348977011 0.04874970794618605 0.01601485177155837
0.5189570517466393 0.1639747791871713 -0.12156530800010046
0.5573688925335034 0.18561700547854798 -0.08308377142505208
0.5127344646697054 0.08170752812714 -0.16300974984699224
0.5284637822343257 0.20816859794619802 -0.14418584679411595
0.5607826218985963 0.1583806090359161 -0.10896066119059356
0.4664077914516298 0.13168542324670796 -0.15854847741847777
0.5981829187808785 0.16125221633208753 -0.1642422992720043
0.49558597543830274 0.18289287134193444 -0.09160367034147043
0.5543497227016445 0.17125829999835673 -0.1418839312279374
0.605356630577262 0.1800131318071294 -0.15666980860436297
0.5372014250368977 0.14105129698566543 -0.0775731509393296
0.5193110540467814 0.18841082836982537 -0.12403822840616385
0.5986159305468135 0.21248474554380437 -0.08015242269155465
0.53863040934813 0.21619622706852226 -0.11351627337585057
0.6422877056196228 0.1839472569751166 -0.13493000680313116
0.5838405923065295 0.18438036289811066 -0.11411663254897064
0.5543619888178171 0.1577258388907694 -0.12783048341540848
0.5090829085022364 0.13366882083421672 -0.09797598900445337
0.6110269700337625 0.22030879487276422 -0.1052846049086753
0.612949989125454 0.21661008511230762 -0.06660284716316767
0.5747349601967642 0.20632562408395927 -0.041890350686927036
0.3037752280012711 0.09045693866352167 0.089093773221677
0.520754014169114 0.16185265824812234 -0.10585380781361664
0.5607810057035607 0.1859704518345353 -0.11326031149506832
0.6282194766895088 0.21555436840465347 -0.11062122297465748
0.5657799043899132 0.19031416824196867 -0.11821038593301125
0.5712477769628919 0.1673660109860151 -0.13842128220233008
0.5130719737077669 0.18004523006312922 -0.04408339793745597
0.5978424878714179 0.13677931496940232 -0.17486602660245865
0.4639122040951804 0.17259712177974507 -0.07827781918842902
0.6060531626565222 0.19855672259701862 -0.11311309747249254
0.6386653905933741 0.10887813461093288 -0.18277000518853015
0.5971800408703558 0.19583409920116424 -0.09445178753861683
0.6252412825673019 0.19762745580476349 -0.1283560436478126
0.4962051038745443 0.19290830922220437 -0.06194548666306332
0.574606443770719 0.17647256101487585 -0.11307797515864593
0.5388164458851747 0.21295965477681023 -0.05339657609974324
0.573787123026932 0.07908303585843157 -0.20633057198631377
0.6118399302057185 0.14159954660095764 -0.09875810028869125
0.564175500176546 0.1505189653709067 -0.13081552420960918
0.6340335183987662 0.20522533531612908 -0.12278512898528504
0.5802138298467554 0.18495537483127578 -0.09840095207654542
0.5684883286386224 0.12612499769809915 -0.16871090851375925
0.5589802689504921 0.2699571782508343 -0.10926990902318323
0.5623331820620763 0.1646878306307542 -0.14738117354882263
0.5442056343656674 0.17011331084508186 -0.11536815534324774
0.5854304056272213 0.16201848232165617 -0.11164775040259656
0.5837962230713742 0.16402545957676296 -0.06671619143185126
0.4988408941205904 -1.605768368405748 0.06076692898741953
0.48979947715170624 0.19730735564928636 -0.09667816679568375
0.47773411682959477 0.14213708357075916 -0.11282408077008199
0.6873828072013453 0.17393633100630268 -0.14420658879481607
0.5484092807675154 0.15425560417760664 -0.11876292153064583
0.5548305138085396 0.1623856782518942 -0.10690259349541975
0.46529637948295033 0.1316087959499299 -0.07903422295905216
0.6440752385841506 0.23777568984367292 -0.05006870740008651
0.5095027254248663 0.09899058846397679 -0.061157460744937
0.5337188120671215 0.2000796489731158 -0.10398713613658117
0.5454946561105345 0.19815696361699509 -0.07802052016688776
0.5854637319818465 0.19802232846927836 -0.11988751105965889
0.5122785219842996 0.14188096072282974 -0.12151126045969818
0.6574921032879786 0.22887162551653262 -0.12071849850769922
0.5699973718523665 0.12515755399809336 -0.0983453823135676
0.6346950736894428 0.18294766228298442 -0.19479888669414436
0.5964654028100682 0.16789108816051623 -0.20711380646901034
0.6350823512702277 0.19745436556881657 -0.13146253451833445
0.582114062332181 0.22516660394225596 -0.10471362432187448
0.588478166765583 0.182404313990574 -0.10206115024330131
0.5954798599775444 0.1468233390560414 -0.09307175334242856
0.5811375944180384 0.16156477592508622 -0.15214287009409588
0.5861244340610057 0.20119638943337748 -0.12676348382005642
0.5713678950071994 0.15861168472955 -0.0874197326400008
0.5750295651560151 0.09817882244121279 -0.24102495757125553
0.6067968093688307 0.18345791382522236 -0.18099605709869593
0.5545707291504272 0.15790941999956942 -0.11546995588943787
0.5306718849984406 0.1773561368022456 -0.08756820638451757
0.5958780094257605 0.14657087006894187 -0.1585989387160538
0.5637303575255999 0.1378683352564991 -0.15465896119650324
0.5479634816370407 0.015152634646454999 -0.09899653761631555
0.6049530671390784 0.1993737263383082 -0.08688173147986333
0.5368803393050001 0.13472228948602094 -0.12842096739882436
0.5294825525193119 0.11801978822467163 -0.16195863339034133
0.6365047953024145 0.22494741172987176 -0.13055726595757733
0.596176172346432 0.07036960206612264 -0.24775096274771613
0.6100065233901546 0.21693743190361658 -0.07996093430261908
0.6218265409425214 0.06961566412633147 -0.22042360230305746
0.5492444461529544 0.20154819854526806 -0.07998903598966933
0.48142911588570314 0.1716066995223997 -0.08492350491277989
0.5072673718301104 0.15716197913978647 -0.11773315479894109
0.6235263199979215 0.1711280491036007 -0.16501451611021878
0.5449916781819155 0.1882629706022385 -0.05477788939120387
0.510593452242901 0.23113543871075137 -0.015471999400503478
0.5382793992874042 0.13807622000284425 -0.15216266260065936
0.5343925805598388 0.08132360597743116 -0.15387276229408542
0.5762280613054145 0.16296691898511995 -0.12219255422218112
0.5502026759318 0.18138496847257102 -0.026891971487088995
0.6090302487409076 0.1722304866985951 -0.1495209102822912
0.5243253872216371 0.1683897559056362 -0.10797108393815336
0.5121157364143727 0.12992708881284898 -0.13082493927181815
0.5574315602871565 0.1556411718156312 -0.12534099458692083
0.47037151825360013 0.15388969409622177 -0.08381428721197892
0.553015159877333 0.4031715082923455 0.07451153242845976
0.5784721022544232 0.1673940456135341 -0.11314896206030767
0.5635094884925422 0.14437584927519254 -0.12167629128248336
0.5693083514386217 0.1487720717433092 -0.10391029511858108
0.5246855226607892 0.15742374764404587 -0.11880008563386468
0.5841253881510795 0.1896919403978643 -0.09933590844475759
0.6151255915501679 0.11751314883709085 -0.3012481060604699
0.6322874687111266 0.24688032545198269 -0.1146350815174344
0.5528031116780454 0.34426500473142596 -0.08002165963618779
0.5064716581827327 0.17454031769081269 -0.06596245621393848
0.6338928213798027 0.07934330404847856 -0.311888084129464
1.172795975057042 0.3341857340520278 -0.6927263711590683
0.5521064877895867 0.16694178590761055 -0.09934091133457912
0.5470538852037805 0.1438496585149096 -0.09758557032041892
0.5044974348419657 0.17471041102142237 -0.06963426905903702
0.5922371462341829 0.12276164641666298 -0.11106406508376665
0.4814660859686626 0.19622370328164607 -0.06708942202101298
-0.01669485831158113 0.05548304857350672 -0.48706991452927184
0.6261042767160347 0.25236102168337027 -0.0659715328042978
0.5220494282913251 0.17153353982467934 -0.08361063438606209
0.5918186238594529 0.10288822996467673 -0.2121382227211086
0.5647061294365727 0.174340682273737 -0.1393818583231905
0.4739283744973335 0.19848583421413935 -0.06955784843471235
0.6233759812478326 0.16339874045247882 -0.15734505045276137
0.4873529331030113 0.15194358860195223 -0.08810683195680724
0.577406580989674 0.1697695924998186 -0.10920583490231195
0.554059191083482 0.18505669123824475 -0.09193938343223351
0.5478077235940901 0.17548821977386808 -0.11120673326142594
0.6110699305595944 0.18047033888585418 -0.13080646335359347
0.5526499026576346 0.15966408187958336 -0.14516749876737833
-0.3038530089492184 -0.308766875481453 -0.04984586388171408
0.5961150298869455 0.18220274466253272 -0.12640881147355287
0.5909084165137699 0.18171374223251746 -0.09943936089371164
0.5632538435764332 0.12939539590831828 -0.1356288637060743
0.5839190704555648 0.20934721060243078 -0.07966600295384296
0.5826798748714452 0.1777879977786796 -0.09591756564685738
0.6053905681826706 0.1827082715245183 -0.06237666965039068
0.49140954223486233 0.11350917666229066 -0.14911586630927331
0.4310751563084949 0.2421173960961056 -0.02462485508657153
0.5400932631025199 0.1819037083274111 -0.12122702695398857
0.48132270186306414 0.10806275461182224 -0.17000974191647344
0.5531764652634905 0.17441524093202077 -0.13031936894884666
0.5134992637532889 0.10298410983742201 -0.13659953127559277
0.511601240458873 0.17920704966279288 -0.06056004297636264
0.4909210046168795 0.14767095884583625 -0.13807736383100178
0.5479454179365604 0.21740045065840263 -0.02903254018087864
0.5959748461631307 0.14125059217592195 -0.13829591927353135
0.5781065700557946 0.16449472799251907 -0.12299702132349921
0.5959472856508938 0.18724357573147188 -0.08054738924155913
0.6165831687460752 0.2489866100123237 -0.06596109759706792
0.6022979132884103 0.19837472612410068 -0.08971228288902466
0.5816239914494048 0.15005601718944206 -0.14994943386889759
0.5764521133250753 0.12793832301943553 -0.15702010998330707
0.7335038499702762 0.1864523547921948 -0.20330271857885407
0.5034555581999172 0.12416149822820444 -0.12937550974103829
0.5374279164305449 0.12208677131935985 -0.14668462690978856
0.5537324738707383 0.1731628606277127 -0.1119684892182704
0.47642057605069965 0.1634940732666621 -0.12221927902221807
0.5915596984945211 0.13427653723074684 -0.14678920626542435
0.560785335716588 0.16509508752567115 -0.12378331318591052
0.4304782080471341 0.1437965181425085 -0.14812724546094103
0.4882664933520857 0.17316947906664382 -0.08789896642055339
0.5656804720670294 0.174090627366553 -0.1099944183015964
0.6019694067105235 0.15081328488352597 -0.15707202724777858
0.5021333004606561 0.1490352703193878 -0.09142412355760143
0.6005091835217939 0.16232393562331993 -0.1119752978990931
0.5197403139123935 0.13905311861188352 -0.1379046915461828
0.50763789035976 0.0991180534073095 -0.16760618140740746
