# .PCD v0.7 - Point Cloud Data file format
VERSION .7
FIELDS x y z
SIZE 4 4 4 
TYPE F F F 
COUNT 1 1 1 
WIDTH 804
HEIGHT 1 
VIEWPOINT 0 0 0 1 0 0 0 
POINTS 804
DATA ascii 
0.5326881478098358 0.06539929433988334 -0.17364986644309965
0.5700576672422528 0.17759805517383143 -0.154226101813407
0.4689300585209253 0.05534415943229476 0.04310494979998225
0.5222144074860466 0.08022227416455507 -0.18414628893015106
0.5363273484051092 0.14575488884575805 -0.12749703191448702
0.6035813273787625 0.1637873893036783 -0.2120638544632243
0.6439937902277677 0.1487731983894065 -0.10272464453734642
0.5664491993577485 0.16108371077339712 -0.14663696574808682
0.551630711148988 0.1509985655251569 -0.1288645923698084
0.5620299392014942 0.15063712116905492 -0.11767953946730358
0.5226094201463525 0.2107899485095146 -0.06381817008852408
0.5439602738113649 0.1131561898824458 -0.16944542467794577
0.4794937954874854 0.12557755451859975 -0.18459370703305922
0.570779506218301 0.171400613581298 -0.10341566988913087
0.5709521146122398 0.1721606486746623 -0.13186472477846678
0.5592207056150897 0.14975098343603577 -0.12652724279615768
0.5732881002967645 0.18292774903207487 -0.1143242366840127
0.5547244727771954 0.14375834417312205 -0.10121225819972324
0.545704024532526 0.13587525005726775 -0.148261919064538
0.5972956095460233 0.178169915111539 -0.12232973452290707
0.5352046676465534 0.1342488525947516 -0.142249045478394
0.529130871030361 0.17188924227963298 -0.11678558622745072
0.49157325814367425 0.10017504947724376 -0.1114820112710504
0.5061663984243552 0.19228788858539758 -0.042837725858817066
0.677709707085512 0.13688800694650638 -0.12742318878244419
0.5502668583220469 0.09915763408024247 -0.1666333922615877
0.5310308472963641 0.15630083220040092 -0.11157649204756126
0.568014383282204 0.09534452902387613 0.14915710081285738
0.5366931349967388 0.18270314672503218 -0.09350194362858133
0.5527650381233542 0.3101392528372031 0.08526543522145857
0.5627700628878785 0.16476463665647145 -0.13980931954344555
0.48676203122903416 0.11964246056226102 -0.1164659874008862
0.6227551675948035 0.17608324309118473 -0.12665461261349265
0.6205269660481463 0.04319036871547155 -0.2814056311441959
0.5100884470966491 0.15639753211458185 -0.1707737727437859
0.6262564292402288 0.2719764154417845 -0.114186374068737
0.6388095336924806 0.15013935361727704 -0.17874139576923653
0.5990827801119423 0.1477593012684082 -0.11060231539451593
0.5251888348071105 0.08175503567709086 -0.18411718857154824
0.5981209556569667 0.15272126056426316 -0.10697116303001053
0.5965184293027903 0.1762305120130918 -0.12712082293222693
0.6010886000606916 0.10821683210816957 -0.1366566971773011
0.6399704298743103 0.19054442372842573 -0.1645989490405384
0.5900625486623312 0.1867632011799003 -0.10037914135759252
0.5329183073033192 0.21268430447982212 -0.038049542504950296
0.6152837748269064 0.20371304781230037 -0.09963547537202544
0.5753549217548226 0.17542552012331214 -0.12609713759923125
0.5652096278098071 0.1628500353583604 -0.1214943345992765
0.5419401237047765 0.19693211960012036 -0.07426805721786423
0.6440387597689323 -0.24898177914639064 0.10184963947034475
0.5732602606019981 0.19127741249397445 -0.1288414890324816
0.6372285227063941 0.13228332973037027 -0.2315978392396687
0.563559667141206 0.20838076598855082 -0.10478899591205959
0.5299507489852715 0.11180005809279692 -0.1447767101288946
0.5914565182367539 0.18527312206452962 -0.1272180673134926
0.6830929652662263 0.16198003546958262 -0.10639475601584536
0.6237536030608481 0.25168500931332005 -0.10214061766527038
0.4379170453251646 0.06327539492765766 -0.2746268167439325
0.5071847087397146 0.09880363600458963 -0.16411966392894328
0.6243666443407676 0.18048780749344928 -0.05234253747647699
0.5487153854625717 0.13818037677310713 -0.14593982789304505
0.5883764291255744 0.2129509730688426 -0.08285430792051329
0.5476661570866241 0.21968696273485477 -0.08983530372614723
0.5921518870344897 0.10324240418032105 -0.21243345164756988
0.5334289724842449 0.10034520412163772 -0.14851593010081388
0.6184935466235402 0.1770675875089296 -0.15207399227375618
0.6612895150656755 0.20047635483136617 -0.17793936252854792
0.5396295399618083 0.13817464993260842 -0.1448793256819556
0.5859415887478292 0.196584080925291 -0.08315263083957802
0.5256464601706909 0.19317972214940937 -0.07435579503999179
0.5203610488841974 0.23608182521840604 -0.0013965547557859281
0.6022509214029839 0.15287024107513503 -0.16579257495268962
0.5578831045966126 0.1286199603593019 -0.10658489542373673
0.42982823734467956 0.16137991105313176 -0.16383167075545657
0.6380073707195208 0.1486802033809198 -0.15935265752275996
0.5338582524849613 0.10944827835669457 -0.16715078860792687
0.4938866106258786 0.16318759060058596 -0.11251685512479526
0.5175475492316508 0.13036358612869492 -0.11900639448668926
0.5873436246553752 0.18810876880688454 -0.10267080731290434
0.49003312549187683 0.06429887735552597 -0.18135426003553334
0.6630362846090208 0.21828630609039124 -0.040733100235826214
0.7178207392299782 0.22027240272265658 -0.17278516293137614
0.679038587767181 0.16055797770336255 -0.17897217088111006
0.591637213104832 0.12029532767121509 -0.13398768916664494
0.5746988097725421 0.16235576132898188 -0.1609726298799785
0.5531342474464793 0.18660683067768957 -0.1101133260789311
0.506217044466112 0.15955118173427252 -0.10876223459425205
0.541292995825259 0.31750208041948724 0.07319993119449464
0.6509670653781825 0.23834195311098938 -0.09984564771386317
0.6185701449881549 0.23924872747112147 -0.10929312635013844
0.5250407035942573 0.10590000285709777 -0.1358913953272065
0.5364454366127944 0.09949359080297882 -0.17928512738683366
0.5764097022132546 0.17351549902014085 -0.10817412696627571
0.6036134692543413 0.16301214026648836 -0.14383659253164183
0.6566982335472886 0.17917745791920936 -0.19156397005869508
0.7250129098261056 0.2515079541649641 -0.9045874408872123
0.4859093722399166 0.15107498971217126 -0.13891023219434828
0.5701191270199644 0.18404736481868156 -0.1292130336028663
0.5810111038960173 0.08571523756707222 -0.247137631085252
0.33925333205949926 0.1126106725878202 0.019755116551834817
0.5892943271544198 0.14788915658121482 -0.13877067648596153
0.6217677455301498 0.1540248324728708 -0.14553272887454227
0.6039613825160899 0.14791314872212524 -0.14810349209949436
0.48452881834423067 0.1746454012792782 -0.015146184424594367
0.6443394688385808 0.2483219771364702 -0.09421405277521444
0.5860026438181336 0.16065720727699784 -0.12367975507424944
0.5435806662623008 0.11870579889109933 -0.16531219677455056
0.5493274957626397 0.27239997167652064 0.010461288040431782
0.45818923074888573 0.13994571871884887 -0.09720454720269345
0.585864077030422 0.14617511080011525 -0.1490419195261552
0.4695492605267759 0.20379239294803142 -0.03850080587892535
0.5920852405659929 0.1704482655337216 -0.1199841359974414
0.5308266079522497 0.17479800320639072 -0.10727062073883076
0.5685063203497691 0.14933468268183958 -0.1407788530513301
0.6673825089154377 0.2144222771740374 -0.11375513689446848
0.5668236987644519 0.15211304457093888 -0.11579945559429916
0.618066684367875 -0.06545320016552125 -0.18263952692174712
-0.09101398408031969 -0.09032534517038471 0.0541911753005877
0.5603259101689417 0.12656140214326683 -0.1822591387003456
0.6373843392668448 0.12635041917471312 -0.14840949214669763
0.5865637312083294 0.1888572721189945 -0.1009795113066616
0.5575274500903618 0.2508478574481927 -0.06017205449623475
0.5543331561282798 0.138698887754245 -0.1508800187230861
0.5621761208631568 0.178226456159436 -0.05570080060866189
0.5568151425055703 0.16507519143434024 -0.12423742987604669
0.6559000008023048 0.15951858232716631 -0.20715491187561952
0.5380858545288021 0.13621722136856818 -0.15426437928573478
0.6343882446787887 0.1973507146958724 -0.15844173487801072
0.6936119818105055 0.23120633937199386 -0.12146658217434947
0.5557641264532265 0.11590889159130313 -0.16705657057485723
0.5571854013055173 0.11733673010873247 -0.11212580498892066
0.5341768474589372 0.18243276382679596 -0.09473263219811656
0.5256756483013589 0.13116380262626137 -0.13545096428146053
0.5966179300731369 0.2009393284473191 -0.09489604620009118
0.5320938370241777 0.1492258166927769 -0.09381144429249844
0.4020682788986534 0.12615701252032352 -0.14583868735613237
0.6007401467334859 0.15904465945543222 -0.180107673730447
0.5693649663057982 0.17916871434169934 -0.11336365984053032
0.548832320420658 0.11322412126018833 -0.1471661099743642
0.5917150693499735 0.1645355033102618 -0.1132084995353182
0.6073137860939255 0.17205750744139436 -0.1315921257471473
0.34872729754420106 0.20904246199033594 -0.056690022974834164
0.6787390009199328 0.15991020683669888 -0.18621108409197973
0.4445676646818555 0.07330035424268999 -0.1802977776460466
0.5752416623274001 0.24826424929439384 -0.042608733564719614
0.550226351914489 0.1634537060024428 -0.1289006082380979
0.6017848028978534 0.22831813503712794 -0.05538906742549443
0.5383337187142416 0.1727262780487564 -0.11075569494482806
0.47062193576809364 0.11246827490113276 -0.17426722173686926
0.592738994004165 0.15560803492553532 -0.12595378410816238
0.5378783584727955 0.22522048282991136 -0.02349348847505439
0.5132218057203772 0.1885543433836716 -0.07533142681367622
0.6682909136827249 0.3247076412380494 -0.05660563635501603
0.5731125733725122 0.19725006061963768 -0.06713119275792678
0.5876080687796588 0.18359852403622767 -0.09978848087635583
0.5925591308094198 0.2287542494733259 -0.0754851065610751
0.5343381018035416 0.17483432019363931 -0.11775520079200419
0.517659014974484 0.14008638838808452 -0.1798173978235127
0.6780599594663954 0.3556008482838706 -0.025711631459756745
0.5899219937259943 0.179878680758776 -0.12184331535368642
0.6272772352907907 0.1772502100546518 -0.159517298542994
0.5843257958217549 0.1834952676292545 -0.104188290558767
0.53520058040516 0.11833378615649792 -0.17708154639032614
0.537724183434193 0.14550111743980665 -0.10985832118043959
0.5993936865106804 0.1709892473778183 -0.14327202325031863
0.5436978346737789 0.1896816523338316 -0.09831907956987607
0.6152855705856268 0.1777043840098287 -0.1255801210408265
0.5551124392053168 0.19406937924499346 -0.05327734767129755
0.5564237254451996 0.16063863218012386 -0.0997942622576602
0.5899192122139851 0.1317213012592049 -0.11405743448625572
0.6476072124690262 0.24346579080206254 -0.032991283318096976
0.5600940359267952 0.26688878289618856 -0.09476829527315545
0.5944402742980088 0.210761378558729 -0.08484234221211295
0.6595937576678779 0.19592596754969804 -0.26038941764176116
0.5482098423429562 0.1781176497113961 -0.11161552594234081
0.5093408190407018 0.11889591898524543 -0.1621897267218344
0.6339474684255748 0.1209674536848695 -0.15972534227333313
0.5459193446105104 0.15757262785194825 -0.13625260692521124
0.5764892587629191 0.13937134866672807 -0.18515676297838013
0.6561368482851009 0.1355209450400281 -0.16208244894212953
0.4380326013848048 0.09766842845424151 -0.10752332986609758
0.6073918689315718 0.17220696173218641 -0.12970118634936512
0.6723984780719974 0.17712863599118123 -0.12237866816971632
0.591917176451247 0.22151538666352621 -0.2191302191090756
0.5030143638506104 0.15310324153078625 0.060257317540106214
0.49095288877329324 0.2796351860855282 0.0538793142376619
0.5615637683722383 0.23463858913746094 -0.07005910076694022
0.557924188982625 0.17163004905701484 -0.11587600259616693
0.7504537619251863 0.22262704742027495 -0.1619494657877283
0.5950074523232018 0.2765104105718308 -0.034026379351558944
0.5208607994877497 0.10286737013525737 -0.16670488282721863
0.4959060098119039 0.20829522639758125 -0.053194859328556277
0.4762481428904266 0.1114903982008002 -0.1619638997456434
0.5044041068679661 0.10402465666295768 -0.24175557864467123
0.6478490548466311 0.1528322389384016 -0.20378692862004755
0.586623335541006 0.10520380579714583 -0.26035568931555986
0.6048162933890069 0.21683517559620213 -0.07981979313572651
0.606275485185634 0.20759123572216254 -0.06329171634811814
0.5431453423599777 0.1307944098280558 -0.18215709768833221
0.5646601557263864 0.17719996608535382 -0.11691590176914701
0.5881848486340004 0.20311080704884432 -0.14695053129091207
0.5452348765067256 0.1035111225445462 -0.2208134129459438
0.8132975278545729 0.05282165193503374 -0.6637970782495017
-0.010439605236456373 -0.026476007206355234 -0.05395414365867168
0.5767646699495259 0.15302965729978268 -0.11320983102200444
0.4330982225091162 0.18989899221602968 -0.025957546148958954
0.6106262890510408 0.20187894018607722 -0.11934032869012867
0.5153061116588162 0.1153210158828557 -0.22054760922304695
0.544426880416097 0.06241255933397838 -0.15104289784866864
0.5224139095968212 0.15305116261068008 -0.13413186065056948
0.32366944431852573 -0.03592681534468056 -0.23792545483351546
0.49513089250761766 0.11993162654474077 -0.16841160106275765
0.524075405366446 0.1048997243776455 -0.17326224832996218
0.606480758037435 0.17420103871452852 -0.10548117132032075
0.5538222161073918 0.06464665035360895 -0.13774993978250905
0.5623654532535198 0.17540080104367917 -0.17979721704492135
0.6857077514876408 0.09116700123043131 -0.27086755734893586
0.6650564531242509 0.1033503266900766 -0.22663035988611568
0.5342350827446722 0.1585460540978687 -0.14188257507120738
0.6311001442802819 0.09144810858414587 -0.17990915990930034
0.6158278121480549 0.3177074400108495 -0.13185838790104754
0.544619941606058 0.13599469181555435 -0.10820893343293392
0.5487816491748845 0.1822188025066538 -0.11107469435609119
0.6354041638175261 0.15310563917583409 -0.19128503649423578
0.3906412075954364 0.006055319975601492 -0.2096697818052462
0.5755186274998181 0.18392460110665354 -0.11735952998293442
0.5336866570013257 0.11188945299299746 -0.12124321691933915
0.5397771485344407 0.14620582912321822 -0.12077952928419222
0.48515229121989023 0.050573743410936345 -0.20218227354408214
0.5788196924959124 0.16463688667491283 -0.15596918640332547
0.6073452505723651 0.20050453519253608 -0.0779616681753339
0.5690534155011164 0.2390407826588472 -0.06454990938723881
0.7352345695406655 0.0732899697881777 -0.23749686980568185
0.8416159893602497 0.26336070758814856 0.06496182963201136
0.6253385546772989 0.5370553253432746 -0.41481000417678615
0.30110770873564263 0.24475613648162664 -0.268312502034064
0.08298019560608338 0.21010916786630673 0.07679659776641756
0.6127900275614167 0.1879058883207847 -0.10848395882138107
0.7138567482926561 0.13712846830347303 -0.18882699271989623
0.5663125852924367 0.21844819619364841 -0.05315512138972167
0.6540165057459291 0.17715566173288266 -0.17164507931451567
0.5646421722728121 0.1289111709112234 -0.15057349639238282
0.4982317135316521 0.19081421252758446 -0.06248452380140179
0.5797530008017446 0.12658977864414567 -0.16019524273775687
0.6227961346800299 0.12252778999619807 -0.17529250755873704
0.6148788989943768 0.18610210104834835 -0.11748580652712803
0.6235669691714918 0.13729843626049387 -0.1667034451247673
0.5779211260784791 0.16135390728786092 -0.24663837764046548
0.5638662370444933 0.22960715237259421 -0.1721315890913786
0.4596184688454059 -0.051520892212778335 -0.12325061039965135
0.5833368212414314 0.1987310884625515 -0.0920747231865846
0.5407265892792736 0.1931732036586311 -0.08612621374473406
0.5561667835290507 0.18854828440531435 -0.09896171726865077
0.5749042156483881 0.18838246069066145 -0.18472937560215996
0.5833252911754698 0.1724619116755548 -0.11536413598344097
0.5627688869422371 0.1819614923965247 -0.14012166408801363
0.5197101778013291 0.19655000970419678 -0.07868065011356862
0.5956166182593137 0.11746811545903313 -0.19841217376290388
0.4771334405742067 0.12866809282530767 -0.1089552168697594
0.6668786680259302 0.13876659459151597 -0.17767142197902785
0.5999140869127615 0.19236570504521922 -0.09008105288094725
0.5327376230580114 0.19389858465328302 -0.0733877050161027
0.6743728169954863 0.19640442851772377 -0.15736591281466872
0.5515634971750956 0.14637889517715053 -0.1625468477164702
0.5238907289525514 0.1652093352696795 -0.09139484117542906
0.6153321610737805 0.2039350913889706 -0.09465662314934775
0.5742810474268651 0.17170625368159165 -0.12484020361156922
0.5280272536298298 0.10965339096260607 -0.09297989539206242
0.5695778412129755 0.17686270389840786 -0.12245346411197033
0.5948429691798225 0.16639703224906555 -0.10816443122934061
0.5723495038101305 0.16220132625474548 -0.1755307450189889
0.6069292924602792 0.16950801795051973 -0.12553335392090048
0.7333367829385509 0.03626911805035604 -0.21612975120092415
0.4855479007373731 0.3813543939431412 -0.24775437731921102
0.5696328409756575 0.17484688775273582 -0.10306240695334168
0.6196372683721165 0.1626838662949126 -0.11643147114642716
0.6025396143933364 0.15209342352505928 -0.12859856367614952
0.5761653216868012 0.17510138304236023 -0.11558682421986077
0.6384076059409267 0.31007799777560763 -0.11942578884850263
0.6203446041112102 0.10989360088117905 -0.20208285188820696
0.6460827910840123 0.21691821599630146 -0.10926346381037888
0.5764779335891888 0.19469931553621223 -0.08513914164171865
0.5803508697968311 0.1476835549418638 -0.12891018087501038
0.5637277718013252 0.11627788453199628 -0.15774232940012212
0.4887537248372098 0.1870890155904732 -0.059722138040569916
0.48992161909471577 -0.010178473892665352 -0.22661664884921606
0.6056360675765262 0.19150372138645366 -0.11755339285096511
0.5822784214509937 0.1283220093198736 -0.17790937034195053
0.5438390194853469 0.17920123351451878 -0.17147839659355668
0.5380980885674091 0.1928027276523494 -0.12123075484328183
0.5579341099563635 0.21146956558611407 -0.0897816935645892
0.5786699081487825 0.16659316365952748 -0.12925483515724068
0.5464895547180788 0.14326433654630932 -0.14633959621397707
0.5180922492406239 0.15927858163833264 -0.11114528210526942
0.47862699559657074 0.19748379364665425 -0.05567524728871831
0.5272015423047947 0.1327075483619211 -0.11615711689995578
0.5194199852659125 0.1698145639843318 -0.053754458560291596
0.6061701333111387 0.20832204859483738 -0.13099982841148972
0.6166524148773078 0.15696622269757654 -0.08563478226150778
0.5253010843301666 0.12465958883268513 -0.15016894630923616
0.5280374748278973 0.23836852476964054 -0.09572399260557063
0.5846004074353175 0.16248936860279173 -0.12653283125655435
0.549197722232833 0.17073818863765666 -0.08476382385248371
0.5543063053340092 0.1112879504262736 -0.16788839273326062
0.5408611198714652 0.3407329695428132 -0.012916521225633915
0.6352825479599034 0.10406200192745985 -0.20114956805485917
0.6169651538321119 0.1576336080225218 -0.10441464400821587
0.5566143111309856 0.15935668011512405 -0.12023411890538682
0.590108591606068 0.11510390876254917 -0.14359903267001073
0.5410658364834546 0.20546545557910179 -0.062087682122069054
0.6168335427426825 0.1482311763622164 -0.1818961528228158
0.5996654810042799 0.2210325841390528 -0.08800059987558484
0.5883587903871472 0.1552385211544305 -0.14181431409105016
0.4354376227459511 0.15902054305333024 -0.10774319353703277
0.6699166649137283 0.16360430898313894 -0.20022772556978907
0.5778237305067364 0.13757044771170968 -0.1803542706441874
0.5819946196428702 0.12835730030283798 -0.1388378120173286
0.5892320534679953 0.18241533643988816 -0.3097614018134607
0.5217225741516529 0.17352585141742338 -0.10066741951666813
0.5597352346562019 0.15190557228213208 -0.1690887988331724
0.64636465976713 0.2322689555312536 -0.08475016350658393
0.5694265289117766 0.11827934910951399 -0.08310543244354562
0.5627554398099619 0.0836127230437711 -0.20258132057256262
0.6452437658805934 0.20871751785567483 -0.15512198541853195
0.5827194967378517 0.14896643337361581 -0.1537170676648998
0.5018620780316496 0.04517328665450293 -0.18686812941970743
0.5320537951154023 0.1336138663221078 -0.1283460072253888
0.5893926032669015 0.1911609465417996 -0.06834706162516113
0.5484229417906903 0.19410429272377883 -0.09464342641936696
0.5010319896373119 0.05402053208129587 -0.14952659663183
0.5490075004423716 0.1461326965372507 -0.15226373103629953
0.6676490861102451 0.14530471687204738 -0.21178958003798698
0.5174395069190183 0.11134535495594378 -0.16269136334412337
0.5885035652398614 0.1741272037681938 -0.11234159882519634
0.5736791109142558 0.16424468940823544 -0.12386225701698095
0.6173995567858555 0.22515253927925016 -0.019294851451689965
0.5718308587521221 0.09703674034193455 -0.14993207324579316
0.517967732748275 0.19001813909834198 -0.0659023217133381
0.5222297541202323 0.04702656550924189 -0.21134902399160183
0.6320894952375937 0.16826977474588034 -0.16300166050666576
0.561343086228419 0.19158676523532847 -0.1270678207262108
0.49321832557436096 0.17108571727669641 -0.15367050108307012
0.581417740965847 -0.042930386574042245 -0.34684152823430736
0.5927653729544744 0.16896818987747508 -0.14532751200025018
0.5182557206503162 0.18323951483748147 -0.1265272252923353
0.7197640815768693 0.5356586734200022 0.14177229097768418
0.48597872686214316 0.14371152195568015 -0.13959610225523988
0.5745269211076192 0.13265267611170373 -0.16495006785260102
0.5674514116641092 0.18262651843774336 -0.10419122300848471
0.5145195293747804 0.20543929873132072 -0.07796711418836821
0.677632875159091 0.16033343625036878 -0.1839616465086351
0.5742899352886468 0.16561406785785948 -0.18436388075724608
0.6495520603655649 0.21914400151307234 -0.1249623570813867
0.6041423430824864 0.17107584351832372 -0.18388086695361494
0.509985591943888 0.1643501966446479 -0.09119344475061553
0.5285966476241413 0.08037800314006915 -0.1506203374429731
0.5684285561421945 0.14556552010557766 -0.14700641073093834
0.5199124240788677 0.17634827297074196 -0.12164776304933866
0.5643094582213877 0.15671544026236006 -0.14292889932963249
0.5763940982252791 0.20419289389292317 -0.12035957787787765
0.5683267932519129 0.14695869975153641 -0.14953829868431967
0.6286993365854983 0.2918521802743186 -0.09673937322401116
0.5727133682308931 0.1527843259289483 -0.13218852542712511
0.5839518536899675 0.259038144745503 -0.031350016595240504
0.6484434518026063 0.15436896962481228 0.008784600184725377
0.5392804180032869 0.14247521882549563 -0.14344828625775108
0.685107955006572 0.261593402590961 -0.1306662370310221
0.5306144972466171 0.16365567453266294 -0.09912685666100174
0.5313238153625548 0.16937741611134527 -0.0872919093344251
0.6001890703069392 0.151532655267701 -0.169875589248079
0.49350545377973276 0.11947323805928534 -0.09060494886008996
0.5075628777947685 0.20617759438823668 -0.06557784055630123
0.6076879744321246 0.14434607410774447 -0.16112322849153315
0.4829492979894354 0.17447459118511688 -0.07048411992803949
0.5172267605190939 0.149792548466948 -0.13201851820988963
0.6294535579255722 0.1930827981830845 -0.08208743749995051
0.5138739044047043 0.16244123474808703 -0.09839703819557144
0.5207495775019737 0.20751249042545794 -0.11329756821135106
0.6087873680638296 0.18178892408704428 -0.12042514197969467
0.60326320587194 0.16807783996608805 -0.1656330086435105
3.2223859288607173 0.2241354925873793 -0.9357720417580708
0.5859676832765786 0.17765403130144364 -0.11988754825452475
0.5390408818078498 0.11365320116688338 -0.167935536294749
0.5681192886780195 0.2173095416202102 -0.13640645129902396
0.5738996439594501 0.1690219620488591 -0.14477911177201008
0.8471441243541307 0.21104929059694655 -0.9099145529262671
0.5930139683442093 0.2127363390657706 -0.10507183264132891
0.5681493268266138 0.23343181134539748 -0.10100388746045041
0.5723579646645334 0.053881571458262556 -0.14278030047503876
0.5126571200740528 0.4514023831748091 0.24642959067756465
0.7619485226220348 0.12044272694541291 -0.09438750064444434
0.5755137316035785 0.1013446734865937 -0.189486373883625
0.6463746749406027 0.16904802604678082 -0.12196169457126871
0.5845481865837314 0.09815805817123646 -0.21997161888364758
0.4376185538765185 0.10496035499853917 -0.08667427348669321
0.5989571024215223 0.26946314948791894 -0.0499065006604269
0.5580320134096866 0.16361543691722602 -0.12079375571050832
0.593321537245842 0.15946387579425902 -0.1484866274880119
0.6041410152560616 0.12007094277245756 -0.20725972481585586
0.592049049054495 0.16185743025245358 -0.1506535849626971
0.6411735767976694 0.2036684648441991 -0.1293276977363007
0.6393578765301413 0.12853531482046776 -0.24303686428569904
0.6074583000666962 0.11251408343210301 -0.16613730840202834
0.5912766496004167 0.21716971112462602 -0.07171524192395395
0.5969001661743505 0.2037229911527021 -0.0901769973986859
0.5354765951096141 0.2220995871303728 -0.05038507858236585
0.5768382342887293 0.17280175533711883 -0.13032660457605516
0.5419940817659779 0.1432252303649335 -0.13180352761631298
0.46157781262181174 0.13301669002696315 -0.021315444740082512
0.6087463243889886 0.16215313324158842 -0.15839813647610868
0.5631600418342373 0.15341523480670105 -0.15886574719903024
0.5497812128215855 0.22388741033803683 -0.06556421599805162
0.5080254987073403 0.1262284680707353 -0.16409345261297403
0.582328285045719 0.16152345754198905 -0.12482662316398319
0.5170783057384796 0.16142831856555517 -0.07959832329206051
0.5705445741612749 0.16359048680936894 -0.13176513166615678
0.6176344824834672 0.16276437309230118 -0.1446363608043555
0.5375460846124867 0.20258044640789308 -0.07355962835123364
0.6362600972587273 0.2114371030975093 -0.12131150875711683
0.4320592120816116 0.232130321692523 -0.06623731148067691
0.607925217639405 0.19734837553217233 -0.1070500569989008
0.5437948419677952 0.17078341453135693 -0.11252819974117756
0.6098318392543121 0.21464033724080878 -0.10198781748823649
0.5707210428245162 0.2154677917284289 -0.15979705923530219
-0.20486397861589012 0.5089376859543648 1.3378691388631125
0.7040716170538417 0.296510054456931 -0.13467228248191532
0.5863505803658313 0.2384692401038251 -0.073728145955954
0.5454162583202447 0.16558971662652766 -0.10714805713448072
0.5093077005168993 0.1881288758336268 -0.06631814138762593
0.5788949821755836 0.17927776114052563 -0.11440322708634199
0.5216643779283743 0.13780124937373728 -0.11384254850162279
0.49929283806611124 0.20601327496873978 -0.00799504061487255
0.5512655111068909 0.13350613589666693 -0.16253117184382404
0.4776246852792667 0.06975927308313601 -0.14585061066162552
0.5785844789340757 0.16476550292144054 -0.12870121301787663
0.5485109960202408 0.12774179175980294 -0.1573126557301805
0.5614680322381531 0.1679668838191759 -0.1180043960160333
0.5293072365382585 0.1273910290086775 -0.13466418335741537
0.6265977584896092 0.11609429365606161 -0.1815860819529007
0.538779916720685 0.2036562307576446 -0.14269718644652585
0.5976254774068934 0.15095119752164976 -0.14812326539811238
0.6101631962641108 0.09360191818419139 -0.17409125748821452
0.4737025149371874 0.17562432706561992 -0.12545316546868435
0.5419774554266183 0.24374641890140936 -0.006791403128744378
0.5808379619665516 0.17451306639307518 -0.1291421930182537
0.5877144340519607 0.14829486611539267 -0.13385599168799445
0.558276739747285 0.2564749961016446 -0.03023404753309933
0.528877566084148 0.22814778638104372 0.012898103850574216
0.5345862289258179 0.15094039916074564 -0.12397727424746563
0.46623575802297523 0.15231435352488631 -0.1700423460970626
0.48051888434666523 0.19620256615526444 -0.0714451040488484
0.47194178404042475 0.13037731091158378 -0.0737051805746205
0.6256394094996125 0.19180675812765458 -0.06824379611026643
0.5473349157895342 0.11207605707743085 -0.12101380212823187
0.5595639760317255 0.14470924268371732 -0.12185180424430087
0.5213785200171799 0.21212932322997347 -0.052229444656063606
0.595627556523695 0.12430374746782036 -0.19704480601546948
0.5958529325366726 0.18517526577461751 -0.09916917926253177
0.5197490207241913 0.22788254258729523 -0.10919898041612441
0.5447771293931822 0.1575907503241467 -0.157740468785164
0.6079764604132549 0.11272493414175244 -0.17824174438982254
0.5921144810463375 0.12525734359738294 -0.1753674481332439
0.536363975600608 0.15618000015864197 -0.1362730835082857
0.5745637292418451 0.14656363859469934 -0.18317682741295016
0.6048825134404296 0.19793999226591552 -0.12097098193976308
0.5330726648058999 0.20505298473119637 -0.11848421683330912
0.635481708129376 0.16452181360003237 -0.12011138668256649
0.560905763782884 0.11984535855873446 -0.10614179843784655
0.5263613238790583 0.2184106499040439 -0.06982872465218293
0.5815974930967371 0.14661523293283096 -0.13560107117504572
0.4359787205146546 0.18205606508799121 -0.025698290691252623
0.5910759188486168 0.08733710469250866 -0.21309384505568119
0.5602335105865279 0.15868684574391523 -0.16294147913004053
0.5232285457577746 0.11264204179254023 -0.11650941812916926
0.4790236784978532 0.1355551043363903 -0.1884454727436946
0.7544440299879511 0.4994566018903299 -0.4944841252810477
0.5785628467825319 0.1866353144588544 -0.09774648787927731
0.5514917823126808 0.19022801763073005 -0.037282277283907206
0.5503024871350135 0.19422287049353315 -0.10332066095202208
0.5037920769279367 0.11018127026956392 -0.15684693785786408
0.6402830448400181 0.22053876285129093 -0.09901662800237432
0.5432162927733373 0.14572627507814673 -0.1271984999150675
0.5314619372471157 0.12326124912621594 -0.12104088543546254
0.5547596725793795 0.17064076691542596 -0.11263610027901905
0.5801834332382754 0.16563094000314038 -0.12235545309698637
0.5519383716890474 0.16068445897009553 -0.11303942172247616
0.5366441970450069 0.08782292154985782 -0.22166807516811105
0.3928131734360534 0.009396688867312264 -0.15418463425575624
0.5573175547098685 0.11514300569393754 -0.14837934171248435
0.5732111860091607 0.2066133992076118 -0.046984869134576
0.528660909682614 0.17368338646959103 -0.0942431611641723
0.6215691684935933 0.17938245984251466 -0.1929286535797985
0.6436297730156042 0.18372583821823696 -0.11365919329495
0.5348621389482417 0.19109993357524502 -0.08053401400374582
0.5855160661380978 0.20479054546990483 -0.1019401789978076
0.5667258351779907 0.11896819851148166 -0.16350434645622158
0.5874340706736092 0.1793007025916893 -0.11397559819431535
0.5797216246991326 0.17742717734695646 -0.1245507571124449
0.5232696090921394 0.12439105776348924 -0.14558761755844785
0.3942649641771965 0.03379036888455289 -0.1570345497736696
0.6559560696498323 0.1358775509404211 -0.2065445286081058
0.661503835396914 0.17907686470432793 -0.10579671389939449
0.5847352622575386 0.16101208931222288 -0.14221458667145725
0.603198477287691 0.19495235940379985 -0.10376106192666157
0.6508448530822051 0.20556637609030304 -0.12662376803916686
0.5958444212099039 0.20463247152777342 -0.05886340820620717
0.5956186337159011 0.11260315449310099 -0.21004505728166123
0.5848581226576925 0.11015663836835188 -0.17643098321048
0.651127860250142 0.23628112599563167 -0.08551878247166655
0.5594282744898891 0.15932838311327657 -0.11224523828354904
0.5676466200585395 0.1678149637265136 -0.13759967831828135
0.6756548110140699 0.2771529904158285 0.10422830367622282
0.5769120091289466 0.13890390803992148 -0.1838060911203172
0.5312405672991645 0.18290866665937244 -0.09989938833760448
0.5456505856931813 0.16573003077661497 -0.09051779734960519
0.4603223892024886 0.1489051512653674 -0.09110753113108672
0.4656427679089177 0.19122360504935898 -0.07665086664366072
0.5691913708525789 0.17897740466736423 -0.13140737620742016
0.6468673106282239 0.16389987951995977 -0.1705825727608783
0.6300370124810826 0.16110569911417372 -0.12784432947248092
0.5086815561165849 0.19046479719644083 -0.08695294307830181
0.6714153402252521 0.08892203480991157 -0.24297837747431572
0.5744446276598438 0.14572334051358382 -0.11921676797132363
0.489498791540143 0.132356214541403 -0.13365162633030536
0.6008251147709842 0.15186941984843827 -0.16299200208709408
0.6320757175011948 0.17049176554183987 -0.15372396680839984
0.5613141946544147 0.163919921756019 -0.14113282983765885
0.6356532361899241 0.14619252075834765 -0.11904219336918231
0.5791365544666718 0.1694516711639551 -0.1055756595510502
0.5387744476962553 0.14271481964725297 -0.13156576502512962
0.568579380610359 0.14766300558463286 -0.1348358468447941
0.5799261787206262 0.15302049827523945 -0.1293122071807602
0.5298400132591041 0.14517316582984563 -0.09025281512379024
0.6306604293886977 0.19509545573403386 -0.05623938498567327
0.6458721583951359 0.20199399834824305 -0.16877284851676677
0.5728209947182847 0.15201550205142667 -0.17730036346688394
1.0974243117475595 0.564172359851753 -0.29944747990757037
0.6353646177124972 0.2359557193764772 -0.18732362627366683
0.5928132921218321 0.12945384207475286 -0.15711976361430402
0.5823146411889724 0.1860202143066374 -0.1184301710071054
0.5172751779743976 0.18620138513827555 -0.05762626196224119
0.6205197450943842 0.20109101560649378 -0.08006107873939072
0.5278384389438031 0.08073834663184698 -0.14910112320364988
0.5806184585301821 0.19926947483271817 -0.12910144241635635
0.6341228115034028 0.0884960345673278 -0.20398474725473648
0.6135251067394734 0.13846176809201438 -0.17184630290273617
0.5504239735119825 0.20077677788130188 -0.11407801587367317
0.532386050867558 0.1702629359000838 -0.07765984789458003
0.7219363863788288 -0.09974586934889373 -0.2766134537822893
0.41364122907685896 -0.015929964416613984 -0.15554108689349277
0.638607071269945 0.15895308009049813 -0.19679414827402297
0.5540255274464414 0.16980288686875156 -0.12217148925134325
0.487241790109735 0.20169605221130382 -0.0980489671950977
0.5386816198338948 0.20320112719402061 -0.11759056251980837
0.5948124665699339 0.09461704575518581 -0.09168533199837725
0.7776644040997098 0.018564552598377304 -0.3867055026931894
0.5985569839537703 0.19434574532753857 -0.10243029252836777
0.48859981734021574 0.19877320909040463 -0.018539836161465928
0.5365307093018998 0.17982120499287646 -0.15316388443787332
0.6806211531397537 0.1267943188315428 -0.11582189121679676
0.5669828838272366 0.1538143045160183 -0.1264554907737363
0.4741134819313544 0.07930195261251072 -0.12728041163606463
0.5490687203777895 0.17071209718749003 -0.11912319915475678
0.5941686890450484 0.18882834500720946 -0.09996107428347045
0.9050771690256312 -0.17893022192991737 -0.3619809430905434
0.584222852644416 0.17725286764057557 -0.12411506506776959
0.5382292037555771 0.13113353118809812 -0.16404669521847381
0.5388112196144306 0.14737186715750283 -0.12509040080990985
0.5935631030350947 0.0687141805912006 -0.15519602069718985
0.5711140143077245 0.19248036654025213 -0.13959660939937635
0.6004921133513506 0.14964846838677204 -0.13463478343084034
0.5962928222240862 0.20684364839243585 -0.12379803767530007
0.5903757492956316 0.17660645636372863 -0.15055064600366563
0.6549295582277779 0.11534382432131451 -0.23783700756678172
0.5831720783093033 0.1588536737104107 -0.1136719160812163
0.5772702179961158 0.1994596716527326 -0.09020683930378937
0.5174401847619237 0.15150699950054047 -0.11919515065923747
0.632867149036457 0.11958961703166437 -0.17392384177057352
0.665832831648757 0.14828721607725015 -0.15979121245985084
0.6421928149399321 0.2703532934300483 -0.13287931973826517
0.49993330410420356 0.2867112031877781 -0.08315883672463542
0.6696868784422776 0.23956825024644957 -0.15947056511629398
0.6452460486895859 0.08492552805445541 -0.14650100254758058
0.5981675654021785 0.22988507545143477 -0.09013819609396023
0.6696540554824679 -0.00033396325851242636 -0.318116096783541
0.6382194382448318 0.18624734097264195 -0.16931195454091608
0.5705056378264857 0.17629022226583402 -0.11373894325308243
0.5916695285290814 0.1620083556660319 -0.09342255170662384
0.6589076674724623 0.16937499466017414 -0.1438944840045906
0.5655281280184141 0.1571035737541422 -0.1351163437749392
0.5894288949977948 0.1559648490664074 -0.14051556417055622
0.6048625724484253 0.16163490402219338 -0.1801369188510762
0.5942256792102683 0.14998435933537735 -0.1655329601657627
0.4573010882848507 0.225210812225356 -0.2352863170486046
0.6698325451953053 0.21362810310110092 -0.1786799286481653
0.5694700723012431 0.1737006432783943 -0.11814347451255003
0.4117840510931785 0.4825397739721069 0.1367758821196503
0.6031646340915273 0.1879683944062549 -0.14111272275775377
0.588381407718316 0.13807064539672353 -0.18653820336837157
0.5239849933520304 0.09802098765091216 -0.21963546068158735
0.6754699665341235 0.2534418205870992 0.013142756685311952
0.4885294618218978 0.13249891724190377 -0.2103659223134855
0.5833215408569288 0.1445277493703827 -0.1576296425519672
0.5678165972540086 0.18231094339149934 -0.10666141478793634
0.6624477694744826 0.18754028706371173 -0.12549679858207696
0.5805923454312563 0.18620043159889121 -0.08238438703804718
0.5430572401256768 0.11322009147369272 -0.18802674815995601
0.5175399872333486 0.13946569719530544 -0.1426977611250777
0.5674487485048729 0.1817080855883404 -0.09612739105304513
0.5124806305411767 0.19104803548844984 -0.07623712112899739
0.5396096599618119 0.1587792385499398 -0.12262892636795186
0.5330450164877476 0.20864082082276525 -0.05822147868786942
0.4776613487617425 0.20361401806273705 -0.08569414237183537
0.6223035019164058 0.2024633896530048 -0.1101186065710067
0.426185483300884 0.13005396470671826 -0.18541343308123714
0.5971057019076369 0.18284587395183394 -0.09921979060237618
0.6343998189809952 0.13316821799320167 -0.19866816120065778
0.5639113766394104 0.16162527692029016 -0.11250113207819368
0.6163961828245448 0.128065903115143 -0.19642398869248723
0.540893107919814 0.15057295904932744 -0.09091262434344571
0.580602823673118 0.08110169790325017 -0.16638600428137806
0.2493605230314273 0.18854404859085605 -0.5384141101149282
0.6083985180742246 0.1357049310408911 -0.15789923328080135
0.5722933938251487 0.18006809160385728 -0.10405964274065127
0.625119043629951 0.24745013876133726 -0.03382212060429879
0.49098247987978993 0.18943086032413703 -0.052592466666311566
0.5718120611305579 0.13082750602836768 -0.12814785494819603
0.6047719977017749 0.172109114705151 -0.13284488560788077
0.5043418099023143 0.2249102276299908 -0.119578397655971
0.6408798434880367 0.14026261103325055 -0.19480036508190324
0.578960780556045 0.21155269267674726 -0.04936285027960707
0.6403171249181412 0.2000497259453482 -0.11609184302727726
0.5638628917723878 0.19049426200847108 -0.10843211922551177
0.48884995190648795 0.17063973726790493 -0.18746968991231938
0.5961926979293963 0.19580982818351345 -0.08189079873875471
0.5418268982184742 0.1588621014112448 -0.0886094724291695
0.5905791028422698 0.2044547274003179 -0.11547269587737219
0.6923121092540612 0.1780673691483372 -0.1375590951132324
0.6008641004552544 0.1789558587836666 -0.10065777297006662
0.5889540407811609 0.1945706072140183 -0.11623445316345737
0.5773229521768855 0.16730625702365387 -0.16405688659907014
0.6020357575828967 0.11035280420618676 -0.17295088392603475
0.5857059581190072 0.1720954475049865 -0.1543442309428258
0.5820874951601667 0.15283465879893754 -0.15905156067327653
0.6521873274294592 0.22613634024239104 -0.13348596619286468
0.651599989767135 0.22245349325017116 -0.080615848130833
0.5234789513855276 0.13840457506354653 -0.10402315484182623
0.5914635822606442 0.2009795230080016 -0.11241544928540748
0.515465537650357 0.19181339775506956 -0.055720963017591885
0.5089797451137628 0.13032895318725934 -0.09851706365168411
0.5757989442831644 0.13496736028044154 -0.17347373726252613
0.5593169222021146 0.18217338168850006 -0.111557203112568
0.6745994438779945 0.21646414644500567 -0.11052311993341846
0.6607191098945293 0.1816793910144554 -0.10403684811072367
0.6134136222173794 0.11460443417117006 -0.16077014671580514
0.5709702986397218 0.176131903499666 -0.14311031187637013
0.5027084525233363 0.12324744707063928 -0.1714195804098324
0.5587115209790028 0.008500631804778891 -0.13061120700172069
0.5570707872101082 0.17877689502641658 -0.0930118937426414
0.5635925372091606 0.07158887829419314 -0.20811780456364204
0.6159112058989251 0.13770294141102113 -0.18241172489678092
0.5033783933800748 0.21347981187717835 -0.0396472579640772
0.5598269490348997 0.1656835515644275 -0.12676105606618648
0.4975626811927043 0.11360831340672917 -0.13450085410269708
0.6394664145258986 0.1548360380319167 -0.0775137498426659
0.5956819714884602 0.15219311597230956 -0.1383198228853928
0.4856639257385922 0.24096649732921094 -0.025504679473925762
0.6088862025756328 0.09799048468293847 -0.36655753713415606
0.7375298019256888 0.12903155035778013 -0.17571687730188046
0.613117321632501 0.15864975027778883 -0.17691127559845654
0.5625595353467219 0.16222801584686408 -0.11504858005605456
0.579625236416959 0.23733891430130427 -0.05161648961129117
0.5434794401984959 0.12306653582348304 -0.16342229390320995
0.63490204913073 0.27489603349319225 -0.055647154474456784
0.578689323681445 0.1170749114812395 -0.18877062638850362
0.5871238161436594 0.20863889141197944 -0.08953759625538282
0.5661317630411844 0.07653947166173225 -0.22237394874682082
0.5762623952238641 0.1416002357891415 -0.1504773651062692
0.6491980800854691 0.11146119007507593 -0.2197822265710272
0.5558718200123707 0.1525164530161902 -0.14607384057140393
0.5858214762545089 0.17492328927899337 -0.11067643499751512
0.5996376767180465 0.11191949921271771 -0.13930286843162776
0.5721450585479175 0.17556555706853771 -0.12502534849281233
0.41987803268561663 0.30602846187720445 0.08900837184771149
0.5237021459173974 0.13265945047821504 -0.06466855953408412
0.6254923122994427 0.11888773309799205 -0.30087246300325887
0.6005071611977542 0.2135971105441854 0.037758880880346624
0.5437709603588985 0.17212627609383446 -0.05366593377391382
0.6131720134251424 0.18082647774691907 -0.1347858405805482
0.6230600932044581 0.1881162640978431 -0.054590108992755404
0.5569809260364735 0.10748595041624753 -0.11105335882837153
0.5800234286765686 0.16724259151637 -0.1201383480236018
0.6195186663155567 0.146778396904935 -0.1794410936938391
0.569377885390125 0.16680281880593384 -0.1301273189913843
0.6358192731983223 0.1333781477281235 -0.16675893115882445
0.6069166328612567 0.13555670037473533 -0.17955322371824423
0.5859762443580081 0.18547416706292097 -0.1121397139279452
0.5766495391992805 0.08836048972038668 -0.18111162860236618
0.5589111174420651 0.17162380572760583 -0.13095936993522628
0.5295376301625367 0.1789208884455178 -0.08402538646836888
0.5837028585103354 0.16497460358603178 -0.1716032310201001
0.5932334821887792 0.18684076904408187 -0.13827511163935924
0.5907290303284469 0.1744330491683712 -0.11311574817889891
0.5567560735238857 0.13394956193175744 -0.1203680258508939
0.4575623051704554 0.10203130616935141 -0.29700096101743156
0.5688319164301134 0.13603366961720553 -0.16320419494007865
0.5435448900550739 0.18203411063898045 -0.09976592202309575
0.6376764222783038 0.2503305105611844 -0.09412606601526363
0.5813743189350333 0.11784261043078459 -0.2531558722198497
0.619904949776938 0.2008339587476229 -0.10672539730126118
0.6490433965065563 0.17830008203898728 -0.030918792571611675
0.5428926237320724 0.12915977032382386 -0.15903267651373199
0.5715176674779201 0.16477181695441345 -0.120727906935997
0.5598565120807137 0.18167368601847045 -0.11031842632436906
0.5642276367426007 0.22749669543712514 -0.03330151317976515
0.5335628296336523 0.15254378879832586 -0.12703624902630395
0.4698593470672279 0.07940022589363593 -0.13864172207414072
0.5862943826086138 0.19702938425037075 -0.12747234085307468
0.5583068945106504 0.1361452369041416 -0.12484956563096716
0.5652019021892443 0.19028756160818716 -0.13109907795160325
0.5425783091592677 0.14627520912070224 -0.10263891813369241
0.5600150936592598 0.17564122793598358 -0.12978087993639065
0.6073007056620128 0.19683406318145558 -0.12067211340837503
0.6138143752300778 0.16722287207255704 -0.10963226744752319
0.5209000847610099 0.15934930558211136 -0.13053456100584526
0.4793888358293259 0.10477912733537664 -0.16658219380755668
0.5304494397963566 0.10916742426046255 -0.19490481364923085
0.5698988421071931 0.12049024149750664 -0.19855267635588802
0.5165883577525392 0.18930553460580768 -0.09941857468334092
0.5468658953199821 0.22924836013147853 -0.06309564523803601
0.631068141169024 0.22400711811221186 -0.07600525886772402
0.6794322577526941 0.19393587930690614 -0.16263055930909331
0.5696077651467846 0.16968544595205515 -0.11233673487609508
0.5463321738165376 0.14268367440692487 -0.1448753641604128
0.5825999032073952 0.160161360507999 -0.13839779101559202
0.619325591977244 0.19090378148639786 -0.10354997729538695
0.6068868700285464 0.139652015573418 -0.14594038242651663
0.5875015106362582 0.22456983838225142 -0.07380247963047282
0.5476714357823909 0.17229010135693557 -0.11276792451400297
0.5868398054332999 0.14161771026749648 -0.16877960162284467
0.528791813281245 0.17777502067026774 -0.08835391984473517
0.5460730654848049 0.16415538620741188 -0.09585401112784098
0.6679132234382053 0.07987492159928422 -0.2252658753934611
0.5351325610064634 0.17511514011351892 -0.10608460729784497
0.6127993253504087 0.12860795494830768 -0.17273986331406377
0.543093416253555 0.12636606601058986 -0.10691796764049855
0.530329918942428 0.13194023198313687 -0.1603578739259035
0.5895907218493477 0.16229795004090874 -0.11872834427597923
0.5109064688025313 0.13634202987682897 -0.15322944987858023
0.5648680241502149 0.1670626459451512 -0.12267706312340465
0.536699854044798 0.1925830345489743 -0.08793950676454187
0.6011563004696114 0.15357983922463347 -0.1149561717587062
0.5806865879259391 0.17442082951519922 -0.14549680359309036
0.6171163762522696 0.1478936893435332 -0.1413704715295978
0.5807777195213077 0.16696025823880234 -0.12304336049399467
0.41755431313850977 0.17798593058934387 -0.05689925389847872
0.6529779706466314 0.1887019821432574 -0.13450346029009097
0.534228293970898 0.19246166874317794 -0.08181741144085208
0.34481903605404796 0.08126145680496677 -0.11485590667385281
0.573094764919901 0.15469580251780712 -0.12978102236382938
0.5677532990822982 0.14916003700913905 -0.134408861929046
0.5821212700204228 0.17402354244354967 -0.14378577716416885
0.5403318190734154 0.21614858224810973 -0.035018421172793524
0.5763498421880655 0.12746931994486488 -0.11997487153567477
0.6018516813142156 0.1706438445499998 -0.12931637790694595
0.5606783121798316 0.062915721725048 -0.17337591411271092
0.6947517043652311 0.1649771313086461 -0.2422276176079663
0.5003088662688384 0.10819195831071227 -0.15835636030084288
0.5120011859539915 0.20136454329600895 -0.058415837842602514
0.4896690886565551 0.06133147034304898 -0.17026299184070126
0.5455626042202368 0.04793552663288381 -0.2542800131488434
0.5821594161063501 0.10409492125452857 -0.14932024295248425
0.5328730556545906 0.15393317304749132 -0.12368352610786815
0.5121765815624144 0.058276505099215115 -0.14064851547806256
0.5376284792359769 0.12361116735488054 -0.1530577328242657
0.5311511473993278 0.19596872615635164 -0.07272311495927397
0.5481128106345352 0.20813444040511797 -0.11286466474220447
0.5588848773900139 0.15732648156804885 -0.12861100873854525
0.5773865958298074 0.2016663188471739 -0.053567217522868305
0.6013190935406385 0.1178172286851833 -0.15208474241825343
0.47528250230803337 0.08394081191454461 -0.15485808794173295
0.579310454167171 0.2591381167843281 -0.042925867464362
0.47747908638034176 0.21747411554811436 -0.20093400925387073
0.6837151836869424 0.1288669601760688 -0.23517627826311127
0.528982431428588 0.1344372298400458 -0.14202210953610006
0.5349850614180838 0.15211129500744391 -0.08970930516662179
0.5634738465887068 0.13702571211918269 -0.16318027041526761
0.5604690794113765 0.19944495401577456 -0.09001350058321123
0.6634309720778475 0.21673084607959936 -0.11154565698322472
0.5958133059344277 0.1787059684169492 -0.1014398764508826
0.5970802831854911 0.18420831608588628 -0.10736418868745545
0.6376554515616277 0.13167830685384274 -0.19319402538729946
0.6307379614601132 0.2548539528680891 -0.06660391701973367
0.5265513597587272 0.11553467088670288 -0.18980404449987986
0.5557042235505776 0.17277340984152545 -0.11856502028797422
0.5491923073665816 0.1589937549272804 -0.10217616409968855
0.6504898019472876 0.23051636504378337 -0.05786611763539895
0.5125599396249214 0.10011917601099185 -0.3293131385617869
0.6254740282446107 0.1372389519703887 -0.19255687396321264
0.5711595537224667 0.15748164324936909 -0.09521001821434538
0.5953058309927144 0.16644135417013217 -0.1518749095302212
0.6060693123140908 0.17945886666983313 -0.12764341529003786
0.5156873197796443 0.0748881395538632 -0.2030584559537374
0.56816028520538 0.08216911016444328 -0.13828752133355238
