# .PCD v0.7 - Point Cloud Data file format
VERSION .7
FIELDS x y z
SIZE 4 4 4 
TYPE F F F 
COUNT 1 1 1 
WIDTH 805
HEIGHT 1 
VIEWPOINT 0 0 0 1 0 0 0 
POINTS 805
DATA ascii 
0.490344720900751 0.052330678681329346 -0.17687336900218043
0.542154564711069 0.1443212118730628 -0.17564901562214175
0.6365593754791661 0.17170632094931193 -0.14111923888755484
0.5952929088989549 0.15595633693035893 -0.16561440166809405
0.5859868270182744 0.15455598816082272 -0.14053934920693223
0.5619762878587409 0.14745831482962046 -0.1926244680777245
0.6059644381961107 0.1943382411458856 -0.19059060380693893
0.5783133065587833 0.13687144619906633 -0.1658279995152725
0.5726822697243676 0.16342616500496376 -0.16751533787221717
0.5679515661081211 0.13690089512193993 -0.17406388575591336
0.5396818664865748 0.1132249722534624 -0.16880348189677363
0.6261294613590138 0.1499236108820554 -0.20101890329715388
0.5702962659127451 0.15584806960119124 -0.14416474837599935
0.6308222278654796 0.12769865627642218 -0.16382385990569048
0.6853217887215663 0.11655630531876682 -0.1579291940086307
0.5176739497279499 0.11601350506246888 -0.14275510186391216
0.6191982555577198 0.13437725627024122 -0.08939854102173683
0.6357279491176229 0.17408210107531374 -0.15527237955814144
0.5202521329480874 0.13228713280855686 -0.15689719401491686
0.6181832062768962 0.2279507399671843 -0.09954822714176714
0.5803144322349141 0.11897536146726395 -0.14621034736551053
0.41428454635324385 0.09833949209237858 -0.2215591559774026
0.5994443902179682 0.13467005201152915 -0.21957207084460606
0.5466890253913732 0.08724113195815164 -0.15013290207100738
0.5709030949813467 0.22388796859003435 -0.07057685202693165
0.656774462179925 0.18825020149191118 -0.1499949281768096
0.642673810576639 0.19412304363747523 -0.20815746816789726
0.6282330120575779 0.10625016700487322 -0.2536901334363364
0.542479938284302 0.1236139639233329 -0.17160838621055063
0.516147401656994 0.15050105336841568 -0.12541791176991524
0.5964324160068202 0.18328018246185707 -0.08516095873866902
0.5779530762539196 0.1524728894296743 -0.1439475584998462
0.32242465870329795 0.2361393601535582 -0.590219341511883
0.7373151427099742 0.26377049141191833 -0.11377196399794798
0.5209425931644489 0.1133115352671723 -0.12271364490487713
0.5245839591635075 0.004848233476167252 -0.15884621634481277
0.5742747586706685 0.14934279947517837 -0.15978971032303946
0.544276230921497 0.1611900452002999 -0.11171776614006035
0.49963188942689385 0.08321968537534019 -0.18428836530293324
0.47772044781919476 0.10129041049827947 -0.13728016184840897
0.6102449133735917 0.20202639196526206 -0.11084243335882604
0.6013197223438027 0.15585487557424926 -0.16735493162373416
0.6202034730918342 0.1390690466378146 -0.1439031767022385
0.5288029850274825 0.16649240851755565 -0.14550419718855778
0.3130855011727931 -0.3222308971544692 -0.47463088526207287
0.5350304517962741 0.12046149744986678 -0.14331201773873659
0.5880700255905111 0.18721302601589684 -0.12680108364743603
0.6354184846849336 0.159001901926203 -0.09073528392774222
0.6017583951467316 0.36191857846782227 -0.22609817811390087
0.5561607114041607 0.1598304796480079 -0.1321390025928224
0.5611441314373593 0.2050836944217167 -0.10379355267544099
0.5023137327817011 0.1267327329646264 -0.15405168855257045
0.5589904864713304 0.20273405674218736 -0.05526260184998932
0.541381988398868 0.1923462640374538 -0.11925886444856815
0.5281879021972458 0.12346869671810623 -0.1731697833616721
0.5595257529895434 0.05632873186308984 -0.2409790900954505
0.48482796477919976 0.30772088078281 -0.578241973159848
0.5928648550115838 0.11533473052165277 -0.275640303066055
0.5361803840962551 0.15724671094943687 -0.12407002242512988
0.6200294828044264 0.10269314286533415 -0.2069305803631778
0.5835235338433051 0.15029490259308886 -0.16369941982469527
0.6176223342389022 0.1991314786096865 -0.10471960719448248
0.5947935395574007 0.14494895306449962 -0.14222155215126975
0.596342731483162 0.12245164225059568 -0.173019968275284
0.6575038738794063 0.14538959891703485 -0.21119314131686906
0.4513622796721535 0.09451272625609874 -0.1560226533145368
0.525811575690156 0.2019213172382024 -0.04548372350038221
0.5222526777227756 0.17833541714033174 -0.14699573724082882
0.594008854735705 0.16008455836490043 -0.13791863945318994
0.3228234187030097 -0.21513635686949328 -0.2553736229930621
0.5581034583699278 0.1419893741322511 -0.14101603460568413
0.5717764743539817 0.1997883676350085 -0.1267505801826445
0.5981986068759255 0.17918366641728767 -0.14059004860141044
0.5332017717855138 0.1544062488607949 -0.11419053069798224
0.5435902536478068 0.14515785967547856 -0.11852838372905694
0.5676684453954977 0.14213422359767947 -0.19227502230950222
0.6064663363779488 0.15077111199325088 -0.14088530839472924
0.5391794106363221 0.1273999414782594 -0.13976715881601365
0.5515035717554042 0.10980779054371226 -0.1436651250764669
0.609362452825053 0.16576267187957683 -0.1757628796085129
0.49166128300171863 0.18613173543619155 -0.07521110394910124
0.538578733923714 0.13365365615247526 -0.11824162875284117
0.5612518996958613 0.1728185724315381 -0.13331195441656973
0.5952674696955853 0.16675853841417165 -0.13593965529358343
0.5412666478841999 0.165183665609149 -0.1569321476654153
0.5086208664038736 0.12928196487062849 -0.13778848106602481
0.6470132448597212 0.14012714353941647 -0.2929266615108759
0.5919142181056714 0.2592345300672605 -0.040566130298572034
0.5740185392417203 0.16297509304310154 -0.14446045526936757
0.550918230492556 0.13443793456595188 -0.14683982377593452
0.6072895827002043 0.15170418635841543 -0.16446756395824025
0.5800986508588721 0.1328621851680225 -0.13434488915473253
0.4839517281340733 0.09257257864943824 -0.13981523720309497
0.5204611411011371 0.14881913483237952 -0.11090004419924071
0.5486435021836655 0.12895196701458644 -0.16069543653729568
0.6120344348850324 0.1608572610779504 -0.13265565991794404
0.5077993446557514 0.15500959899718225 -0.11907938292841891
0.5707868478256444 0.15702661807431184 -0.13885541613448993
0.5080009400920886 0.16513204097151402 -0.10596645410851124
0.5671874804395856 0.1427645090348335 -0.126104371866802
0.5665400994292895 0.16161126659569902 -0.12365995616629277
0.6340242282717412 0.0945161506849388 -0.24787176134363165
0.5411615916360404 0.13703047969993065 -0.11452256341870282
0.5679380733996595 0.16398705300716188 -0.13329667176328996
0.5523248551234161 0.17447885140242647 -0.1919545975302981
0.563396858147982 0.16399101880514877 -0.12255124494987513
0.5274729093507204 0.08282297702093899 -0.18047736063795128
0.6030142172124329 0.16607208761418235 -0.1524197186439551
0.589048894297207 0.16522891209909574 -0.14285901912546706
0.6009654594517997 0.08316756728490304 -0.19983146738641722
0.537645047804304 0.1659243133574222 -0.0977903303599561
0.6025906343861891 0.19488446174902663 -0.1584968928227255
0.5104925789782868 0.29335071953597947 0.020783705911725292
0.5598140546041037 0.14474600147170236 -0.1432108366866487
0.5138190067871591 0.1185896615454709 -0.16886483408303832
0.5573173055195184 0.16943817032908726 -0.1341035381337008
0.5760337294146183 0.23775446969823122 -0.15221798516937213
0.48721146638430923 0.13725550748632998 -0.1328632531118501
0.6404016301995341 0.23022423845708317 -0.131574620083299
0.5086301690229789 0.19030772952712027 -0.10087938792156592
0.5440241590538761 0.17461998217342511 -0.07071351551763883
0.6057487618090533 0.17979523537272257 -0.14318391216342263
0.5832462451873255 0.18159618495917584 -0.1495490712104015
0.5577725266164606 0.16810149421543485 -0.16101126170998725
0.5154251150180613 0.1594184775572529 -0.13739967510346673
0.5612439795805813 0.14326531483165184 -0.1442826513820421
0.5261102919269405 0.19457817489984564 -0.08684662925365672
0.5797520973283099 0.02364796293935001 -0.20078718533882522
0.5875991261075058 0.10747088283598316 -0.23240891920424644
0.6246470688277697 0.19128135165757953 -0.09220977742536718
0.5870283940105026 0.18785643311316846 -0.12281641785553177
0.5306032858504466 0.1382260948127083 -0.10893269512618531
0.5469071647593893 0.12496980641135735 -0.17544627044766514
0.5638210597125806 0.14049793363189167 -0.1655813241653732
0.5415959885042412 0.13483686107495885 -0.13080816435218878
0.5528563110594291 0.16970283590278257 -0.14082840714181089
0.5820890579895632 0.22735727424782226 -0.06233479850439494
0.5612607712299535 0.12989563283232997 -0.16385641056217537
0.5704854545883506 0.1973199373610015 -0.16474503406907104
0.5671774850843008 0.13566036839033302 -0.1587463988065565
0.5447426294930295 0.10292678387841647 -0.21622436338874707
0.18880443682851933 -0.44089291457711965 -0.05329530145247929
0.5614283243511125 0.16261517444559104 -0.1385587274200475
0.5677648007742278 0.16263136488989005 -0.14304177231622361
0.33911883025619716 -0.1858288674228561 -0.29225447994811304
0.48377754034663667 0.12394037981657391 -0.12109566140790662
0.5733875436889662 0.19859144225428338 -0.13827345536299163
0.5456592402709219 0.18613354634952373 -0.1297746899033143
0.5014878173503661 0.1120029280245376 -0.07828069966356566
0.6492935727387703 0.17520381969372067 -0.10599097112941536
0.6241696359426783 0.1684509951745241 -0.1617545799337421
0.4956403304810806 0.16543926559589295 -0.10186399933246548
0.512955298098916 0.13416970628881586 -0.13418577376096152
0.6018318902227406 0.09970472082108017 -0.20090772650597444
0.5383449714297655 0.15438125749784604 -0.10982527108586737
0.5115395907849063 0.14831202896672835 -0.16913149015111628
0.6406241491517477 0.178925512376523 -0.11885971250956118
0.5904770958166807 0.17176994588221817 -0.1130965501143919
0.558293501896884 0.14385473715455532 -0.12353599919190117
0.679514043468842 0.20441498550242443 -0.15149531114094827
0.6131926712835281 0.19121122831617754 -0.12452096609692376
0.5538701878828078 0.18863629421191774 -0.08556387079114813
0.5623029345734949 0.19781059076535712 -0.15022725095987255
0.499974590216965 0.08926525680806208 -0.1727432624040972
0.6016070401760629 0.13885144971098384 -0.16554373753726281
0.6486853477606047 0.22126709427722346 -0.05745781501647684
0.5910303858442063 0.19169099232385634 -0.15777464622719606
0.555712785860976 0.1822031382390179 -0.09073069368611186
0.6179497773257623 0.23295226933471724 -0.09126224402865546
0.5401964035288387 0.13838868279377436 -0.1408359553948344
0.6180993104460839 0.15893523588860603 -0.14532305346567398
0.5815738579023986 0.17310927869941395 -0.12244691097821203
0.594740926589381 0.18078983528680226 -0.07189159091288388
0.6053185256765943 0.0985768269496674 -0.09917311786345806
0.6325325287721881 0.2503501754119526 -0.0016471381961054021
0.5750674577444954 0.1551972117762972 -0.13114655438117495
0.5780567491906794 0.2449500807302769 -0.0812090866370454
0.5382537979976689 0.15167151661947287 -0.10183184761488917
0.4225978955527694 0.058894117998846696 -0.1191935381891227
0.5671929844484396 0.1665578113845072 -0.11094350183481083
0.5894639388167491 0.146743411431828 -0.18957098791960902
0.566150931384783 0.17774353107624563 -0.12074242595235773
0.5352073009099314 0.14441029622912538 -0.17184030714985
0.5285556348713811 0.17911642088280644 -0.12921170352446154
0.60563515397115 0.25591406950601936 -0.09543884819676407
0.567503787901515 0.27981584861611 0.01608676523841268
0.5968732575060187 0.20487850846939182 -0.10825889074962447
0.49831996300996195 0.157278592500802 -0.06805961262016069
0.5612979982100512 0.173882568518124 -0.10787947672935161
0.661502131801214 0.2806009776206224 -0.020366277735405447
0.5317892656431411 0.2816004489917674 -0.1328358648511312
0.5474846397663953 0.17134965378028255 -0.11471655007342463
0.6570841280867086 0.2027276288962696 -0.14977643478556502
-0.21095644793106771 0.824767740574984 -0.6533527363599063
0.6045887152811389 0.16838266203178875 -0.13264629228063995
0.5879790772235509 0.1445221323323551 -0.1648533043320839
0.5149005346190876 0.12123950856417309 -0.18135073217617048
0.5928694501095322 0.14588046241769348 -0.1548286177217335
0.6033335509386575 0.13496095685303544 -0.17819608916094865
0.5723425722740672 0.14026998777183053 -0.16432773292028457
0.6333855043154983 0.1631246803038522 -0.05623421320041189
0.6564667496677572 0.2073232363459141 -0.0787147461568054
0.5326871059853744 0.15332252240351352 -0.1343601351020851
0.5649180203900386 0.14238980458293327 -0.134167537509029
0.5723833184667484 0.137921815922752 -0.1738493630352167
0.5873602156252673 0.20245307432296045 -0.017586207532872322
0.5827724657447391 0.15226611001077117 -0.13971463512297078
0.5880504143735834 0.17446013244008896 -0.1373538825955194
0.3138150179512422 0.2384626233083651 -0.14288160443899756
0.5761452161495981 0.12944892353600324 -0.07988548493534608
0.5478433733221806 0.14495158953479859 -0.14371412876415945
0.6033494804194532 0.19312294174997646 -0.10685747041519278
0.5598356847378909 0.16251579602045751 -0.11025610194988644
0.5494724327999592 0.17395812977410685 -0.11672578102124476
0.5899727640421446 0.12759681522396704 -0.1883240572185798
0.489137946573166 0.2705247568871698 -0.02995779163985901
0.547917351723683 0.11869717760190213 -0.14207335693839696
0.6004854631352856 0.22136034029037432 -0.07746849003811462
0.5596115352894344 0.1046239746682005 -0.16868252258949212
0.517603469506767 -0.06827498142253319 -0.1222683636923847
0.67774247187333 0.19132203631291134 -0.14560212599928946
0.6055865216219587 0.2600277885813824 -0.03867706630246914
0.5665618202519624 0.1326120931853012 -0.1523362358697966
0.5192562178527567 0.19674109773806947 -0.1072234046738032
0.5745510211509242 0.05998561445690598 -0.24373241741598406
0.558530350779435 0.16265272923338614 -0.13895990128973779
0.6253837144770102 -0.019783319151585488 -0.26141403072362834
0.5927689017987205 0.1410974955619082 -0.15058294192233745
0.6810770659494523 0.0956376239236505 -0.17636051670966424
0.5586652342294514 0.23006053608628463 0.06762976178472968
0.5288133043082297 0.11834830936587082 -0.1445316468382032
0.6155600094903946 0.19845263420968706 -0.07732885955678626
0.6219435090444989 0.1533602195985253 -0.18202681599029802
0.5201169780645358 0.17659845435596822 -0.0993342546533853
0.524041658690436 0.1511465305240307 -0.12200806833917
0.6330992576836394 0.07251037948829264 -0.16839067355496695
0.6772901849980144 0.14570998367594257 -0.21996474883833628
0.6198887156508448 0.21730943580051587 -0.10453953582434394
0.5433228438630664 0.13880405250074546 -0.17517035147379545
0.5443649052284627 0.17598535270688842 -0.10345660745765883
0.6361530284035553 0.18257063812667695 -0.18611157145110724
0.6556029511077384 0.32194936301192456 -0.12592769037769358
0.5704575707240735 0.16026234583343069 -0.13498627066724112
0.6262624523664044 0.13974183917723337 -0.16611191141510062
0.5286665096664223 0.1194940742937689 -0.13837070796768103
0.5424804671232124 0.16637591403366514 -0.1266269786194556
0.5727263618178284 0.14320102314910343 -0.12873927600125512
0.5273519432717961 0.09598156894364251 -0.07840225174645354
0.561933085258417 0.146512523991305 -0.144543506756861
0.6080233463866165 0.20531944081547238 -0.11737191575896588
0.5368353225038192 0.07352558141917598 -0.20468969198000764
0.6821795857738948 0.11005624190046603 -0.19309509513537648
0.5291919832494045 0.18191554460314308 -0.07565668658973834
0.6268139252534155 0.19247710496802029 -0.1300280694031244
0.5631115185010316 0.13543560622707673 -0.1548785434738278
0.5436023175159761 0.1363430411945501 -0.1635987016029503
0.4793885926700767 0.1372280807555626 -0.12898692093403952
0.6019016617036215 0.18441023975319126 -0.17009486039758315
0.6138248813107055 0.18428430106507676 -0.13151980029327603
0.5690596669578127 0.18446247070880872 -0.11485135533875734
0.6085779608004458 0.15849031512938438 -0.12401259667748832
0.6085956782074504 0.1853572224663793 -0.1201933489961533
0.5485241170312349 0.09897313359725501 -0.15937172642820485
0.529086386499614 0.15229926910510017 -0.13641242303884837
0.6715677691745299 0.19353936200994326 -0.18296423258104255
0.5600293373740755 0.1585828574293373 -0.13554336806961942
0.49305382986950974 0.13823737319678742 -0.1647605571380666
0.5392624782708282 0.15447904711058413 -0.10003936431333216
0.6056705861249867 0.11463715788806894 -0.19321409086849428
0.680475223241146 0.09297913100662925 -0.2668627990221779
0.5225167244520037 0.1943002900804629 -0.0782997094326987
0.5513063953628148 0.22646472893940484 0.02519698855176955
0.5940594435187165 0.1437852120047154 -0.12654159845911295
0.11310624440281458 -0.2375466060149165 -0.0664235618096285
0.4926195362689185 0.14528016448574022 -0.1155120070900324
0.571505786224364 0.1102830320426591 -0.17629141654597902
0.5931799978330048 0.1283942097045383 -0.18119619659114505
0.6027671501265388 0.2330791183214842 -0.0390642949461153
0.45326530757657224 0.20424843259016257 -0.2729674939294
0.5363108995855868 0.145022885981831 -0.12632001025062323
0.5708037670915758 0.15872918241734624 -0.13963012664147811
0.5633998148002064 0.11182734851657017 -0.21787001594883293
0.6194201882481991 0.12506958107124433 -0.2123509565814885
0.6021944069066194 0.18445556343192493 -0.1305650661530251
0.5689684744594103 0.09099112406212839 -0.14833089182087633
0.5803951415298485 0.1434802494920433 -0.15718141789783147
0.628682412974598 0.06610583266741799 -0.19060626070583453
0.6873602905937588 0.2061189279447717 -0.11030798298700972
0.5615208713036424 0.17680304702437866 -0.13945406467317412
0.6325125877473425 0.17011103743708134 -0.1823528929269287
0.566286894311105 0.1306779015742734 -0.15040447793882095
0.5370753149356347 0.1768850424442121 -0.07101538015217557
0.528665497619329 0.11832087529739965 -0.15752955574336625
0.6860413292925074 0.008609236926005792 -0.25777986751859316
0.5521422070913502 0.18210977579451537 -0.11109105983035761
0.4416628134317193 0.10466944571605552 -0.14595905929218134
0.6465015513735892 0.12230364816736028 -0.21670177113125533
0.5722733546020038 0.06030561118876676 -0.23248632580028072
0.5687228383737732 0.11490740735678173 -0.17484572183148828
0.5060689270405874 0.20216219158794502 -0.07289526605910623
0.5426621129187907 0.14834869093520808 -0.1498487777409423
0.5408125925780638 0.17345021030662622 -0.10628312807411078
0.6087289197070618 0.10197117754432838 -0.15697470134128366
0.5927005135840488 0.17401924075340958 -0.13731870232273025
0.44606758612667363 0.25669536217903044 -0.012985264889735504
0.5317664447259745 0.14286174706516874 -0.13065587286516234
0.5376549462656754 0.10567131784448236 -0.07617886332964474
0.5622946413288048 0.15817169133744358 -0.1857250181420369
0.5896651220072755 0.2189375527520525 -0.09293067817286271
0.5784533267726744 0.19621449995459272 -0.15655573966466818
0.6392623570995397 0.0975754218047058 -0.1892052958440047
0.5946211705504254 0.16973540695013867 -0.11395262672287743
0.5432119434392177 0.12925319000440538 -0.1444570199917763
0.5693111026973696 0.10401464932581916 -0.15906863399537485
0.5924975458876958 0.088200566266039 -0.19225001181052903
0.7190798448914961 0.23077567726895154 -0.10518381741884753
0.5836541485642925 0.1643405286378652 -0.11396191894159813
0.6025490485817926 0.21834850569041464 -0.22569677385840237
0.7000985801862214 0.21858125827802155 -0.12480667183791638
0.5991651022507227 0.1542193282571418 -0.09099840018288319
0.5195432563459121 0.11818968876488611 -0.14380371735012432
0.550565646723129 0.17055124073374373 -0.10990822931961475
0.6339738284426772 0.1268638364840342 -0.2968891907548965
0.5128992161780985 0.11113805859864101 -0.15435261060000016
0.5761142114956357 0.1464754892127189 -0.1391219977942768
0.534834397053487 0.1762929241083384 -0.10112164233454735
0.6308612252829988 0.1434371160771093 -0.2025646933548444
0.5637132818882833 0.13655483258030188 -0.13296585130002825
0.6129178470009862 0.1885444050944045 -0.11690488026590629
0.5746400874371318 0.16635463725374677 -0.13873803663389594
0.591472694375824 0.17342198885887683 -0.13003180266322545
0.5007542041458635 0.09848932269417787 -0.12389693548978187
0.557381686825579 0.12336030764198824 -0.14555405457174686
0.526614853605281 0.1076618518831225 -0.19731234137864817
0.5843075190001343 0.0982409722481492 -0.21694399826598953
0.5812069989098916 0.17792044084868053 -0.13337663972832559
0.5560683916228868 0.18042352829024821 -0.13882811594989164
0.5308156007473315 0.14210129296810692 -0.14799402405641615
0.6074922979032209 0.17430261835893646 -0.16048011974443455
0.5544517760112058 0.1460976401027807 -0.13010464466800897
0.8350022826356565 0.2679470161636601 -0.28049596403471355
0.5622148861542655 0.144841132284796 -0.12622317268983352
0.5631040283173689 0.14015777364913617 -0.13370963313438722
0.5812936736442822 0.18380068267765637 -0.07655306603942336
0.540089584237478 0.21338448642397623 -0.09973620800101912
0.5034567740099192 0.1507330334969197 -0.0865843811220941
0.5656630779211724 0.14544179298518145 -0.13032437294883437
0.525116118251006 0.1543556275589566 -0.12812442711867789
0.5068015495229048 0.1034899507236986 -0.11078209508585246
0.45183821499078647 0.1192700119403014 -0.1560058722880484
0.585839818925507 0.2291468923533131 -0.05794839325308487
0.49759161395716944 0.13464437611088442 -0.16721531354595243
0.5622935234315207 0.1892714594814464 -0.12566806313347456
0.5601003303098366 0.12478073326400363 -0.172175702727543
0.5314108177623496 0.05306793245298991 -0.200230261469045
0.5908683046392014 0.08263585412659324 -0.12852042567820376
0.5780815121319876 0.10609406406483401 -0.21179072861947645
0.5569486504856513 0.16942672662685254 -0.12140020052669342
0.5160021645370847 0.17163447898910533 -0.08339576158607542
0.5828067842168281 0.21642833112933602 -0.07153714452449833
0.6353488081258121 0.14079171768442222 -0.06599445887394495
0.5393856850763257 0.061600225244617945 -0.15881897484483432
0.6559683711933104 0.22183530359333758 -0.14179771741029867
0.5290503129394324 0.15358854609513628 -0.10318133616073055
0.5666108818040669 0.04616315979302499 -0.13772350556743618
0.644664732006035 0.22667689522279488 -0.10797248443149954
0.531216980258634 0.11499310146309938 -0.18379971584680277
0.5975788837337888 0.15563872766917086 -0.14122438816369254
0.5522994924253339 0.1932421700991398 -0.1019078724516902
0.5542188552394833 0.18615601248271219 -0.05280996665995019
0.6356651189572204 0.2021486687612395 -0.11390278806875642
0.5618597698928625 0.19332545223123532 -0.10477782992060725
0.5605613787998465 0.19943299946226034 -0.09749166584641955
0.5459056472440125 0.08806468077298746 -0.21066110832558138
0.5341316701109378 0.25110376246254873 -0.07722248359706896
0.6095565501765776 0.12767234464608634 -0.16859306235754445
0.6153773197662957 0.1319705037612522 -0.145717269829575
0.6574075044162981 0.18482046916315653 -0.12445723523278218
0.5037555387446417 0.1356225685335204 -0.09865634952319624
0.4222427670621869 0.20330381106758466 0.015425594416726085
0.574729463239251 0.1747367632462158 -0.14215704785151217
0.5958916151471243 0.1512264119912743 -0.15128793723030753
0.6061893612538825 0.13336619230159386 -0.15405433597676677
0.632681468023435 0.15120752306252427 -0.18974076671800333
0.6456599858732943 0.15584251676558836 -0.15433486924416684
0.4306027340269196 0.08560879738345761 -0.07477899455953718
0.611639359860888 0.21663585296285248 -0.07454838461080726
0.573777406184945 0.1611304530712232 -0.14044830011623333
0.5681240846390097 0.2929304595974571 -0.03369486926082743
0.4881104581562852 0.13996925924664083 -0.18266583395721625
0.5552620893828504 0.1510656611160215 -0.10195762631452965
0.6178253614341287 0.12544244493018653 -0.162796491565544
0.5847456343007167 0.1679270192358473 -0.13054060945037804
0.5870807449002058 0.15194297781586386 -0.17582199166561452
0.6076632147770766 0.09179256737647279 -0.09259947191297613
0.5755266026373533 0.17390460079673176 -0.10287142611218769
0.49981992227306193 0.130940433975951 -0.17411126823422762
0.5840538348841875 0.11600327834862867 -0.21651038136742784
0.5686198757887695 0.13412563169551106 -0.16600546072480427
0.6863541873809567 0.2878959529103895 -0.18887121145147034
0.6194013362908493 0.10212057688401899 -0.1778877322697383
0.1902766990665583 -0.18470710064622153 -0.20086942393110974
0.6475359184081526 0.13544940323630783 -0.1911135191898694
0.6927993037763116 0.21365349053409943 -0.11542216403429961
0.6895924373903313 0.16772686680567972 -0.1525804153954624
0.8319928562298173 0.6044976558352175 -0.10687777907256191
0.5722685501624625 0.20866349104923643 -0.14520362555909117
0.5970593834854157 0.10626442156653582 -0.2772051641131412
0.5796011246729762 0.35624365800674695 -0.12011504384926752
0.49445289548526716 0.1251633722569636 -0.1207030328545784
0.6569829680057779 0.15570184297969547 -0.15006875063799896
0.5858462122980939 0.13829157496813593 -0.14522297339357237
0.5507383575475728 0.1689913396171221 -0.15263802202774457
0.6674737641050541 0.2519034053081981 -0.1308012982975839
0.5811204986732577 0.14830240635873793 -0.13146745939211257
0.5760231274398251 0.14469579046294712 -0.13951088349534757
0.7004538141028149 0.16026922638582164 -0.1973869005393709
0.5729825438505429 0.1716345097877081 -0.12049209931618066
0.5873782116372297 0.10384851316420907 -0.17716995599101892
0.5334040233438202 0.20799856744059753 -0.0836974146511551
0.5695499687363252 0.14571037140258625 -0.1322035740493135
0.5940141218814858 0.1541644390350143 -0.13055312749702352
0.5585156759545384 0.12343620309560777 -0.1614530015357616
0.5818393960564663 0.20193821018409608 -0.08651146534366205
0.583456903875117 0.13163538915512163 -0.21022617873781257
0.5738860064311666 0.19128785944815263 -0.08552816904040128
0.555045161571698 0.16714960348734564 -0.11214063757989834
0.5536169777177946 0.20528824351670494 -0.0842147782976923
0.6065083784865379 0.1313855135544344 -0.1538875496760994
0.5583893994504905 0.1742760097678797 -0.09268998481209678
0.5506590324962986 0.13507360896780085 -0.1321784307979499
0.5582658853911937 0.14353580111028919 -0.17744434534485265
0.48409341076141743 0.149438072673874 -0.1358451119022277
0.6490792843513304 0.19675034618893505 -0.16146967250894306
0.5783874679443528 0.17321606204285445 -0.13783309752604112
0.575950205529935 0.1261983802873914 -0.14416494356839848
0.5901230880647717 0.13746953183795085 -0.16683810294247792
0.6856966335362813 0.20498358613011192 -0.12292343766488045
0.5722646471747481 0.1445208122958661 -0.1444979294844444
0.6213043473125168 0.12768190244615596 -0.21733132235027597
0.5284435026782148 0.1714800627073032 -0.14788229622180893
0.5425922684433999 0.13192908638296785 -0.14259420177351956
0.5780706785382961 0.15053930909236612 -0.1745182353980539
0.5399844805081102 0.1386712271273467 -0.1504522234104968
0.56938766728031 0.14988810093871052 -0.1397951175919161
0.5114118085997461 0.09766998983356245 -0.17284228650960642
0.6284472547439464 0.13314768242788944 -0.1817365025631119
0.5509720012365591 0.12527053236578922 -0.1531273170656675
0.5245163603809715 0.12589677442245772 -0.12231808814823353
0.5049381518293075 0.09733263095260725 -0.15813519916270025
0.5625934578823433 0.16864080735446407 -0.1290552127337179
0.5945309104416481 0.2318327002543299 -0.12090468598265147
0.5613634662752389 0.173507028275651 -0.13163914181181724
0.5092234730033169 0.14456363166270592 -0.11209964076607548
0.6070867431249383 0.1611330384049552 -0.12414288102212367
0.5682427409337691 0.15725480863663677 -0.14128883366353762
0.531385236212401 0.18925817829691027 -0.08706607164796765
0.5877257253948329 0.11209754206826972 -0.1755881293302366
0.5936706277001349 0.1663101372175646 -0.15622229700578316
0.5190736789117807 0.1847888889038245 -0.07811029864792829
0.5923653064465242 0.1717532265227817 -0.14693713526578733
0.622482529342534 0.20135723338603384 -0.14188665089878327
0.5719337215462303 0.10578106386796549 -0.19612560461165174
0.5605280234828314 0.1364410448883575 -0.14691626913052858
0.5395246239657041 0.171787757911531 -0.08680883951865326
0.6292169669068102 0.08179581888327903 -0.1628204713454977
0.6038574971473878 0.11998434767211563 -0.15695716124696446
0.5549884525752162 0.1662544578969829 -0.17437338232741695
0.5487916558090546 0.2299958866469609 0.007527052172690674
0.5465248766830797 0.18410654877537524 -0.0673144066949618
0.6408369831318765 0.19328207266846675 -0.14924347527595216
0.6515428801980221 0.2549306419047781 0.09427976036288044
0.6755031679428072 0.08399861375826845 -0.1335183182993802
0.5554660450597169 0.1555177055608965 -0.13132101026805287
0.5928718512879954 0.17908825781671567 -0.1162980455151228
0.5210356700749372 0.16850845558060712 -0.11516225839855565
0.5262089196267397 0.14765935887480452 -0.16086392436382368
0.5406090827238899 0.11399762708417427 -0.030415439157778223
0.5285550395431926 0.10442398569466604 -0.17419777580522577
0.5873030322169228 0.27063245707506667 -0.09312720805701247
0.5626433626330112 0.13909934262387935 -0.11582386872201766
0.5967823743204832 0.1418465187434208 -0.1645370606963894
0.5576946543888113 0.14755121169949348 -0.1670446468966844
0.5815334359182316 0.10955388028406787 -0.217170743944763
0.6111135276286177 0.16755060390457288 -0.16799925533783266
0.5169715381674678 0.1762098465401749 -0.11678924662101053
0.5188468498513572 0.12375349606533348 -0.13664875623720718
0.6073996035308227 0.13008115169050427 -0.15845082095081864
0.5319253954210126 0.11799029191318766 -0.14510460564464722
0.6380134998472471 0.10234370698182715 -0.2525119825977953
0.6636070000478611 0.2192185134671547 -0.04028740222807414
0.5823961589035207 0.14803361271711424 -0.16470856415472213
0.5597018442533965 0.1193509202107208 -0.1701906454159854
0.6178628148048517 0.24490405271036764 -0.10549610932399389
0.5327271737406107 0.2397447698709385 -0.09580193463474984
0.5578794452400331 0.08056427431456825 -0.20469270770315973
0.5992003268704877 0.13390033723068484 -0.167123618847981
0.5562080031825474 0.22453418409554615 -0.07009737619603129
0.6581475494756432 0.169745671294109 -0.12101046022458206
0.6105503971242712 0.2667405144559467 -0.05028510466776481
0.5331176219144282 0.07191405450267041 -0.16626971874180185
0.5548469528304025 0.10432203847881283 -0.20691470931303968
0.3948591727406665 -0.002980459701305449 -0.23473847075680965
0.559062256626774 0.12633491025658827 -0.17502489750825134
0.5572653683963864 0.13260327982047215 -0.14801376204624717
0.6254571641493669 0.21820788402571623 -0.1292408356032837
0.6856209116944569 0.193798159592788 -0.14338428834027184
0.5372098899823783 0.14200391254780698 -0.1424693050737318
0.5593814726067308 0.20993827717590818 -0.15199552426680896
0.4782647475164197 0.10946277979108743 -0.18078915064951673
0.6253967092389985 0.10229019107845261 -0.1954437279914032
0.557267815512958 0.10501727698520824 -0.18173156514583866
0.5535448538479955 0.15453530057121156 -0.1112769173757755
0.46854657240298536 0.22688579168496403 -0.00366535221391473
0.6051727838814003 0.24161704747531587 -0.06743102043753879
0.5963638523310806 0.18466564587683365 -0.10586877715589083
0.40487938137989943 0.11996632222901837 -0.15718580419171246
0.6024144872795034 0.24100726622474156 -0.09494767990585729
0.6039332422064945 0.15175706141170053 -0.16553005581550906
0.6164869080115807 0.1667392886660366 -0.17739722866895136
0.5792530359847632 0.08771113696032273 -0.21235584388242046
0.5062085098226419 0.21741867653109637 -0.0632122273311353
0.5793440966548928 0.14921707195983913 -0.1579717333001156
0.565026331155309 0.14254046717691438 -0.1431346099175954
0.5125426511539928 0.07615428854977324 -0.14420948276659828
0.4901879724032341 0.19702334517670295 -0.05175761001596868
0.8265042044494635 0.1646859284872022 -0.37298972756636317
1.195129117116963 0.32482813622104345 0.03935284107070913
0.5207510253648451 0.11601174355683952 -0.1795443125635927
0.5945447894736731 0.24390245851697046 -0.0730649977649449
0.6468262641345888 0.12689915158095744 -0.17215467768431836
0.5142503826157707 0.12877500373497242 -0.14455385849564095
0.5992084821429273 0.15574312152779157 -0.1417200748048657
0.551662214794149 0.15957965402274965 -0.1338061784573199
0.46703274621977187 0.11136196154907907 -0.12210592056452185
0.47832067109384013 0.1286849887713828 -0.1402328442408276
0.6030834948433323 0.1296814869928511 -0.1539610213191196
0.5594783554887783 0.26639385153723083 0.0026086139998966473
0.5853399535930492 0.12260730694160316 -0.1794981966663869
0.5371426566078554 0.12670425877335845 -0.17270221728018953
0.5118495148563085 0.22042491736240777 -0.054159191439140386
0.541159240178942 0.18949432304765423 -0.07904547871056877
0.7062401729198342 0.15843467837046887 -0.10868042776709785
0.6207643878876468 0.18330679847555587 -0.16544987665486133
0.6103661485486924 0.1587776561322869 -0.1437594134228135
0.6548266128341993 0.17202381198244154 -0.15815446112075904
0.7573193989207851 0.2968425260015124 -0.08247853279057438
0.5983268702067193 0.10086738251241911 -0.21775111436328132
0.5242702102016636 0.11537694557355849 -0.20578013580222887
0.5310918678755456 0.14415430113635352 -0.15576873854965356
0.5333922972039744 0.2119399990592825 -0.10015582068605511
0.4522344379301586 0.13614759690126732 -0.24358905425712862
0.5508846010640127 0.09434137443884083 -0.17701930904968322
0.5489482978891687 0.07962038932002713 -0.21643364812307198
0.47166792436503613 0.17634613126368492 -0.0931081434174672
0.5615195644863604 0.16636255076738848 -0.10240791530696924
0.543110064706724 0.14766867330469324 -0.1410699923880543
0.7779835034368574 0.24991863708414996 -0.26375852721369597
0.5709491411024885 0.151312275722006 -0.11282980809167498
0.611599735719409 0.28594166039701463 -0.14772637359435237
0.5820767419733528 0.20604646875924004 -0.08422991740063424
0.5380936101841343 0.15879869299395466 -0.06059259086175928
0.6015756959967291 0.1259985332037985 -0.1618227248377906
1.0068974331075538 0.4052225569190995 -0.6408194134808696
0.5540924207086704 0.15812841664835275 -0.1043210015502467
0.5631085100060602 0.14964962566384088 -0.14781023304944085
0.5219273034761613 0.16310287583824845 -0.12228287900209978
0.5313292495995512 0.2609772568838764 0.02892175602951852
0.5578069864296538 0.11589560742612548 -0.11779467786865894
0.5706925477372948 0.12449615510391254 -0.1649336264547685
0.5483352454592136 0.18038728133761595 -0.10796687450368836
0.6239601239278585 0.06898003594695012 -0.26751231788942675
0.5997167150299703 0.16768274472468647 -0.1287929893017008
0.5667022731860669 0.14869790607966138 -0.1429735791522404
0.5733493002252743 0.20216427742775522 -0.051954140795942294
0.7355495546254502 -0.0379157694225114 -0.3280697991352213
0.5668020029355318 0.16949860516886872 -0.1223589583114375
0.5917066197108625 0.12389023214250017 -0.21310429438209155
0.6068100097708822 0.10785825034298568 -0.2682434418214399
0.5262077891764676 0.11563821170466326 -0.14553213577607949
0.6231182409687221 0.11530037970113938 -0.21904783829367602
0.5311142385438359 0.21831140767466195 -0.0931929403706988
0.6260714299495902 0.20638300684312583 -0.10385628121629509
0.4809190338661722 0.12102583268128342 -0.17165998172298202
0.6378133526789327 0.11565302642431163 -0.1975470113830653
0.5636874845684758 0.18349305067454225 -0.1044796715503935
0.6270069075990108 0.21874443794840204 -0.10956662092125669
0.6044272330291989 0.20561660742913546 -0.10370096157889463
0.4382627807297581 0.20804764688956823 -0.12503768535692927
0.6287401150956526 0.14550350102069842 -0.16996664217715818
0.5832647053220512 0.16718794831338357 -0.13551607320400194
0.5080602524182893 0.13168109891732627 -0.14990063809428023
0.598801699181152 0.15720939895082608 -0.1977085677211079
0.5269274192718996 0.14224361762695992 -0.1277568430033682
0.5827416316883216 0.175422623244458 -0.12597794439932386
0.6416904768899485 0.124616525034142 -0.18006575177366813
0.6009893666801389 0.1481592944568888 -0.1536491849216759
0.5820221808495774 0.1468227184590205 -0.15763646754649585
0.581855807293806 0.10623583869302422 -0.19724561109698868
0.5611278762805512 0.1644321852700017 -0.1409497808081852
0.5666115509601042 0.145114748290311 -0.1501871672660542
0.5655810850322922 0.16337227831955659 -0.14076119370662354
0.5616580951523247 0.15484915617720674 -0.14026714489989445
0.591867213006438 0.17672629842645904 -0.06314905819647265
0.5703407733783337 0.07426165614418778 -0.28644052245974194
0.6310783631191583 0.13819334429589958 -0.16827236975370852
0.5755267135145914 0.14019724763836905 -0.14836256939153714
0.5805090957310313 0.16074556593598288 -0.17871379741303883
0.48098247200729816 0.10920080599946402 -0.14519323657734162
0.5605482495049756 0.19792914465371325 -0.10991799375057099
0.5201027533927771 0.14421792795711497 -0.11269791596916434
0.7928241238296323 0.17421411695835332 -0.05654853865027576
0.549667950811525 0.18716868544532872 -0.1285650231369999
0.582891925364379 0.16510176897422468 -0.14768320425585557
0.5742547815887917 0.13208482952613565 -0.1590452436916081
0.6637142655790456 0.1592520240254629 -0.1546626800776778
0.5689316250900305 0.13769746124850712 -0.19243625573443524
0.6073484687612734 0.1274221158511608 -0.2011050124273055
0.6936525713420849 0.19935666904670768 -0.18997601113235874
0.6150633524461568 0.18306911936200265 -0.16783606155871666
0.6171110439391185 0.17415279062949196 -0.16864224828567842
0.4915733182439652 0.17463540630788543 -0.0783819451965968
0.10447075576179543 0.1814863053150333 0.2998941471180956
0.5687953371043335 0.17756992759956347 -0.07240164146425343
0.7001512958937468 0.22707822603634042 -0.06502843621956345
0.5506141825656385 0.13923080095464968 -0.17751697143346234
0.4824668661043887 0.025142204589997164 -0.034936930800782307
0.6226259121279725 0.21735017199823403 -0.14109166998439093
0.5006496724653431 0.18191447655495097 -0.09974146093180991
0.6077224094333786 0.15416911244972198 -0.16794698444698497
0.7117162383703715 0.15648134105092026 -0.17987030456365005
0.5615618400473039 0.20321453118361887 -0.10767484942988403
0.6771951842308823 0.1929315504914655 -0.15021295602261375
0.5798226211033466 0.12377579404117967 -0.18835498081485014
0.5205583068377564 0.1132677080834128 -0.14983659240363068
0.548494385848258 0.1810395477409088 -0.08533225813896195
0.4833874334258894 0.11170732638730385 -0.1299716344046402
0.5995026756656046 0.12273493368368804 -0.15569604623956934
0.5625241785164405 0.155688439933229 -0.12713214905095072
0.5574315637693559 0.17988204313159883 -0.1165551405510854
0.5984453903032261 0.1199360981276385 -0.20234379602396757
0.5978388832060659 0.18967534941714348 -0.23105905012684502
0.5567494804091808 0.16508009200896367 -0.12717429042342587
0.5189178149495461 0.23367949817658484 0.05261206307851296
0.5562454646020001 0.11472942205638503 -0.1527630251414962
0.5584616530365452 0.16828551352539023 -0.1354493613789458
0.5743795234577647 0.1278206821759369 -0.1957603631216358
0.5638273499225619 0.15393674514439226 -0.15492572252608738
0.606047562696844 0.13403503318147614 -0.18786781919204998
0.5401473968829293 0.1921544395095509 -0.14464588031994197
0.6561165797899093 0.1532974911122409 -0.17718642714611121
0.7615136703469716 0.1982614498351296 -0.0744489990967736
0.5990628775972624 0.11990316013901747 -0.20196675153958665
0.708242439863767 0.16484843192131393 -0.026490883154963285
0.48484916417309876 0.1572463047073711 -0.09589031580097185
0.6034987489975521 0.1636045511026083 -0.11297196542069798
0.5187835226736155 0.14097469230200943 -0.12808973376573363
0.6073243358795679 0.17101465114929226 -0.11616172300703909
0.5631598576654966 0.15141016798082774 -0.13822885907677573
0.6345252109409074 0.12355649560640813 -0.14904465172318737
0.536091929310075 0.14979724107823245 -0.14122565558221822
0.6073116961519247 0.2658751256992815 -0.05983264502832242
0.6305902518035538 0.2562466669529897 -0.14009032491021856
0.5245254557195267 0.14367226828021273 -0.12816595639321804
0.564127564973461 0.14880491735351598 -0.13828804767040026
0.614177768472203 0.12620109135527002 -0.22494970515018053
0.54888595913161 0.21187533731053065 -0.11484296936286853
0.629685017056957 0.3899129922004505 0.35878940145966
0.559875024232511 0.21104119306421865 -0.11071107467685692
0.5554166645463567 0.1514516109277224 -0.11889915046408817
0.5648789520023598 0.14491649854177524 -0.19216185123326568
0.5881096050385253 0.19780303112158037 -0.11109967663597331
0.4640642026066928 0.08562859776614573 -0.1499998371372726
0.5884746955240416 0.14120064453946668 -0.1406967323627839
0.6272917094793087 0.16303342006642652 -0.10078437512294158
0.5738468926223419 0.13544013388484188 -0.14184040564047962
0.6070042172116956 0.15151478106980676 -0.09139009799878295
0.5808643427353957 0.14747414332276776 -0.15579455827170818
0.5280428743684098 0.15043789845327638 -0.09125559326434995
0.6877516319675152 0.11548081080074724 -0.15556460078086332
0.5955382625906793 0.13678442472028962 -0.14689442885102721
0.5697779244984247 0.1520289548336251 -0.14963522340254087
0.32160136197640554 0.07976791559075025 0.03359746736556701
0.575274947120235 0.15359229417194342 -0.14317120110423787
0.6026365025994522 0.14125617007712776 -0.1477308402509152
0.5375618428747373 0.099171140661511 -0.20494135962763949
0.5343974704112924 0.12556205523418384 -0.1858742883441522
0.6611817904073547 0.1591563281221937 -0.14258665725219544
0.5372123013546712 0.11476567951415007 -0.16148446553984286
0.6079707387002031 0.18208765429120888 -0.1222921781718469
0.5710711339029757 0.15802512223365284 -0.12815762652964224
0.5009738363534524 0.12947068821803498 -0.08912259612618811
0.5096625146025815 0.1356268071371005 -0.1444720561196391
0.6526701191116899 0.2050401397691104 -0.07195423698030368
0.5381247090463717 0.13538303433971066 -0.14500993997542366
0.5563345215541915 0.14983370116775063 -0.1413916163072031
0.6000926002271143 0.2729330995277053 -0.15136675242875697
0.5755423347507787 0.11901546847487054 -0.2170361030857606
0.5004979026433887 0.16169443865761934 -0.10970480849813669
0.590729710730912 0.17964937579844786 -0.12755683031076614
0.5101909861246554 0.08469321430135324 -0.18069507552345954
0.6548763699557725 0.1940994495306967 -0.16847707667882617
0.5657863100370122 0.13038298229443512 -0.16128938015434358
0.4975683765853347 0.21567783220898207 -0.08343042558750824
0.5080415356185313 0.12981875833548884 -0.14329471422313134
0.5506913379477254 0.18624863828001992 -0.05736870528822635
0.5604642870716674 0.14108969160101026 -0.12999801082388274
0.5955457100422308 0.21034646355961684 -0.10111082692012019
0.411211207145854 0.23483085246635937 0.12253003729452416
0.5421196077300152 0.1759099995204707 -0.06948248896070197
0.5610643500615993 0.14375498723597957 -0.14265200709918702
0.6244733606999233 0.2960240854741869 -0.14047900797240231
0.5981846260872317 0.2334850610340311 -0.08753230345294583
0.5508686014186992 0.16451149743753035 -0.1237701750793434
0.5474658196622926 0.1549745494610164 -0.11647245660888927
0.6556226319662102 0.19078751819264994 -0.11954440481135009
0.5820711209676404 0.16536940777152154 -0.10098519374362525
0.5326448689588688 0.32929322491706614 -0.04666254136760983
0.6767475579036386 0.05817560292223334 -0.1956361422754327
0.5385656865789343 0.18252485768518056 -0.05430544532156034
0.5463168907471072 0.1641377011815166 -0.10047799045358374
0.6100845151423471 0.2003902618143627 -0.0764824786290319
0.5607606956111084 0.13402311597924665 -0.14447618966345033
0.4983831158991876 0.12047657275813606 -0.22098251546941583
0.6359570465511695 0.24187925992765713 -0.1325773706972342
0.6138879122377858 0.219855019163802 -0.11141241120816403
0.5510200443002304 0.151389726856749 -0.12791932318695842
0.5887634386455716 0.22069099261359781 -0.09605802781578632
0.5864738904313214 0.16852249154644028 -0.17330748962119458
0.698361626705676 0.2338642623847278 -0.12559686058446573
0.5667351233802975 0.1585349472041031 -0.1235255142717051
0.5125941705982626 0.12481282597768484 -0.14965891930640396
0.5292660568100445 0.09565827689760908 -0.19462482965637662
0.5674763823754319 0.15115372081595524 -0.1266633511747841
0.5140063833802344 0.12048012003408815 -0.19554778315531962
0.687554838938226 0.3841632190693076 -0.02389620669589476
0.6244492114065991 0.09353758351063846 -0.19504209305671338
0.5425408280302975 0.17140403204395227 -0.16856890520412549
0.5570563594588265 0.16461027162844744 -0.08431391679931721
0.5261412913826291 0.3896128524142739 -0.1018116934601494
0.6062183532288401 0.22100540026832505 -0.12515366857655863
0.5637863380308232 0.16525732795088288 -0.1433850836848478
0.5759323054195562 0.18031262118495306 -0.11842705023295252
0.5660827787935574 0.21878856082588527 -0.07122096977244041
0.4655084278014101 0.07882765948724568 0.0057021417100742156
0.0031263153892524542 -0.19787927800952332 -0.4521679785232493
0.43323023163210905 0.07941476599067698 -0.261174936695582
0.8572759445002305 0.31817247768172763 -0.18909421737382104
0.5102108631196955 0.08887321037950358 -0.13048926713241826
0.5607151641009978 0.14787633727029004 -0.14877317798109857
0.5781083909629814 0.16817691459719697 -0.14959978544045782
0.5461168863615598 0.14002762387119105 -0.15838309901690195
0.5494671732864873 0.06175077734773993 -0.1531474335123164
0.572407560976842 0.15517984527596695 -0.1237412832251863
0.5473728465210854 0.14595049620839973 -0.2015595136095243
0.5637266519542123 0.15361138480194825 -0.12986252470670934
0.5799214061602669 0.15300184420398466 -0.15411981663804397
0.4924100420465294 0.182809387726806 -0.08684654179448614
0.6044033330776273 0.14431962352385597 -0.1331673922797023
0.6387530302348523 0.15804258591846576 -0.1539050461807392
0.5647080207519082 0.15026232750133772 -0.10933249642415888
0.6428409268272759 0.21871356686001775 -0.1490334999066505
0.5464044871151259 0.10839383574644046 -0.18328499233486184
0.5554738882060235 0.14266531375079694 -0.13619310048848376
0.5617656830971498 0.20390852826871253 -0.05347995720656229
0.7316087552288053 0.25981113027910396 -0.05563841444636353
0.5545590341220077 0.1451271728805068 -0.14001687339334978
0.5769981258676466 0.15258147946208567 -0.13351562599312672
0.554668181275602 0.14658040321647547 -0.1420858186966143
0.5842744953292396 0.1493871259875874 -0.19326293848351384
0.5706575328644306 0.1323542193622984 -0.16302955175123657
0.49436779032444633 0.1855802491728724 -0.05621694512359454
0.5844843990341531 0.16410291999918059 -0.13868007107475933
0.6106667480204209 0.1883166949316717 -0.12123064392079641
0.5030700183415462 0.1394412008933017 -0.12523629306912198
0.6036302917806324 0.11685646254069582 -0.230506051424328
0.6303634866138452 0.13508653194961084 -0.18908208616750244
0.5232182701564199 0.14986177778831689 -0.1419751221432648
0.5654143170670523 0.11885847600272825 -0.14169359065509468
0.6248664128438293 0.12875807607196066 -0.2118132228822276
0.5123705152523002 0.12638308732906012 -0.13444729617302187
0.5991898918303065 0.1290218990881442 -0.17374131672033855
0.6610923368593404 0.3354281462037818 -0.08867960757693538
0.49922502170952043 0.15209598792529277 -0.11752701438463475
0.4384417342309632 0.15989458955434088 -0.12403544980938364
0.5191221307796923 0.16643913805960153 -0.12363859498942986
0.5997518129305632 0.1716141250872596 -0.24996933304602464
0.5087780875660854 0.22491488017504935 0.0025319027696326657
0.5599768638693092 0.29093737490083527 0.014547475307495006
0.5934094230355242 0.3237050016443277 -0.034817266561290694
0.619808525786965 0.11658189773886818 -0.1696947391378103
0.5816794192664076 0.10904432852608181 -0.1933393219818953
0.5308613200749903 0.1302988241630203 -0.14441357470597893
0.5764679289902972 0.1329868180713305 -0.17440389409364343
0.5621431014239846 0.11613692004185339 -0.1588507948025324
0.5862143374337592 0.17323462110780952 -0.12954900755444498
0.5201230568890054 0.12623528466212974 -0.14752630156876023
0.5377492979671672 0.17296293841909005 -0.1348455654072609
0.5662498480634497 0.18160155652923038 -0.1078237621067899
0.6140113975347248 0.08267074754800774 -0.15023261759473883
0.6193288794982266 0.19996543746468376 -0.05531869367077036
0.48462596959264204 0.11394121932946177 -0.16061590519650792
0.5414764760038082 0.11980464898789478 -0.15993332075983346
0.5771383380602231 0.1513289026961786 -0.13863523320546278
0.5727746547690771 0.13166233900452085 -0.12287605429845883
