# .PCD v0.7 - Point Cloud Data file format
VERSION .7
FIELDS x y z
SIZE 4 4 4 
TYPE F F F 
COUNT 1 1 1 
WIDTH 804
HEIGHT 1 
VIEWPOINT 0 0 0 1 0 0 0 
POINTS 804
DATA ascii 
0.5569422790710803 0.13593177974053106 -0.1692688030934164
0.4773987822534025 0.012899600518338161 -0.27711741043690097
0.5424625500496916 0.15971693912315743 -0.11317428401247298
0.566937274174407 0.15683573407048357 -0.13951095219893261
0.42694295357431145 0.10672682242250175 -0.12952287234543292
0.5989953374254213 0.12247560798695645 -0.21978089578215076
0.5056661886610812 0.08790484567656165 -0.15732304275441322
0.5554553358506382 0.15003560596122156 -0.13855237892421712
0.5924236286565332 0.20015331844760453 -0.045752262935579324
0.5488720445237618 0.13318619266397036 -0.14547936563816677
0.5434632894971969 0.08556133042692693 -0.2150471397865914
0.46713637800310437 0.06999382771167006 -0.21849542917068732
0.6126555372542413 0.15440217132834277 -0.13579190173507527
0.5310514853138955 0.1061170421326949 -0.1556775341552168
0.5651506278599072 0.1823322747701468 -0.12325846369768101
0.5722180243474213 0.13359242336996147 -0.14017753109149567
0.5686024385424133 0.0385976758401938 -0.2663550049751393
0.5724032275474684 0.21801581756929522 -0.05616352955662762
0.5507830335329089 0.11906412247384424 -0.15317673762922368
0.5426288388480032 0.09034824575043388 -0.14796046741599866
0.5844059104052377 0.12572895083043534 -0.19282965812735142
0.47006816957407693 0.11141879546828193 -0.14858756579671706
0.5384138081648189 0.16320151025946927 -0.14421038090269178
0.5121204686667511 0.11707046113900788 -0.15139827122806082
0.5721340060261042 0.10102859172425838 -0.08341228325622296
0.614131966559782 0.13567657543752887 -0.16614959706863885
0.6277233170281988 0.17431687735420098 -0.11680324011211951
0.547722133164342 0.1430517418550039 -0.13336285522336766
0.5361980418736323 0.16824514189109152 -0.11556555240674982
0.5563203406266126 0.12484284761791287 -0.07144261231829319
0.6108803238076064 0.04912441813114299 -0.1435308682162315
0.4962234125808891 0.11143734077622014 -0.17574313456240986
0.5089979883255609 0.14671383421651285 -0.1321128341866853
0.5581597297922656 0.15649637591880605 -0.1472463726317983
0.5251925000013244 0.16733075866535785 -0.4384202046523029
0.564182091046888 0.10043119222912367 -0.12742678591000356
0.5735313820676851 0.117665120566528 -0.20392213828989725
0.45148956362831427 0.06740363406474614 -0.15206952860384604
0.5879984958953628 0.16551564399028962 -0.12296207549820792
0.6198717155095892 0.16180728175095282 -0.14433511222740947
0.5879762993805997 0.13657170586149903 -0.1495299645161623
0.5438826413518996 0.19599913050063833 -0.06527501760780297
0.523159525483635 0.1593202722996665 -0.08386957715833887
0.5466889918817657 0.1106358017337925 -0.14522815597135263
0.7423261432327735 0.3499826820373215 -0.5435628691506338
0.5414603758354986 0.11614426309112957 -0.15316263507664019
0.588784643698375 0.1429650785276948 -0.18232804981742845
0.5872042489904601 0.16226895179423195 -0.11748692841446484
0.5528442593166147 0.11604397504677877 -0.1501158730071097
0.5509025927159428 0.2592615908378235 -0.030131169259320245
0.6058009082529452 0.15919734280244313 -0.08117854741506392
0.6896470056169761 0.25828369883271307 -0.1723025892837029
0.5665450637931713 0.12834694819449055 -0.1509815187921646
0.5530860116833765 0.13306790553198766 -0.1264464313326954
0.6648702499888515 0.5437945279302028 -0.15702928230494706
0.5554180190497249 0.15627224199205614 -0.14110857558463863
0.6085861369700325 0.1325090231924264 -0.188727657669034
0.45823288237599513 0.11338446610530184 -0.13498062311003878
0.562044147633074 0.10762027662578078 -0.17843552890077774
0.48938373816518776 0.1273646622770599 -0.17003838439006813
0.5735347308092145 0.08023373116230914 -0.21473665367589945
0.6214258932703558 0.17986444248657563 -0.15719810718799465
0.5549238135294843 0.09443015016303491 -0.20069351839444494
0.56676483182585 0.14365754186246704 -0.13196003637604292
0.5708612397119168 0.059452691326228546 -0.18353648966257197
0.6366251474885019 0.22812531372917988 -0.14952414889691568
0.5185040069341653 0.22895789593434301 -0.050998281691519765
0.6382282244924369 0.22303620238854194 -0.02938190282402786
0.4991977144911175 0.11766350102554668 -0.14787228657569074
0.5698490289733229 0.21468003688910642 -0.11934997275665182
0.4732455962528803 0.13994482681762577 -0.08541539830443412
0.6289767639310924 0.19560856226104306 -0.17620412670153485
0.6367899328951125 0.2082348002737433 -0.13091765675470413
0.6077926046672957 0.248686343737063 -0.07286513713131626
0.534939814179225 0.10350965293805814 -0.17235019857518807
0.571259084450702 0.13756153591663178 -0.13888382011023737
0.5664366279267199 0.16381711664267584 -0.11375563677971456
0.6526839918577707 0.18032390954067523 -0.18300749093104685
0.5592353534713936 0.16707560926909082 -0.13033365421331666
0.5088716052872684 0.051548138299693846 -0.11825370585056305
0.5430592872682638 0.1337951369933421 -0.15511330957595248
0.5322737086679155 0.05802422407182917 -0.22769672489725679
0.5870821792888421 0.1602947367816654 -0.1393165374128671
0.6355063707519548 0.13292401960086409 -0.17141091973653033
0.4343559318523802 0.059086520409167065 -0.16149561654688682
0.5359891234444376 0.1702990248558791 -0.10200482791994148
0.5803974973984367 0.16626064667937612 -0.14557631959290518
0.5946611410577134 0.15284909111670686 -0.13487162456765134
0.5563438733516506 0.16868021092385277 -0.13499125696459657
1.0497605452801508 0.6813903248315825 0.0344413340162788
0.5372521420114538 0.14360183279990224 -0.1222201952294455
0.5971558329152344 0.24713232945232733 -0.19233246384948188
0.7359873445616074 0.37712908311668514 0.16722962451532908
0.6223044139926657 0.21914810839747645 -0.15632960795038287
0.49641902826743944 0.13284032794079792 -0.16919607041867835
0.42785833886888724 0.06419379758675348 -0.1236932185093167
0.7006024907749264 0.1755705348287222 -0.07662596848278724
0.37304127342014226 0.1283802460266088 -0.1412801981982028
0.5485782194975997 0.11891235335239969 -0.13826125634982134
0.6264491307113644 0.1739946849413343 -0.20119788282673312
0.5828929182627292 0.19766967941190217 -0.08289763518203586
0.5497366642030528 0.13210456057842634 -0.14797338820460482
0.5071300744176312 0.13804537018449992 -0.14314941792787295
0.48339819301718023 0.1202162160664102 -0.1469734670135523
0.48684025525621166 0.14967246978257265 -0.12277885575019809
0.3644413091172396 0.13813209631722145 -0.15637705470415142
0.5347223074368515 0.16949991037424184 -0.09198116767070985
0.5666347218165697 0.1646034210929912 -0.09366020613684611
0.6407028307946803 0.1618299679049926 -0.1982671237181961
0.6702889751336727 0.06442022744384701 -0.2901731033473567
0.6217722180283118 0.16855417077164248 -0.0903373895909283
0.49783825748201593 0.1317043033253782 -0.13442328114867053
0.4371648662171026 0.10863260645847106 -0.15200936369151918
0.5550943913647615 0.14796317883740073 -0.13442963804224917
0.565741434054928 0.15493582263010808 -0.11944945359317671
0.5763252170143858 0.16696098499380696 -0.14935952302028
0.5004246248022639 0.09924068694330401 -0.017462960257034865
0.5678448489920811 0.07945898893611059 -0.20286063281294275
0.47616023179789124 0.11040053390742344 -0.13265319126784902
0.5604683817408755 0.1396692413663203 -0.13642192939721554
0.6544444808604197 0.2740620217390273 -0.06867667089295537
0.5354085193678344 0.1161230594951661 -0.16170731289668083
0.6370142544240309 0.13165841856819327 -0.13106280868434794
0.48685545360518745 0.14203778233923003 -0.10553035264071298
0.43546877225719527 -0.3595852860567561 0.637973724349223
0.6113868689424891 0.10991120763750928 -0.19915282948261392
0.5812563197230247 0.14658120851494516 -0.14131985794797686
0.566693044457736 0.15696972456136393 -0.138807274456056
0.6421491904957577 0.22606962054598512 -0.10741587084231696
0.5742995052849267 0.15521764620990552 -0.17912421527144318
0.5299222470363105 0.16507343851453982 -0.15104001580507997
0.5505250438123852 0.10966399634216373 -0.18819877286173892
0.5881102157935487 0.22672641355828205 -0.0632081176996735
0.5705082798884717 0.17808364227849438 -0.13668415664740508
0.5815902000460795 0.165325835501406 -0.21115225733932164
0.5561224104349662 0.14443352576822122 -0.09835240175884508
0.6099596714396682 0.14277334525438334 -0.15956431999353526
0.5784716385750386 0.14404214434597407 -0.1754361031271401
0.4389306395622583 0.107493220328152 -0.14413821175071462
0.5450434519149923 0.1641157644644835 -0.14314010498169694
0.5896332483521292 0.19511937508157473 -0.08882184897051104
0.585391444942772 0.05516395751160985 -0.22290102610806173
0.6658945337161981 0.2105369858670798 -0.15027005004661476
0.4798753027980638 0.12570761737744363 -0.13203593142475256
0.7947206883811475 0.1991293421966276 -0.40592749453429633
0.5852208256365401 0.19769031662733028 0.08844850148878436
0.6676540932756865 0.1970571960249714 -0.16360461940756466
0.556196414911355 0.19105557668270023 -0.12285401577592836
0.5909955377421596 0.19897990530550658 -0.15349965833824797
0.5896693421963164 0.14616018257351016 -0.19684292556657113
0.5848789199345816 0.16518120583560858 -0.15829760899890744
0.6024845390761442 0.14543626720275427 -0.18238875622026285
0.5455462381521841 -0.04105576259030386 -0.3375329130794711
0.4596902748306064 0.11775515303112627 -0.0645005586660119
0.5085057195747424 0.14645154418930417 -0.09328163208577678
0.6185635843788617 0.16569305419473324 -0.12878997504478207
0.5629279717949203 0.1567304183809739 -0.14434193436230203
0.49475195111809 0.10676236954471108 -0.22966402440745526
0.5204256174087334 0.15434662689568768 -0.11085919555650037
0.4668728375382756 0.10894652921611225 -0.09786440056186052
0.43744054070620564 0.18286644229289095 -0.10126499785953058
0.5662152868257806 0.14259558894330837 -0.1541693181402195
0.5630256177941675 0.10402834208187528 -0.1599486400286878
0.6366669497168687 0.07635621874480591 0.055047265962699043
0.5601965799258579 0.1462368930686324 -0.11214731427105562
0.5530263929506276 0.172555200084048 -0.11418499287324835
0.49337380028740085 0.1026531336112555 -0.13364996092593628
0.5867264193192199 0.1735509965066626 -0.016445070609947265
0.5427609910844495 0.14129390617279114 -0.12662202431350522
0.630983525636637 0.15853019428350024 -0.15482664386030365
0.6146372393077257 0.21342915920996575 -0.12593803481871646
0.6488892571227751 0.16687141780843717 -0.17099181722868195
0.5737841274661974 0.12109437707283632 -0.17730395882567507
0.6236071662913503 0.16343611813107373 -0.16903000992168415
0.4933946237187854 0.16430754071456022 -0.09766669868083966
0.5177659895292379 0.06277762252490504 -0.1344147062884815
0.5783367361374872 0.1739239655019844 -0.12382823044769964
0.5710054797405348 0.16140305641100383 -0.1270105718550667
0.5583278712487925 0.2129629128288144 -0.022306578289757795
0.5864500732184581 0.1503142681200842 -0.1372035153652007
0.5701231154382214 0.1659169591872427 -0.14531630113697247
0.6103187652489765 0.1812388033000758 -0.1371083019012218
0.5616303909254583 0.1414441907082704 -0.14880245590265417
0.551080914457998 0.1678101902716378 -0.1096889173988842
0.5048510609482548 0.1329533078587133 -0.11111442776967806
0.5286151308955738 0.19347289095756537 -0.10270010944064722
0.6016078934439264 0.17346709952811068 -0.12141831717927687
0.6019726754608854 0.18216424643436824 -0.12342305423520372
0.6606151673775571 0.3552438747208839 -0.02902336096234137
0.5515547669973841 0.12276684636620416 -0.18026837192087442
0.6215610430094358 0.13013050931765235 -0.1853251237166944
0.6004572126338985 0.13488207105366712 -0.1517180832737779
0.49247073099235195 0.13969537229858986 -0.09982471702683426
0.5613643566973536 0.1747161667350241 -0.06650769049331018
0.5650692952194731 0.1399213321772379 -0.09722491696311408
0.5146621641987679 0.09554887058983752 -0.16227458489498758
0.582323631282577 0.1396106054810815 -0.10762611464107863
0.5773093906343689 0.21953936041266786 -0.07981148288969564
0.5751185162698249 0.11353523950165822 -0.16503366118848817
0.5408720634274147 0.10033136947502896 -0.1507698341707595
0.5391853035787761 0.1582574014500011 -0.10834865911847658
0.5961688732508605 0.16246152702868244 -0.1495683578025222
0.5656204610352233 0.14162787233790652 -0.12480096962201515
0.5556188249198613 0.1729478953905499 -0.14552617501220766
0.5563854949324991 0.19818750465086055 -0.06637154626628217
0.5555772906606506 0.1607756587119411 -0.1031145335449537
0.5903870082385083 0.14059490568949684 -0.1728042206543563
0.5633758912771896 0.14148408345501196 -0.12599521983422335
0.5617019126753462 0.2057065136224736 -0.12140499268724625
0.5635718203011635 0.17250044819840582 -0.07442791922335346
0.5353998174986998 0.06701307883589891 -0.1680819660758459
0.4986266007724538 0.12931522814635343 -0.11967399261477851
0.5807944730191537 0.16105168439038664 -0.13146627784793452
0.5205680972766942 0.10656568424542456 -0.16582696919698492
0.5402664333196867 0.2101120468538653 -0.08619133644648969
0.541115388334461 0.12416511495813154 -0.13936653241395902
0.5344150907512244 0.21821954984491754 -0.03318679161144189
0.6834154339194214 0.14789181310496247 -0.18350087181096342
0.6079373596716096 0.11813000798017015 -0.18285791433312681
0.6166278489209986 0.15122842414065474 -0.17076986088397916
0.6214180232939128 0.0516929947264515 -0.20857118718521406
0.5752601482436006 0.17413749540990864 -0.13577273716462912
0.4793777393094416 0.08210241174968758 -0.1252598698323908
0.5849877620200061 0.09004637704238405 -0.15422588513168023
0.5667642589107089 0.11919065238809878 -0.16134151300877875
0.5781608882637101 0.16954513018551154 -0.15082136061555218
0.6023075439354528 0.1384186263967564 -0.15833176542155059
0.6095539177952247 0.1994919976826992 -0.13208857727863688
0.7775088692983587 0.25037229271951844 -0.1822694267165872
0.6227104814113744 0.15756128641601208 -0.13092244840952105
0.6246102969451641 0.1814096351540968 -0.16862401144440753
0.5823339481062249 0.17275546529410235 -0.1804741298897028
0.5614837722808659 0.15650168572283008 -0.11824268939903959
0.5931360457770722 0.16728298953894694 -0.10574430994046224
0.38661879339558425 0.22095652121980436 0.03437728935109874
0.566733550187223 0.1708101741892989 -0.11176096797534285
0.5228574952265177 0.07168728779417677 -0.14155590681218655
0.5881988273204968 0.13948619468355616 0.10635754952139109
0.5500357563145286 0.09317038644101672 -0.1586694137403839
0.5485542912763606 0.11047526576638234 -0.17167389557363322
0.5835438373498079 0.15540801258468662 -0.13144383714501373
0.6570375765556236 0.18812399636833277 -0.13551595252810955
0.5579407127298452 -0.10705440134739774 -0.20710901801712112
0.6108012283345658 0.15501742571356658 -0.13675099438330562
0.5401533156156546 0.17295937756777846 -0.11907246393475646
0.6302186222175123 0.17720089078572698 -0.1369706438989482
0.598489233661553 0.13305640336301394 -0.1701269663366105
0.5595584448542041 0.14044532577563018 -0.13755009644827965
0.5663639182318292 0.07571135795566875 -0.2102023159332873
0.5427597498169803 0.18774088474914663 -0.09938425120353145
0.6593092074415949 0.20434589811591763 -0.13812626859076715
0.5533035094789653 0.1784978533573991 -0.09187545291391075
0.5701858456950788 0.1353576782906032 -0.15743679464816296
0.5323914858683736 0.17644114010668943 -0.09159777485710663
0.5791065220567901 0.09931569253504335 -0.14605948427939097
0.6925580838104537 0.2056990306249702 -0.11602769508517952
0.6934028568232975 0.200707497855646 -0.1219230097350561
0.5588405800422578 0.08462742745039975 -0.1813074013346636
0.5985138081585575 0.11309554815059641 -0.1713317241753174
0.5676965975645203 0.19382621376851716 -0.09374673705569592
0.40701099727692736 0.04270368134912417 -0.16778643366984625
0.5685140261196864 0.16122187616210226 -0.11237554940326788
0.5824073577257991 0.1876064240921238 -0.11772411155297391
0.5187701157712752 0.12346490001196742 -0.09735544492239967
0.5433985797439931 0.10709536073031245 -0.14048378749016877
0.5428894218722036 0.1484777668047741 -0.15019301466080037
0.556483454340551 0.14042889397764213 -0.15025541804924103
0.6063963555217811 0.10440260136509494 -0.17704688376001343
0.5637825885283974 0.14154280115556617 -0.14251549976245315
0.5740183399915537 0.11901289992181319 -0.16386624632612268
0.5478881024777422 0.13592476522494223 -0.11444084599071402
0.5664658356085539 0.19103937854974617 -0.10614888747272744
0.49770280934244227 0.12286443258361146 -0.1649730935857292
0.6278283640419602 0.0284960206359699 -0.36883838871230523
0.5488038400551147 0.192944323754503 -0.09333634417902203
0.5714299355744572 0.19126321930632173 -0.10827013537296182
0.5803374576329645 0.13366067632053102 -0.16016196107398173
0.6699177120420359 -0.018718197563401873 -0.24784383884367855
0.5065667746793139 0.07633114568243116 -0.14829393764294707
0.6443687062798205 0.08889957765191525 -0.17045993221992717
0.5618936212225947 0.18209918784293677 -0.10472676456060981
0.5277884627588776 0.29574386288378207 -0.030842645241193622
0.6134824454123873 0.15726839868337095 -0.12690385119972802
0.5633069339335464 0.1778036922174806 -0.13216588862864853
0.6427615169041729 0.23603830568298179 -0.08720567849107397
0.5331753729990112 0.14260555569261157 -0.164537399113442
0.5303526208419953 0.13474392288911474 -0.12976662700545205
0.5939356790493662 0.06929981063125012 -0.24344175613418884
0.5183141896579144 0.22906071182275412 -0.060568689624162175
0.6066338953745429 0.21784340051853235 -0.19408206633887914
0.8699076903613161 0.09691095737478861 -0.0319198839967072
0.5972426898062366 0.07573502247635133 -0.18659525738317484
0.5801269252008581 0.1656917456825937 -0.15135427025134618
0.532136423111865 0.1255035448333217 -0.14393165018103105
0.49554092449992027 0.13209935837980424 -0.1279828973849675
0.5654844598193307 0.1334524557270953 -0.12617656382428777
0.5250746453828157 0.14332819308349087 -0.14568225508504895
0.49975807923139826 0.32523282485631455 -0.033481936933768
0.5108676581939307 0.12491952840314013 -0.1744391193155792
0.5529538552551116 0.11881989036301377 -0.1549811344877554
0.5918073269311321 0.2448260603297001 0.0027731826148880145
0.5115336726799313 0.11545873862306166 -0.16419668527956333
0.5513879658222294 -0.03764811192763773 -0.26936451487243573
0.5481391770411506 0.1246975030875177 -0.13936365035830534
0.5340829387792496 0.08378515260889685 -0.17130833394645606
0.5653092847709189 0.1401331658861693 -0.3406732439663642
0.5810460756650997 0.1781089248076455 -0.04599452874023768
0.5520930463257798 0.1445709816466234 -0.16357215297817618
0.6093704533143267 0.09617983421703968 -0.16970068882321243
0.5870209400971049 0.10840415323676211 -0.1617448446238683
0.6751484173648805 0.29930200179983046 -0.09948965140677046
0.5892380812038027 0.1534524528065333 -0.1528285583439697
0.5464677494487802 0.1536430452928954 -0.12487498499829996
0.5002859317306871 0.1087480299752599 -0.14957336512458141
0.5622935245393705 0.12826506023004924 -0.18068052739656082
0.6166062915876722 0.16523025812035996 -0.10539470157182507
0.5780362023538714 0.09615406603870724 -0.19883061962943316
0.6059692811967068 0.09392003432735407 -0.08596470941209589
0.585609077298713 0.18580328188542694 -0.10659495692557641
0.3878133139904776 0.08981414536070531 -0.19449806997855035
0.5470280261371698 0.17020844884943642 -0.14947276408177856
0.572179971811309 0.18447945333340954 -0.16450883900482438
0.4956841091041184 0.11910836362513066 -0.13933001931857802
0.5652018387997657 0.16971469995452537 -0.12391775890260703
0.5193794633552784 0.11811425154668598 -0.13869741637471122
0.5430959892983509 0.17429182255696674 -0.13555499527817005
0.6368280789361762 0.2077860770154274 -0.14284478052316274
0.5091858921329191 0.14825187017922303 -0.11301794754413663
0.5204690685697102 0.14543582572463265 -0.1122594501042471
0.5686538292000165 0.18717784265857063 -0.08015099093402966
0.6540220457261228 0.16948964164524227 -0.2288255541857751
0.5660457548495827 0.16011796853804583 -0.10197011038651738
0.5725903904165506 0.1438440305227573 -0.1456777125948321
0.6276838736230559 0.14237089934312053 -0.1845285507860268
0.5583271374724603 0.152255377659003 -0.12942740891247695
0.7051692931259907 0.213338450733076 -0.1902307463958266
0.4904430467676093 0.1057360682969204 -0.16312634701489515
0.5394525046450269 0.17975379183125995 -0.0932433398070458
0.5643885968358688 0.1300973473451279 -0.15786028956298992
0.5468929545541386 0.17174634484140938 -0.09727559107342643
0.6122317326004634 0.1665258947635948 -0.13905810536175522
0.6190397921569399 0.11990346505211846 -0.21877621654930124
0.5646722038761567 0.15426543710137253 -0.12862994682295437
0.5677093885085753 0.1688847432437086 -0.1199023564533519
0.5869709370663969 0.15825454430746788 -0.12786330968637571
0.675559904125862 0.15336801437362624 -0.17434742687945004
0.46935504850743826 0.0739717961490527 -0.0732185114111985
0.49771703309235704 0.12863851422847006 -0.1330362484095673
0.5527150949535979 0.18949435116670088 -0.10255906323001795
0.48530535609756953 0.10205591813141268 -0.08424283349903305
0.6019095982458538 0.1293704282907271 -0.17551443276205703
0.5528878783149196 0.1689356759579539 -0.1194210299223073
0.5920449051358503 0.09594722798838973 -0.2415722085778782
0.504642334184993 0.13966107436814923 -0.10584162102773575
0.4048055994836375 0.126840836683499 -0.09014116168478381
0.689703307791163 0.09875176194093171 -0.12841746471085003
0.5398126461980439 0.18292491004886813 -0.09352472013497959
0.659796278500707 0.196662619023229 -0.12405611307558218
0.6353887846542818 0.17650683414110802 -0.21620241241475924
0.5998766926287118 0.14574638176146948 -0.15229116924858488
0.562507314003696 0.11559496224793975 -0.10586363815829714
0.5743337050889323 0.14318818698662028 -0.14250740634058445
0.5515603525242057 0.1721908645428556 -0.12168925461256208
0.6949597078886143 0.19518687860279726 -0.17006951680033922
0.47953515153221815 0.16003836902841329 -0.14021702516564005
0.5802833893429522 0.20354818311326994 -0.13149721436835193
0.6305837952206161 0.28137416292975104 -0.03529978714179549
0.742883051185558 0.2731758749070252 -0.07974672411522477
0.571333403284811 0.1165706296011706 -0.15380439952295433
0.5477555017469058 0.08673997888104168 -0.18524890222039403
0.6245443700622673 0.17127718589328822 -0.12168319425725826
0.6459417232236291 0.07005865881811246 -0.17322271815964996
0.47911959665891857 0.1383836414624824 -0.05317076120600461
0.5304863800269004 0.10959569524459312 -0.15500504147132688
0.6198471535880685 0.2159256857283509 -0.15576312680748572
0.53071653156492 0.15297935008226204 -0.1098082446594617
0.5798823580677492 0.1503029582528086 -0.13820651762884495
0.5507654520670968 0.1336774198030497 -0.1390840589728981
0.5641902466456088 0.17814474779750356 -0.12599004383652357
0.5211671546317405 0.11740491162498756 -0.14609125173018356
0.5587945685770137 0.16406836596581797 -0.18849350660015318
0.639617050343702 0.18288385674911467 -0.1967662708585891
0.551048205219999 0.13924299728658696 -0.13362932351634527
0.6651025265245778 0.16528372092528798 -0.1797827605229827
0.5421776824977371 0.145670813012984 -0.13725763019822068
0.5543147219770077 0.19379778195239794 -0.11256824514565267
0.5949757401230897 0.1699494306305951 -0.13205803484687806
0.6135883800200332 0.17619465679563007 -0.1188691254152161
0.5105590861035267 0.15219316927255022 -0.14831064760252843
0.5493848544735584 0.17615315092662343 -0.10255149262739849
0.5585654216422569 0.16857600117556615 -0.11654386670615224
0.5761789337673093 0.18114589450838992 -0.10369378909234683
0.4972015637890195 0.46482423808710394 0.12703166962708679
0.569614133772177 0.14221092012039094 -0.14511986741158012
0.5272956596854499 0.1411042732292742 -0.11216112173265458
0.5942697324496606 0.1950063166979561 -0.1168554683377181
0.6555171018426762 0.1637507991006686 -0.1508639797462621
0.621188983638433 0.17581465071302205 -0.09840772457543778
0.4563944384012615 0.07072955101475031 -0.16439993043925938
0.4777028549843578 0.08738897129980217 -0.13027643913220288
0.5538063858575413 0.1483157872769283 -0.14517950751029218
0.5690573661207878 0.26623424935874596 -0.06038823371684998
0.532860383565037 0.12430782723562572 -0.13672149535928213
0.47794324149612066 0.08977479656813614 0.15212786167188597
0.5492379619896326 0.15606951440310013 -0.1456582617997242
0.6032333234125247 0.058781425208678684 -0.2803027564350913
0.495978189190069 0.1983069640999986 -0.04767168424338308
0.6075854264356764 0.15427670367661506 -0.12579071890884563
0.5367873405680825 0.1252393547416375 -0.15901282915211823
0.5884013432261668 0.1394624182971569 -0.19040372624024826
0.5424966232257731 0.13387348265402466 0.02998871408678383
0.5231939122524238 0.1664444637450373 -0.09150019986127234
0.6732657799336863 0.13084521580641706 -0.19228906194898343
0.6618969391014531 0.18705376936962637 -0.1656589983204242
0.5814353404483796 0.16000886054759178 -0.15805006677250333
0.5491697215426683 0.15581069453324403 -0.127200814648873
0.5531746340142831 0.1550488725952448 -0.14537656184882053
0.4498605009342356 0.12840903068347131 -0.23667641851204735
0.6210735401722616 0.13143702392659407 -0.16766310764816694
0.619017070422629 0.23532404508857496 -0.08057352278953545
0.5670639434452056 0.03845400729100845 -0.13123779122093993
0.6017435384736132 0.12464955277199863 -0.1531230615753003
0.5424760776469526 0.1982928023538335 -0.1160663139367557
0.6249392492479728 0.13649732653291835 -0.17397810345784137
0.5694027701758273 0.23400870106139848 -0.0628981783417828
0.5299788002680543 0.19133900343240384 -0.05282889567136806
0.4253902230711759 0.20461424023797292 0.02777914994995001
0.6059596257269106 0.15594325837598433 -0.1334463259509846
0.5539345625616505 0.12770031689670702 -0.20172036611077715
0.591684724056833 0.13326024318118357 -0.1857433001649298
0.550846421443012 0.13666143038958012 -0.1408369679300563
0.6233400832966396 0.2926558036667899 -0.014373678496156117
0.6455745529294035 0.19500985868512544 -0.037696355232014866
0.6047940864381616 0.1406516782570435 -0.17471796780270665
0.6435794364498975 0.17258946182265333 -0.18866585993431784
0.4895415794134834 0.13973980645214112 -0.13850401559864167
0.5574955834674853 0.11533304561631041 -0.1549969867275962
0.5831060995769946 0.1945180239486035 -0.11309545884364525
0.5513741718388587 0.13481483663571225 -0.1414096119071786
0.5430517104217643 0.1709852345322247 -0.13586564766391973
0.5684607863339863 0.20604516624155167 -0.12458969278523568
0.5520684263304787 0.17441745484657645 -0.0894456310106051
0.5668043151760429 0.16521426690427177 -0.14184266295909254
0.5710100560985296 0.08168264346183207 -0.1512698941720032
0.5953632958925681 0.23761749615302108 -0.09876729428407316
0.562933663420452 0.14308401771839385 -0.10394731318302775
0.6361160543580553 0.16174952938946774 -0.1344217879954499
0.5635173187243083 0.14099346938165525 -0.12546703378363588
0.5638610119678447 0.19007761390197686 -0.11195545222395253
0.4798670533648419 0.13766828664543596 -0.08009487670263127
0.6512966456443934 0.11639122221549769 -0.15484006759668034
0.5454881190714929 0.13444327227244912 -0.11195971637728519
0.5582593323715201 0.14505114110990291 -0.10557626465759995
0.5011697924693976 0.10498986763542462 -0.15898506880770924
0.590755393914975 0.14978960815538755 -0.1463748954959243
0.5536565498339172 0.15950382711203304 -0.12249144387453725
0.5169964151176458 0.1683451856485476 -0.10635427403687459
0.5012960363075507 0.10330265684081041 -0.151018153040809
0.5111821763112516 0.09974315104163622 -0.1504746681249003
0.679642455619387 0.25442777074079004 0.12570752707682686
0.5525268663933076 0.1529934640451387 -0.12413331887667312
0.5704553773431087 0.19437797370456167 -0.09626580396982831
0.5414193854762743 0.12801247843488284 -0.15088599561228477
0.562327523067097 0.14382418006597675 -0.12047122383026476
0.55576551013894 0.13056535644588507 -0.14703927797155814
0.5983173067156144 0.17754325070690413 -0.13501576410537552
0.49259083890086686 0.07219370509282896 -0.10242808250153246
0.5107751567965977 0.1096120789684818 -0.10485691149878562
0.5602149274176185 0.10130370669439515 -0.22963309179417024
0.7041460560501207 0.08236510617096826 -0.27394410931917434
0.6238518995336904 0.2051071245456484 -0.1250286494103392
0.6100463343008187 0.18877379062463717 -0.1641708605426544
0.5682480619767034 0.24579760029720887 0.1684692826538452
0.5594913958200038 0.14493783024336437 -0.12294010175018855
0.5394424766448367 0.15962657604970332 -0.15876501184185088
0.636444660236549 0.046159603004156224 -0.3247022975321414
0.49404073702186224 0.15474984690732185 -0.1621657259503877
0.5547251081028293 0.145167865057644 -0.1634551733718439
0.6492298764677997 0.23082877425584059 -0.10782350710755395
0.5779171308853535 0.1386311400989797 -0.15392124734933077
0.529766419177065 0.10398484449234502 -0.16738149518458556
0.5050486685795192 0.15129242709164714 -0.1296261636469893
0.5124075018155594 0.10725213175567205 -0.13059960639125734
0.6149630394588002 0.12760093590723898 -0.19544176815834646
0.5482224791406622 0.1133354351731981 -0.2030334483027474
0.5802721483352826 0.14712703481986011 -0.13577103368480437
0.4699058421929436 0.13476572257692965 -0.21678295067891895
0.47937041681718995 0.14624036309082555 -0.14671130731480275
0.5679631635460396 0.1359933330269314 -0.12343398005587858
0.5489846930318834 0.1222751256345731 -0.1451694356661477
0.6100289737870668 0.16864069632553935 -0.12371699771769329
0.4566260452495783 0.12484466428918495 -0.1034164047220969
0.5560233674894874 0.22682738533382008 -0.13733623177465404
0.4742542126175806 0.12926613281432253 -0.12336227382061793
0.5671988135901245 0.1865649249461967 -0.11539914968115284
0.5533946111436308 0.15644311977796121 -0.13897891963776488
0.5455011082399039 0.13919123037562997 -0.14541402916148627
0.6460358104234558 0.20331318423114908 -0.1263813314776172
0.8244308545630048 0.02333991678345626 -0.4293456574820169
0.46695934440217 0.09535879442536555 -0.1598532169818867
0.6237009389287493 0.23602716330171347 -0.11876872064627264
0.5766783859427704 0.13561256910426778 -0.15368288025214838
0.544122082524396 0.15437682156402843 -0.1018056791983355
0.5845972542444571 0.20475755425133002 -0.10266367473029447
0.5284050318364422 0.13216118424954004 -0.1295142287750508
0.635213894791903 0.1723888317235378 -0.33449585142884075
0.5817502113095259 0.1895122378216456 -0.09668969077155509
0.5213037052187417 0.18395933747652293 -0.12269552499900271
0.5929183854536149 0.1459290160508857 -0.15357057656140682
0.5374026192096295 0.1806688325715129 -0.06250929203167743
0.6765639959963181 0.17065763191723704 -0.19100362930133485
0.47621516593461877 -0.33040818039428643 -0.06516169930338833
0.5384276738924569 0.08944883799982506 -0.19360073889519924
0.7137247236009756 0.21954133919435037 -0.1381568091081391
0.5706577217037108 0.12633505880233997 -0.16840474073879363
0.5532591925755099 0.13741118318756662 -0.14095156815344012
0.5162993841355359 0.14055584836991386 -0.12689791438492648
0.5664776920792463 0.13539085070742374 -0.09243215907666524
0.39240424599451273 -0.01180809788641568 -0.21329862292643043
0.6625799185222832 0.21440339422196075 -0.13141032016957865
0.4572526635214871 0.12619219887422162 -0.12691203268676077
0.6119390304746162 0.12116340834887751 -0.0871406549145064
0.6072586714230113 0.14129731598239914 -0.160482134278368
0.5454566090474771 0.15843359087492104 -0.13137639440043358
0.575060520359699 0.1464774941820366 -0.15084372823119452
0.5495174092042845 0.09441623647306585 -0.17927943670041202
0.5773872453681861 0.18525827534256223 -0.09310185884081079
0.5940605075777228 0.16932899903788723 -0.12780826685286684
0.4975517951775572 0.14693372263700155 -0.10542076134915135
0.4406717372592084 0.09256933725029626 -0.13695687516913324
0.5625884462502739 0.16236151436223167 -0.13099858425890432
0.5583249799739463 0.14174705598694004 -0.14326110737516728
0.481447257672329 0.16210773030661585 -0.08634587463014043
0.5466685286787651 0.08852744727822426 -0.08301699335022761
0.604920179954533 0.09569356109552984 -0.18112197327823765
0.5492708133302671 0.09761538318390706 -0.11919573752629731
0.5470255486356734 0.23403874757089227 -0.03481974038959379
0.47599759224263494 0.157508351803628 -0.140539869872498
0.7313331928406512 0.12449193493205257 0.17136310113086495
0.5466573096746146 0.18907538404995705 -0.02588674665591384
0.622813052134191 0.13724977104786262 -0.23867037822026305
0.5134668113966256 0.141347779466102 -0.06392302242657877
0.5212337351053407 0.21209268386401448 -0.08241247583333688
0.5568082477388998 0.051228013438844755 -0.23015746075185461
0.6011559560774344 0.11888964956250447 -0.1859907925491484
0.605274354992531 0.12599173398783137 -0.17637296793449764
0.590038924129118 0.21214480844713535 -0.07564462607918188
0.6063346633401494 0.2534551935187892 -0.023550884952086903
0.5763034723784131 0.11214348516672601 -0.20540744581394677
0.5083732653503006 0.13456172738118255 -0.12750383106812535
0.6226134932852432 0.17347514248316998 -0.1054228610444028
0.503653182040523 0.20579392234085958 -0.06196182423231278
0.5898451440858423 0.17114790669339186 -0.13593354176624928
0.5570744298552057 0.1561536128338048 -0.10565555333785426
0.6056304504157168 0.18582526026958135 -0.06933986919648305
0.5601348040064806 0.095965583045583 -0.16211944991979976
0.7073796178695346 0.1605353911651406 -0.21756953602013596
0.6044029740995427 0.1576752128998038 -0.19971452018377533
0.5524842388032738 0.13906634043586052 -0.13326692485249225
0.5610118947588347 0.12768347871022456 -0.17577791392504594
0.5955536818794656 0.1656079649012696 -0.06725261568519159
0.5314552628277909 0.08216898985051557 -0.18940527463045953
0.643617842417811 0.19821035546051746 -0.0839142634088148
0.6220363507692923 0.2356396197410362 -0.14580755617328123
0.5143960353659622 0.13437535176143456 -0.08773833268017484
0.5320355363283511 0.13197158899556882 -0.1383077659857861
0.49329415916729147 0.0987006329356177 -0.14107164174590991
0.5170035677086702 0.09403290921493124 -0.15592010653472244
0.616328192052535 0.12674114792505975 -0.1978948339114197
0.567576909822435 0.10738241342561139 -0.1828848767072202
0.6213383554401162 0.19322522318661584 -0.16375828567214512
0.5010053908253695 0.08191531772673954 -0.16851454227000318
0.6225215311064147 0.1804764381999746 -0.10856822057414206
0.5531611902180913 0.18075851249109576 -0.07549844536031003
0.5491498054158512 0.11803276899536286 -0.18802188125039265
0.5231409618403262 0.15071900039782804 -0.1337215580854263
0.566303950639707 0.20621840617447162 -0.05574843172338717
0.5697383010776917 0.11649037484696123 -0.13251837699121438
0.5474675152036355 0.15717119988828188 -0.15190072600594817
0.4943048893575792 0.13603763258788604 -0.17575752024403357
0.570918323218919 0.1575500180437217 -0.1310998453932939
0.5226712363771213 0.16905145821534973 -0.12038058629785553
0.5572132670467198 0.1016578728854256 -0.2221374603785904
0.5417571089840436 0.1537035459628271 -0.1704983693811073
0.5399364502367661 0.18958258431760555 -0.15051639146463458
0.6101352364469221 0.20064950655327607 -0.13194271089018628
0.6365626704579768 0.17602110673087168 -0.12188787505887433
0.5649685293037692 0.13183277754332323 -0.1351846100064762
0.6184795822121458 0.21076020112359117 -0.11045779722194027
0.7873749552571354 0.19015421473072536 -0.07384541148601897
0.5155729180785329 0.1488392339428941 -0.11863343898004075
0.5355451840066365 0.1730162783958633 -0.09970021607836088
0.5699022375753486 0.1441566019813223 -0.1472119961522793
0.5279257605018017 0.19050870876908732 -0.1009966703732772
0.7167885597172159 0.1612410837359306 0.38165336247315906
0.6105742187520491 0.18994292669265178 -0.08807786515443183
0.6516241077115978 0.14559633456491383 -0.19607977088725193
0.5684172767515889 0.17382407242105558 -0.1447878245438261
0.694472115320039 0.20363549974135253 -0.10615115234865868
0.5451495713112422 0.15185399913026743 -0.14286342056236379
0.6119497084269909 0.2865413129958654 -0.06058909944390223
0.5086346860910993 0.14453314748708124 -0.06480603057582357
0.5580803727525705 0.22301900921785034 -0.10237937060836089
0.5541571230046429 0.14165287176476227 -0.1574828969954325
0.5240341616472932 0.21909551718682962 -0.06207140061586358
0.6626152288656755 0.13346381453473555 -0.1763364269858414
0.555484118201889 0.11404735757776052 -0.16215052773674188
0.46562596183524363 0.08536714565845216 -0.1383113039554047
0.5007403606127099 0.18337431697227657 -0.10115197409191978
0.536924663383914 0.11653567073595639 -0.1444567861231576
0.5844347945033519 0.20054091502160531 -0.10134985747923508
0.6339333889707888 0.17077004117994932 -0.13813687202083713
0.5911392352682157 0.33491959619189515 -0.06453210601603132
0.6026591556485528 0.28859124302277905 -0.031240347186624717
0.4831030175626694 0.11721442877561117 -0.052242634070736926
0.5518944023075392 0.149502726936376 -0.1538100100104458
0.5619027628176809 0.02497754613668235 -0.31536062529943365
0.5729982674129133 0.18654821830631363 -0.07135062641306433
0.477775630682828 0.1500454302022689 -0.09701570967021667
0.5505938298016559 0.1436452934344885 -0.1326109527799133
0.6952525762777526 0.12293318067628434 -0.13283922182266394
0.5736595446085175 0.12075432465502445 -0.18856098099185203
0.5935730539570869 0.18411806828541444 -0.08551743304219883
0.5634957207141298 0.16363361731821158 -0.1336563805525941
0.589127805536279 0.18483090848903316 -0.11481100879272788
0.6129781938551702 0.1492484887497909 -0.15191421479599398
0.47419209303896537 0.09278460402538258 -0.11786451730783654
0.5503638889416038 0.14418335349270706 -0.13827517813435009
0.7569928496933613 0.16355209034520612 -0.1814545885054457
0.5989500226852016 0.11889055808406113 -0.19829115169223144
0.5492126758895779 0.12895439557212285 -0.16798496733107982
0.5566779701880336 0.18474049480765586 -0.11977409623068525
0.6111944687583559 0.1704678963113082 -0.13514646065205227
0.517195148380651 0.03596563780341455 -0.2046649682205981
0.5444107839781509 0.14777151564811675 -0.16148332928614195
0.5054183701657138 0.09800267070512803 -0.13619078989378863
0.5872917498871715 0.14057302709295527 -0.14740648333273043
0.465446952853668 0.17783954401376434 -0.07508799320001458
0.6492717702212047 0.14796680160623055 -0.17739948402868322
0.4854542691519157 0.018424856085175634 -0.21713079363748022
0.5963501070628183 0.2100534050692886 -0.019994984019191975
0.6846664473854815 0.23216309012923375 -0.16872017048618204
0.5784935878771194 0.07606105681436759 -0.10312583123061358
0.5337974126886991 0.13728063707564786 -0.11723938831639202
0.6153026513167674 0.1716115320715801 -0.1407422886081946
0.5571347423327069 0.15715276741342166 -0.12505818781751543
0.5279392769193265 0.10955692815015539 -0.17580885902992804
0.5571538111405658 0.17602597142752074 -0.08720268966096967
0.4918209827229134 0.11521192642841527 -0.15688922057057653
0.547794669469269 0.17377961562320365 -0.13852198228757118
0.3870469003199588 0.19840906172514394 -0.12924784933173328
0.6116115333596355 0.15760234829400588 -0.16159507733783585
0.5823374268304917 0.16347879775582896 -0.11517854825180507
0.54430521319631 0.16024364390004564 -0.20956101522710924
0.5582406254336405 0.14231783151140576 -0.12188482339732332
0.5225725516563244 0.09814741506269797 -0.2038916357719387
0.6146068950394863 0.18376208475592648 -0.12801118107938692
0.541306557579702 0.13918936188284192 -0.22714437236959384
0.6108838974590043 0.12915743407236846 -0.19205785214633408
0.5429488683588062 0.1502455058376455 -0.12984834024834413
0.5292098134860055 0.15887630069526892 -0.13694204773727847
0.5052156621153614 0.2108513539791943 -0.22418874761213203
0.6026428453322978 0.1639237552231947 -0.1408773571666586
0.6311267443595625 0.0825142293499681 -0.2724874914509883
0.6421846248469052 0.1439672229590201 -0.18598664663834086
0.5160876222565491 0.12575193239503335 -0.15185251689931079
-0.08800148200593583 1.1685198607414407 -1.0926483788632027
0.5690791314070935 0.13195313421958588 -0.1505460391327773
0.5420415852508 0.1638068032990958 -0.08747347174484332
0.5543401052405699 0.14500436902747538 -0.13859175916735467
0.6660366386019092 0.16708008681314368 -0.2771174862040766
0.5687532012807992 0.16042933647320012 -0.12215290750594932
0.5567711799574226 0.10194390957762778 -0.1647973641530882
0.5368486021069856 0.16185548618200585 -0.11397401069936564
0.5311295528070872 0.14771107265079308 -0.1212847065320517
0.6434608599712845 0.22879236546513937 -0.15364884725534012
0.6367286854669629 0.1739660928900122 -0.15823502146548662
0.5804890895504116 0.07489607104967888 -0.3011247101761114
0.5206679832555352 0.13035782958236553 -0.14251012639830662
0.5106047829251992 0.13611169057938355 -0.1506467193627401
0.5625860085442582 0.14598101990128498 -0.13845183302531439
0.4400532593690798 0.1569191441980422 -0.09582053227077836
0.5738422492999007 0.1920022023673198 -0.09297932146316157
0.5266725474677543 0.141980266521486 -0.143244203072868
0.556134606839322 0.1949747722618298 -0.09370287229526753
0.6217013276201868 0.23939188809039535 -0.15741156840854842
0.5154579774166308 0.1509421307028873 -0.12538159802268467
0.4737586923150445 0.13830772277047743 -0.1017169181986759
0.5693165123622208 0.15650980982766782 -0.09429773450841594
0.5381559585952971 0.1027879729502672 -0.1908828666979332
0.6115463247516431 0.20355506189689265 -0.09303791890629043
0.6044537501410332 0.19657597048237108 -0.17076896598878477
0.5509763161677199 0.17059355023216938 -0.11413857014996154
0.514216725867314 0.11724289262799914 -0.14822291539323373
0.48672153430918286 0.13210966910244792 -0.0967165443942406
0.5444690548637681 0.14972358653272977 -0.10368501459214485
0.5121610204862179 0.11977222309759838 -0.10954790780525059
0.6015802612819243 0.16249378507701806 -0.15642003682327754
0.5405882833704965 0.15207631064610894 -0.13795655160092224
0.594700845699009 0.22466522422189428 -0.09389910891087538
0.5404629465910773 0.029080239045441658 -0.14598488879504146
0.5641284618911584 0.1407516576785497 -0.13646568279506255
0.5864764879566309 0.1312011001497808 -0.18378709697083195
0.5749161154842284 0.21761395207948908 -0.1670404371875236
0.5735623266801468 0.11993214341948999 -0.19280722797175542
0.6323723731459552 0.14747223145224098 -0.1856667408348187
0.5011372958611133 0.18488424217260047 -0.17583715810363287
0.5438609394461338 0.1468835269581774 -0.10052122722167667
0.49918051725337875 0.13203225960693032 -0.09763199158382463
0.5631836741055594 0.1395994407815948 -0.15378826655097555
0.4946501047203071 0.33035449132087535 0.05615829175383169
0.5966047838644215 0.19163048793527082 -0.17087078486535745
0.5928778343644439 0.18036605664332228 -0.1611836692533899
0.4313943790511843 -0.03682244456193473 -0.4444674797288286
0.6413758223731634 0.15275528608836453 -0.13904390078609197
0.5184880163004948 0.16016872217704758 -0.10670959666217072
0.4370348472372996 0.09769537241733417 -0.19742289174867267
0.6174589043777843 0.16602970215039647 -0.15562892924846494
0.5495278837920097 0.15391440604318518 -0.11392272690447669
0.5789122041738608 0.12562154942033033 -0.1748135238660069
0.4805997032050584 0.10702863467460588 -0.1597453817655463
0.5718952661722341 0.12923236071097222 -0.14664254865654414
0.5725170265974953 0.20460707836349457 -0.1115552460569802
0.594432844159698 0.11074286503594521 -0.18986949663064934
0.6095450752272882 0.19097293142256433 -0.12851476123250904
0.5588368239131114 0.11892274965410365 -0.1855858356227884
0.5327779097568452 0.09297614115908459 -0.20866377865574748
0.562837086085068 0.19943113162155157 -0.09242726219737563
0.5868321650487331 0.15862853929404253 -0.11433870116951539
0.5671221585084254 0.109063846051356 -0.19893590160351948
0.49977121610832853 0.13675793962141825 -0.12472892934835045
0.4251677474069595 0.01135102608097327 -0.22452317270386857
0.6219421782128762 0.14349067761584422 -0.16378357591700876
0.5546566493761418 0.1372736434001922 -0.1402811809343234
0.5493297359312947 0.16868653254668686 -0.12134122110323631
0.5461472985502525 0.18510339100612327 -0.1016826555351713
0.5582697956321141 0.13825298677836884 -0.12764943987505717
0.6319797041101651 0.32020921294343907 -0.014443744296897876
0.49787640335991057 0.1318357751039514 -0.10968143648756268
0.5228498146775138 0.14816460742305537 -0.11260082719660147
0.5774629983381772 0.10806824200172116 -0.18209580269876824
0.5652443454255689 0.14746403682056552 -0.13897855675982385
0.5177896647987836 0.1685692938666392 -0.1071720162730827
0.7647267222439922 0.2442778574157245 -0.022561818195768524
0.5713449343756167 0.17371426022965863 -0.13979472477728905
0.5467677354630212 0.14909639925305385 -0.1351190972468146
0.5191323549416325 0.1079068260087297 -0.132678807661037
0.519474598991053 0.12579052710543692 -0.13315108672662745
0.569892049563876 0.14703046140495246 -0.1425634099260833
0.5621531915428903 0.12910052145495854 -0.15489484356628225
0.5277451878372972 0.14108143125197614 -0.1450199622005499
0.5849615325020778 0.14959147382948856 -0.1764026340584195
0.5482779034564089 0.13743117388999337 -0.15894762967022302
0.4871294456367963 0.12261246887601374 -0.15571427882640876
0.5589529813981784 0.13304501855823503 -0.16734782033839224
0.5462332378603065 0.12476169823251837 -0.12585139209959095
0.36461628142181723 0.0526951039470589 -0.18003162471580936
0.54856475456981 0.13746669056985183 -0.14380347382918046
0.5127494006748918 0.163927101204834 -0.09723496522464359
0.5836692525603553 0.14350646736244244 -0.15232538801072337
0.4798316081274834 0.18579519586823778 -0.08054239326023094
0.5729692462446252 0.05494342484877279 -0.16492919789398286
0.5662000321863303 0.15281927632169356 -0.13650142603064808
0.5463389310340148 0.15084440837564728 -0.12806144364050454
0.5270813344115624 0.12848685501363377 -0.16730339657023308
0.6350771681671716 0.10217912337422774 -0.21589899548170877
0.589464661445291 0.09000712930310328 -0.21631238906113026
0.5145943774293897 0.07182841866323031 -0.18628722637068051
0.5809429088362066 0.055038400305846835 -0.2331610485566955
0.5613943504457666 0.17899406818004593 -0.10062902681066532
0.4328726660997404 0.1614351599741326 -0.09666087593400619
0.5936981532131966 0.12652977751292838 -0.12948838219917036
0.5549650819438341 0.1837208775928474 -0.12669396873010896
0.5675718160344587 0.16594041279620342 -0.12978217790742974
0.6760573988218681 0.18656812322352323 0.030576932182370342
0.564178570105895 0.15818353431907894 -0.12283826849437673
0.5346429611892489 0.28823258132568697 -0.0399691687142365
0.5574345019853979 0.09484023696145982 -0.20571416150743005
0.5364642543619027 0.1330331184374529 -0.15999803488685416
0.6089373694383227 0.21050870102521912 -0.10614388762128613
0.5964571601139852 0.1142525151541065 -0.2632830945846223
0.573226462526776 0.18490408552194992 -0.11189757269795564
0.5346850153761977 0.18828976024708766 -0.054099608186263026
0.5677805841241792 0.14528500189025806 -0.12724512786110154
0.5530510434118838 0.1639384825230934 -0.09849496451208495
0.5886271039987605 0.16206996002317453 -0.1155292367861449
0.6227603853855328 0.12535436672574463 0.0069279545012506105
0.5518437412883515 0.11150879540853964 -0.11508368214188636
0.6418065730369733 0.11439422216997741 -0.21897011725455684
0.5530683043079279 0.19290930733723144 -0.08888137666218654
0.6117176437250009 0.1510696952538524 -0.15963608719376055
0.5715758704079263 0.1228841536113805 -0.16516825095069976
0.6257097160901139 0.060752821010737534 -0.2089692014052531
0.520530251180702 0.15558511649588525 -0.11235848563823936
0.5927519272157724 0.14917827841951237 -0.14220573152138627
0.5797940140080584 0.17873217043904788 -0.12835341104836573
0.5214721136288318 0.0934289671373989 -0.17063653560823866
0.6020853953067586 0.1865762557795705 -0.11997788471234117
0.5968516190262534 0.09554756113952578 -0.15645790524087033
0.5990987623437434 0.20336073780950414 -0.09838764450806536
0.5391298342042603 0.2337699194862779 -0.04754840204999766
0.47631387256900837 0.16653873296522193 -0.15164963056051306
1.4826732063151837 0.28086293026866826 -0.12706204414989486
0.6544967797912307 0.07860416805367265 -0.16262070518976657
