# .PCD v0.7 - Point Cloud Data file format
VERSION .7
FIELDS x y z
SIZE 4 4 4 
TYPE F F F 
COUNT 1 1 1 
WIDTH 803
HEIGHT 1 
VIEWPOINT 0 0 0 1 0 0 0 
POINTS 803
DATA ascii 
0.5931670507189466 0.2252249618669282 -0.023928676852705166
0.4953328621205486 0.10864551646972131 -0.15838833190545643
0.49545746494258935 0.10622049526858746 -0.16833084033109458
0.5443758975224569 0.1554521155477886 -0.10147072142235913
0.5355846127083481 0.15551663518954228 -0.13238938724366278
0.5077293532412313 0.15138607623775613 -0.13463849810719353
0.6122490874371778 0.1520895658028678 -0.1568619177602244
0.5493286372395403 0.0697986804398596 -0.18827523186833162
0.5759500452031574 0.14811302742275245 -0.126310942356767
0.5829114519522562 0.154793466665879 -0.13025021608532938
0.5895731798340194 0.18295164715547685 -0.1047369274065062
0.5956393843508323 0.12889804157248363 -0.10322875832390821
0.6838831858566579 0.2021378105841336 -0.15428191555510296
0.5572546020609224 0.15516531538398226 -0.1329075661652439
0.5789305812172074 0.14811960542569125 -0.15380532456748597
0.5473126588358213 0.15781572847336633 -0.10668807940511726
0.6207324387165158 0.2749212121947977 -0.07546034831867132
0.5696321223446006 0.16070907770318854 -0.22176165394883185
0.45154978293973613 0.1178252545455507 -0.13210793496669737
0.6155789350052316 0.19411854365226588 -0.13675032157019018
0.5652609932924548 0.15759792954375484 -0.13215914774606574
0.5983606783725293 0.1914216173557861 -0.15149073745926955
0.5144376204444541 0.11685822360547604 -0.13877843328462802
0.5367608774490833 0.20442690312324885 -0.0710984509402266
0.5837689958840713 0.17414937008626907 -0.12602932523697064
0.4455443514160038 0.09800416117124655 -0.251712636671229
0.5801738169034252 0.1438762043128179 -0.13683646782752135
0.6204623527598017 0.1251300623729037 -0.25556660799061603
0.48564819488430544 0.06777517865401705 -0.19061506244069903
0.6044155643700009 0.1336361223714988 -0.14887799133401813
0.6096817580477847 0.18565303565216595 -0.13018083702951344
0.6471401234598488 0.20802167887013923 -0.10829770268246364
0.5602531385975453 0.1634876675565664 -0.1276299734668811
0.5192258657378659 0.1362046193045927 -0.1368307061386389
0.6226256386684526 0.2063358664130135 -0.11498607519037307
0.5468357557696635 0.1499699444946998 -0.1349223049577546
0.5826248070079174 0.16437352024361473 -0.12195888150405665
0.6317026974824813 0.15653560419748658 -0.1736535712271916
0.6345494578895199 0.20867944094135282 -0.13039189692408115
0.5152532891537334 0.14367318427244413 -0.13739703860103702
0.49475276197716767 0.18153366406703242 -0.07615287673915816
0.5440050818742463 0.11530723730149361 -0.16774520631793166
0.5168329367035369 0.12510384589481305 -0.14112860169285568
0.5058122467415558 0.09079977244857673 -0.16601792849449737
0.511894561643075 0.15344730946567608 -0.14500405809626216
0.5269706163905141 0.26531696354528833 -0.0003049147050830925
0.5669191396332707 0.18260279619434527 -0.08898827692316047
0.4868130218552267 0.17707574763764455 -0.0913515893114436
0.6190246253726883 0.20002724656821158 -0.15618399363374635
0.5668557717809648 0.1562379695678402 -0.0963948501807721
0.5469461432651883 0.14501992431071642 -0.1287330892237577
0.6469794930400639 0.16808715331271173 -0.17933369939687793
0.5356826723723316 0.1976005217651533 -0.07289619828125637
0.5776725041883424 0.16183268104202853 -0.08982656915925702
0.5589511253576092 0.18256392911627017 -0.17158437530521553
0.5946900223349161 0.193462223778468 -0.10597380030696968
0.5258575959038438 0.10257246699543998 -0.07589634337324469
0.4541096364091004 0.1334350110070659 -0.15014778015522268
0.5620444550673653 0.15524007851577437 -0.12059690468458939
0.6141184002761548 0.2168612527159013 -0.10965814377475169
0.600720246365313 0.1375827678188699 -0.1784021175830759
0.5254133297265042 0.1010950810233453 -0.1891815478799117
0.5611287054949088 0.09389977840042718 -0.1995551102647397
0.5029076402543069 0.1393674982728612 -0.14638692301313938
0.6044831984828107 0.2515463996520566 -0.1886067616225091
0.5845530138229549 0.14692642483822738 -0.1541775656012021
0.6162694970013973 0.16446381862698445 -0.13907111583407072
0.5441769117879858 0.16452484074238782 -0.14617834166489274
0.4718585937197872 0.13726590458848875 -0.08547977438524867
0.4733114876877096 0.09827809543006083 -0.1010701471868174
0.5687160655812846 0.17690388275524072 -0.12286919067076951
0.49789745230751237 0.21876566594842473 -0.042760853792032094
0.5672896203931117 0.14583792650255134 -0.11284626010790078
0.46906687402830016 0.14884318312515177 -0.06732509422263888
0.6636050038746646 0.208139341224566 -0.2101397750998899
0.5421343486924854 0.13645355355446043 -0.09112143591295307
0.582297204384858 0.1491373703293135 -0.13343730346090865
0.5740780765945459 0.15282626177179282 -0.14787799725621653
0.47938025216640767 0.11493487779114275 -0.1660667510707725
0.572951704002719 0.144524668959491 -0.13320700058510226
0.46762088975398797 0.13146707219054576 -0.13860816630210593
0.627121339149042 0.09277353586031722 -0.22074240823522473
0.6331726880871429 0.18698399642578067 -0.1198626143797128
0.7188337800795779 0.3778687265479306 0.08805033229262449
0.5748384428424345 0.17651670552872645 -0.12906672640461636
0.5383079107667896 0.15712825136137099 -0.11614484288314486
0.6881938959460285 0.19647689798799206 -0.16826788225718303
0.5729785058752981 0.14908162438476324 -0.12952998145033234
0.5580688098819877 0.12082802608540533 -0.12384442591930167
0.47375253497129677 0.23076077064899891 0.00995829186469166
0.49480763749762957 0.15919757371155185 -0.1192195642893239
0.5242097323262556 0.10583673910889502 -0.13232972097262063
0.47638488947885094 0.15848203545714057 -0.11088701544392165
0.577550301121164 0.11997844450490902 -0.13503562274476621
0.6568474390038546 0.17351651970150783 -0.08540155839824592
0.5908523303263422 0.17572953045329598 -0.10824160929807647
0.5622827834745152 0.16003238984107782 -0.13900050481669268
0.492322779482663 0.20846677197084773 -0.09475693954667008
0.5190229745083883 0.1865472859063857 -0.08963999374937259
0.5814824218389845 0.11306432822260604 -0.19684204619373702
0.5654360531463567 0.14495476561278053 -0.1548852466805215
0.5395693450706744 0.15503882401307578 -0.13995565436250956
0.6134154214416725 0.19559570540809545 -0.15105222567166265
0.5188373444372019 0.19189786268741216 -0.07303594425255255
0.525784758514888 0.24052480291983613 -0.01892154709949523
0.6727452801638378 0.22756597536474032 -0.09475826474728422
0.569772633640298 0.19701194306145453 -0.0989098522930334
0.46379984668782015 0.09521546862811192 -0.1475208392023859
0.615660022730097 0.15941989030848447 -0.12685038630111478
0.4880936320116973 0.08248396243872946 -0.15614453629943625
0.5675434863927649 0.2409807599357947 -0.0664919651869269
0.5665687598320233 0.14444984898996438 -0.11710086996903613
0.5773727864998648 0.15767931348224806 -0.14267431341988868
0.5753733259645912 0.16686913315749052 -0.11541130879251682
0.5238839172434382 0.1440885197839208 -0.12059801829713024
0.5813818302769391 0.15742623205437667 -0.09383088581840582
0.5817635783795083 0.1389071810337441 -0.1270344066405329
0.5044177991487686 0.1312172061944068 -0.12321001302539969
0.5892739292909965 0.1656987170892421 -0.14267321093220175
0.7446732472396036 0.33848723021361593 -0.20221817322621405
0.6267629814374942 0.1447843160450617 -0.17719710767759977
0.6087234571803322 0.16872776490974672 -0.1233135089288453
0.5763587552287817 0.2068711864505559 -0.07897688595340924
0.547940156849819 0.16255824917267603 -0.1063951501736966
0.6318720346627202 0.1174087947710234 -0.16741799853001282
0.5348153457602649 0.15867273544184002 -0.12712132788703912
0.5399252338914948 0.13143008340276197 -0.1744641272248515
0.5835901074858896 0.26396589318639485 -0.08981278925556069
0.6523909867684097 0.17833686228746615 -0.1942039565101794
0.5917233456834055 0.1622006061325152 -0.12568123257656794
0.5560893171319492 0.1453190643159985 -0.1148587661991769
0.6431981494431795 0.11780575314585917 -0.15660650907452123
0.6119977055136019 0.12381563511659976 -0.15583369412759396
0.5437900072364812 0.10452947888299491 -0.15894683482154903
0.5563323608456443 0.1555693729437877 -0.13054623223230521
0.5386390289993273 0.15292038525521434 -0.08316927444441546
0.5812344973361121 0.1674189698489812 -0.1415819254549575
0.5698072432228258 0.15589188061700554 -0.12504043007437815
0.49389237647267237 0.15940369987869474 -0.09185645143162446
0.6064210954162235 0.21388625971981412 -0.13195833511824162
0.602683759762229 0.17950996380837125 -0.12274948957066556
0.4922151610860652 0.17688877461507957 -0.03936655410768708
0.5824955860589114 0.178444170602873 -0.12156316964326663
0.5661706699109317 0.21947988661037243 -0.042670278800954975
0.6360045517836141 0.16646670652829698 -0.14981905026867537
0.5981681747534822 0.17713320990760906 -0.13250575403803566
0.5489237299096885 0.1704547829960461 -0.1281595995766054
0.6287251780418046 0.010794242780406194 -0.1627413885410789
0.5650730558744073 0.11398660405460248 -0.18113115499596688
0.6011167166414708 0.14887176769657628 -0.13437143117042183
0.5776697275359197 0.16480255293046753 -0.13055117650040415
0.5915353271076214 0.1609232655247297 -0.1270235083838287
0.5422290172326143 0.2054412864535493 -0.14161881510131025
0.5099216853958239 0.14416224397420763 -0.12510040374188236
0.4973591800307702 0.11799333376161769 -0.11838098276041364
0.6676425270996731 0.1801140910788348 -0.14265747430238207
0.6139145965529593 0.13189797750867172 -0.18099825927876623
0.4984835439106803 0.1264572083239699 -0.13231453824340633
0.5671225334984626 0.1630820511597051 -0.12726841914259523
0.5405791450502164 0.12914079497770103 -0.1367008842227051
0.615707646393318 0.20103817670204194 -0.10156808747406387
0.5368145768039909 0.14628524758310846 -0.1562926152445243
0.5787430135032423 0.1364495803431538 -0.13404317483698946
0.6074620867152021 0.1664402738879147 -0.12031686923765506
0.5724766910016967 0.12021777255343125 -0.1879516256553444
0.6016764705877193 0.1359319652008537 -0.15659360049930626
0.5607639744739146 0.1302162663695441 -0.13933197285355448
0.5749670340056099 0.17416078038756666 -0.08889383490196678
0.5044134655107086 0.11425307214871339 -0.18513832366112126
0.5229806733588447 0.11707208301906746 -0.121252755698535
0.6322732232917048 0.1704666484247781 -0.135058548153566
0.603026398767355 0.16852334826624826 -0.08909528538298161
0.5635783305393147 0.18420879495967313 -0.07342194225438448
0.5428791785028579 0.15467550417712062 -0.11989446934141768
0.5703099829042344 0.15677525288243999 -0.10874716885584235
0.6424315575779218 0.15296283558406287 -0.14896784528693274
0.5607189140065003 0.11358288689659446 -0.11670808793374476
0.595117793105814 0.15204211883312269 -0.18378585440672168
0.5313455260798605 0.20794495052210493 -0.059759755144455085
0.5157043647925832 0.14944531349793522 -0.13382181220920586
0.5899936589517267 0.14727803787643268 -0.16207037456032936
0.575664516932676 0.22072763189605382 -0.046881142487151806
0.5629436368755165 0.17303839655650677 -0.09843515406764425
0.5937970079016566 0.13809346175747805 -0.13781294449293569
0.6159549649976697 0.18618549135122464 -0.12420863174236274
0.5854980612232339 0.18363510852985598 -0.124614225782409
0.4642624081858173 0.09826572599712335 -0.09029792618599686
0.4408916426158527 0.06272013462080395 -0.2240071916611015
0.5628516493185032 0.09553584988859143 -0.21296621434979102
0.5294420618247528 0.16077044431804666 -0.12368775639609453
0.48205285280867827 0.1361216200785833 -0.10268342438310185
0.5585901015819559 0.15306582840787541 -0.11977914133558443
0.6041798428580449 0.16047659409926496 -0.15083776701563067
0.5887423301628303 0.17972690134118352 -0.14431135400840844
0.4585969125705418 0.08235998662779309 -0.11276160860505513
0.5200627088430565 0.1336699799186647 -0.12145832116732436
0.5947351376575227 0.1619086639680205 -0.13295789031562322
0.5905110943473062 0.14534384192751304 -0.1512500628218163
0.6378344307767776 0.199224434680076 -0.1356226649166672
0.6692812317064636 0.17162567336674783 -0.39974690526615575
0.538924501635222 0.13217649107767215 -0.09912301644114052
0.5776408962894237 0.09502656555716271 -0.10326970589979112
0.5545467368688435 0.12158473227826505 -0.1568388989446987
0.560112533363835 0.16940533810029024 -0.12088526092321672
0.612366186321907 0.26331762162232053 -0.08130044766299704
0.6717210407615681 0.1790780676837187 -0.17638294383387176
0.4906404537848772 0.14510803869133326 -0.09010467387527399
0.48834382479662963 0.08059859153148352 -0.18586577156780493
0.534973858465392 0.11310988475771921 -0.19197715375209157
0.5454151524655657 0.1344099052559784 -0.15381002538204314
0.5795392634634595 0.1821699454043113 -0.05717554085708798
0.5857648458834888 0.20630531969831623 -0.10886391698966236
0.5816739565987774 0.20540188423987615 -0.09111667340273755
0.40130891694875004 0.18589757967009746 -0.01934956430687862
0.48738788765997754 0.12607412857470024 -0.12839186799746471
0.5974088859837678 0.12350401254487053 -0.19111096600225608
0.5512052028431782 0.15413521794968688 -0.12793702410418462
0.6431218164026689 0.1384616302013768 -0.16010623210695485
0.5770450848550723 0.16479802087495443 -0.12560768479281137
0.5669441027264241 0.16363204181173785 -0.160037655850914
0.6097238470740649 0.20607304759768397 -0.12522839720487866
0.47217904907036257 0.0968116593329853 -0.15932992673140234
0.5674554977778286 0.14340712975480585 -0.12885389518568502
0.6327313906421494 0.1706557948418066 -0.16710884177940954
0.5529911356912862 0.16819969098213505 -0.12012775171258738
0.6426718792598507 0.20274766361444563 -0.16468370648586017
0.4846308712073153 0.13943474841748582 -0.11433290542788654
0.40985995679137943 0.07581631196083549 -0.13410335277129093
0.6705234220206506 0.22700765889175045 -0.1333137345824298
0.5611545322237248 0.1378571583396706 -0.11869923837961949
0.5718139206417732 0.13565678291925565 -0.08691386605407558
0.5626581007131648 0.16857988235199173 -0.1265364309144843
0.5408931469137173 0.15740019273594896 -0.14067674115679552
0.5370875556383652 0.11603659000591904 -0.13604290186459878
0.5521990111971604 0.21922399861186648 -0.04616200465005704
0.6065589431914447 0.13026099972799443 -0.1657467612551784
0.592274617119287 0.1510428396697847 -0.12854541450215606
0.5844035357973354 0.12727354814744274 -0.19054384941404123
0.4943893202628118 0.1848938768544599 -0.0341442077412637
0.559457501523525 0.1992962185640721 -0.11077083057054438
0.5938028158848567 0.09459342584766262 -0.1816637560146006
0.6031397930245532 0.15572359646498057 -0.1197453762460583
-20.371734770489525 -0.8586889898599139 5.301590688103715
0.5058304188361689 0.13152521830450326 -0.15439026982869564
0.6086160998655146 0.23674984279357147 -0.11851183287824085
0.5976037836538239 0.16226770818782654 -0.12980364078535445
0.5587353079114052 0.09696370630547335 -0.16824527578943105
0.6181637722709183 0.27608450642911464 -0.034964405525030884
0.4308770282592036 0.14453662737230388 -0.09136617354698728
0.5667046430904037 0.1457678499894115 -0.1420820403398011
0.6046108057168027 0.152866509770746 -0.15699388186908436
0.5580625522671028 0.14880301321224465 -0.15910791829927007
0.5619578547277229 0.1432149719167768 -0.1658240553750545
0.5501689597687545 0.1496664297036574 -0.17509568560076616
0.5450634254428053 0.2000777906314397 -0.10169696791913907
0.599471656508257 0.14577542545565336 -0.1334178359267355
0.563399838396279 0.19098886695046247 -0.09471782705116993
0.6693705237155569 0.13366549660220528 -0.18305327371231783
0.5690952911951257 0.21083347433284416 -0.07699812115237137
0.5093424572798426 0.06152774143822626 -0.2046507256597323
0.5237678538613579 0.15298780516711474 -0.13951717641201355
0.6283929638065757 0.190855438388283 -0.15769369152957324
0.5887051158264001 0.16217307170676065 -0.1624652243726672
0.6680924718838668 0.18645654272945933 -0.15684674875033977
0.5613285723087387 0.17542746184928149 -0.11195835470449822
0.583423575473418 0.1795937828552212 -0.10649518173219974
0.6193235547438576 0.21054499462390197 -0.0833082680659345
0.5701660018395955 0.2008721333641006 -0.09548851158234584
0.5324767191199555 0.09319865046938958 -0.15342612483729567
0.5922884771251518 0.13947588357260088 -0.12371149869018438
0.45510199639615223 0.050799890340485376 -0.17755125474278088
0.49218081664641034 0.14671096353868052 -0.032889239187070984
0.4997664272874829 0.11006032488262463 -0.1500300788344191
0.5641317451599264 0.14464802305268165 -0.1356667287031712
0.574783821958448 0.16087105809722857 -0.1346249203717207
0.49490499194119764 0.09008996941982161 -0.1258165968515641
0.5362517701285441 0.1847984007144845 -0.06504753492133375
0.5127440062381226 0.12100618314894973 -0.13607681432416996
0.4916032809362463 0.08139013012993246 -0.1276398688674476
0.5475475327611861 0.22172563942953616 -0.08574929731291547
0.6516961140826112 0.20790533474688289 -0.0841860038312916
0.5609388574764154 0.10476037423840978 -0.1774080007414085
0.5523980985912544 0.19158602518170653 -0.08663439868355738
0.5293220735271404 0.13776023830941142 -0.13169541115037475
0.613824786454586 0.13382382309855245 -0.1565525339408822
0.5565020293886249 0.16412800439728414 -0.13756211917630878
0.5316667810292159 0.9398063183796523 -0.22770001342020407
0.5541848998005463 0.1325990620693034 -0.13999469041011992
0.5902319170336199 0.210781029407471 -0.07461244180983329
0.528886039677289 0.25918461058751063 -0.09278971021355176
0.579570839105898 0.10991325981737532 -0.15101405479072127
0.6025704879135816 0.16454809706380047 -0.15246321298529608
0.5905244100982685 0.07953594644655482 -0.209333000255171
0.46966922581296444 0.11529951669081129 -0.14975704398491985
0.49241488790056565 0.14927876469818102 -0.11547104232185745
0.5960564739906005 0.16129280446247662 -0.12557878782902776
0.5779058042969325 0.12567658232511292 -0.1634351903909419
0.6094346554144892 0.18325525636004159 -0.05404720351505432
0.6860179643042414 0.17769027218568567 -0.12900246850877295
0.5622108012184412 0.15375158744195971 -0.12187721298289489
0.5668502600152578 0.16568419804642076 -0.1231301942477927
0.5560845393504508 0.11125399827673732 -0.16801082457324412
0.592958880145801 0.18916948748200468 -0.012141207513735708
0.5337983734856664 0.2186186769128824 -0.07294126411690627
0.6400178863015782 0.17453966144529431 -0.11706947771774878
0.6333695425815904 0.21975433472054817 -0.09017057810768847
0.47297911213001953 0.13688784203185378 -0.163924388093875
0.5019649280104943 0.1834028358190949 -0.11109730260012896
0.6140177953931385 0.14959054424586782 -0.1667394813611338
0.5283850662160461 0.08606344997707538 -0.09866828810592665
0.5496232606715239 0.1370970109632026 -0.12459183338253865
0.5789219678264601 0.14811363252282206 -0.1453273045281236
0.564077540987654 0.2019110641648183 -0.179369733715248
0.6117983953395623 0.16333765383434695 -0.1347172220676498
0.5514348574180161 0.1599242439452695 -0.08414786792776852
0.5834338662930634 0.20776920955373157 -0.16292151025838564
0.5162249403729788 0.19482220000830353 -0.08370419552881003
0.5502850421610077 0.09886376629745541 -0.15954200157865728
0.5274327540505936 0.1870317967435966 -0.05775253930417534
0.5980368073186497 0.12882488328499164 -0.18354608367656056
0.5641347189128822 0.15958713579745165 -0.12760320350196253
0.4919716200424489 0.07956695202270225 -0.16598871044156738
0.5172740079962921 0.2214560504099552 -0.12752546020638533
0.6077559320694661 0.18330217178957753 -0.11692077088612507
0.5433204069078954 0.20150972689330615 -0.06154609215104756
0.5615172630654115 0.1843312848100851 -0.09043339407257633
0.5233468935957148 0.17370503197354026 -0.09368319312666529
0.5392994149589185 0.19600311321437403 -0.09791280049407192
0.5916874817862237 0.19545253689008746 -0.07906105393909968
0.6475491608039619 0.18039072008463108 -0.14591236531178708
0.5973941807118877 0.09494414069587265 -0.19868628433387414
0.5317592084827822 0.03943356537720888 -0.22202855267498478
0.5414238396644464 0.17940799245610606 -0.13262647533910865
0.5720801374701807 0.1755238098990901 -0.14551007651620296
0.5524274000992051 0.22735049414851005 -0.025363752699860243
0.569721520051317 0.20163829682812207 -0.07566221746610324
0.5619889217764751 0.13080095548890824 -0.14729983892907228
0.5216334570411334 0.20810397564261507 -0.05575684138391068
0.5919591712080177 0.15444636909370502 -0.13230175775325392
0.5422522484066548 0.15639170201779962 -0.121921640714163
0.5982394363253007 0.11748049745914102 -0.23503787581678637
0.601281309126648 0.14048555903359272 -0.15775055989992381
0.5712854245538495 0.15257589276967565 -0.14145215238980313
0.434927733357938 0.11510368467394017 -0.12566313937195162
0.5722655911303178 0.15854441039670064 -0.1264202848616378
0.5477283084059223 0.06552831439178419 -0.1627282342983989
0.6015426546969564 0.16656924055601507 -0.0662504515495641
0.6220359556234882 0.16474132951719866 -0.15404845595398342
0.5657255162788744 0.16358102767428306 -0.09765456475629719
0.4780518016607971 0.15563204683351728 -0.050213046254839355
0.5833676133267574 0.2565226376139691 -0.15380436958700727
0.5816590145047229 0.19988189936030665 -0.10539158369519441
0.5533888710826744 0.08448912514906226 -0.1335511030677594
0.4447178292506919 0.07995933275229561 -0.18791822015354853
0.7269937475519868 0.21107688383550283 -0.15329522139889207
0.6074700278199998 0.18633267242890383 -0.12142839691611584
0.6023645338301407 0.1326674425051948 -0.14243263602931222
0.6106214268053236 0.23782515095012968 -0.1144119423234855
0.537150662409573 0.1311149427026237 -0.1324514580393128
0.5523270508294331 0.10490527047618059 -0.18458001406396818
0.5953512475058744 0.25275819339867667 -0.020608262270528144
0.5194280364507051 0.1398505115201374 -0.12189776703833388
0.5455161772339494 0.20986784544150794 -0.012533553653213403
0.5176454024009587 0.11822716766135954 -0.12631243410747572
0.46523987849947446 0.17823066115462893 -0.05958449889055828
0.5540209739427837 0.15927957686210448 -0.13695559850712868
0.5573663209700612 0.22176612602274304 -0.15794604022410397
0.5332651730955718 0.15988428845886915 -0.12467621570289111
0.6187128328316476 0.1584512181322566 -0.14419323038410425
0.5752292707162923 0.18058427370837649 -0.07989194689035628
0.5633747078659752 0.20616178293448684 -0.06344359786390896
0.48651289434668854 0.16643733217222234 -0.05673193058606785
0.643238151593934 0.13173941924929977 -0.15910507262972828
0.5758438652441384 0.15885158992777804 -0.10473720983804924
0.5944651236549561 0.2182232052893056 -0.13274069776652198
0.522122318448524 0.1472533558562361 -0.15116723615371086
0.5656842092196825 0.17471432336972725 -0.1201704338197942
0.4465440576941546 0.22733946082971102 -0.028952814722245535
0.46917534258214744 0.25866263295745284 -0.16756082439749775
0.5602875029306205 0.12422904931941048 -0.13983347709697114
0.679201703085468 0.07180654239172668 0.032033090782448426
0.52864208808802 0.21606903429909607 -0.03538060900956452
0.6184867273025105 0.1827673167905033 -0.16062395695615805
0.561670273329014 0.12292608284691653 -0.22173536480329403
0.6084785229774639 0.18730835824669612 -0.09788470752280887
0.5209843221778243 0.15783349818634917 -0.12125905215869182
0.47532472136614956 0.1569538656159608 -0.09592926567560767
0.5283924289271908 0.1834425183112529 -0.049150731053444474
-0.2278343740714206 0.6016530745553723 0.08842344161278959
0.4994850363601273 0.1499252571332903 -0.0972602380905414
0.5803488304550797 0.15394237672262534 -0.11793132169124476
0.6491811991408838 0.18567933753459442 -0.1575739583826703
0.5975794370568792 0.19253216742441737 -0.1134561651793291
0.5530469147486912 0.14532923498452988 -0.12285496766867254
0.5794596053726337 0.1689600262563431 -0.11965785589789846
0.5437689326776649 0.1670007112460894 -0.1262039833087698
0.5674243911594914 0.15551617174770627 -0.14045218052854125
0.5582024020728511 0.11094359226197525 -0.14508738543990773
0.5628406659351697 0.09624972596650139 -0.18423447999438736
0.48173251559995833 0.17072511433998727 -0.07391301215682233
0.5659155611864293 0.15198827581282615 -0.14267106546753894
0.6009639657952306 0.16151507101575646 -0.14962943137389573
0.5147325516402645 0.15323382066593183 -0.07443103426132325
0.5966304327782126 0.15020078772961654 -0.15642933305078088
0.6089220795268204 0.14026766361973841 -0.1622981849103553
0.5127938873737179 0.21476873228834847 -0.06900477652989423
0.5425791372927051 0.19979378174697615 -0.10026377202279946
0.5282671244142989 0.1213579705290897 -0.14816454413529812
1.0786376019388655 -0.09603126125165318 0.3707336725286865
0.6019725794299404 0.16615119568444925 -0.13114939813065973
0.6676255577261259 0.19372032442952047 -0.1648644853096073
0.5794997707763656 0.20483604064395422 -0.11572874773420949
0.5298314582978492 0.12878646124967474 -0.12262840107850081
0.5169022874205353 0.15383339787412353 -0.06991885419978416
0.5635132892107748 0.15265209303919391 -0.14189328170465387
0.6558669706777209 0.1467493290465427 -0.12562816059887894
0.5757532999279391 0.15952043210047862 -0.10340844706512087
0.5666066115348087 0.14092022412233973 -0.1345988219737393
0.6067456754776117 0.15364823992398158 -0.09815237589407388
0.5516669675636052 0.15398808444572865 -0.13638757623992603
0.5771434013375512 0.21309665424257673 -0.19771558990161964
0.5202628129628266 0.1385299440700436 -0.12267988037302757
0.512218313811843 0.19409866135343634 -0.15891313214653735
0.6272436157687764 0.18120588481873767 -0.14351559695181493
0.5480772977945634 0.16192556855078521 -0.09706421235669893
0.5924065133111043 0.20237148799732552 -0.09595566184346183
0.6138757855314765 0.11350700521965962 -0.14672573150285473
0.5736110571086357 0.13275262137864274 -0.14789349971682952
-0.1051844222778584 -0.14551643284639226 -0.26480684559808765
0.6138652636005446 0.14454739380049375 -0.13345728477302998
0.5890276887863024 0.17164389766168142 -0.14056981374699262
0.5794114303674718 0.15639510462433748 -0.11527060840161596
0.5870194983400978 0.15395791864492026 -0.1533909655882013
0.594477324026343 0.17720896927565377 -0.12320484873738735
0.7772156780920483 0.5833824300192418 -0.13257453429062593
0.5451399601353586 0.09191978670310164 -0.19230871459024002
0.5896700343858612 0.1387828983800432 -0.11122288453013596
0.5794234276964545 0.20408437434680593 -0.013826680657871293
0.558248065754853 0.1514510969970928 -0.1521703528787839
0.563001640246469 0.14597627956605663 -0.13466540309808295
0.5520040105805606 0.08467573669578599 -0.1701214449987276
0.5186885028917203 0.24627497108704688 -0.1265091987971232
0.5239555917023324 0.10415325200230541 -0.16972297758084665
0.5739443751818811 0.16352709951770805 -0.06506937455718287
0.5468380423921531 0.24411909645669994 -0.02693359538646689
0.5754382733431527 0.13038729407136884 -0.13195811896574128
0.6057152225769045 0.046664761056192106 -0.19084728048532895
0.6634863411472054 0.18432595193856116 -0.1169656700810151
0.5258440710432382 0.14747843327393184 -0.12908265030685584
0.586044689686716 0.14803515073346318 -0.17002612332642286
0.5663295302867937 0.23289429176921317 -0.03587964528433929
0.6449424269044215 0.21838988687719052 -0.12971580818458506
0.5746188374040742 0.13928497227686876 -0.15980270951945386
0.5349968075631466 0.20906602917992245 -0.06639405101684304
0.623669373794911 0.17045536607341205 -0.14030573434560267
0.4736537318093639 0.14760531605367078 -0.10886999458719515
0.6373571633872928 0.2248915450057325 -0.12453949487841953
0.562342006718012 0.16379263153248758 -0.1475458109349148
0.6231015326002876 0.19987113599228223 -0.10843822336623532
0.5485927596897398 0.19492357552134365 -0.08014684731774935
0.5399811222376485 0.09278265580591949 -0.15885959308320707
0.666386299198976 0.11880768754251392 -0.18159907887032034
0.610793172855665 0.1269127478548029 -0.16891536781076866
0.45397965369517124 0.09336678549632893 -0.13239845149053053
0.4631198683060944 0.14170288479679982 -0.1276259213322959
0.6516115169993526 0.19990072737519426 -0.11325834807713875
0.5894889682115121 0.18228085979218633 -0.10982613562737242
0.5498576286981489 0.1462028981284078 -0.13455416815784815
0.5561527472628285 0.14788710951476958 -0.1272475139027165
0.5767541070236604 0.1392335546640595 -0.15272788552549343
0.49853150252396006 0.14732929634116942 -0.10368650085229092
0.5657762639873027 0.1484302421494874 -0.1696659583112421
0.6319523818638544 0.20060419489163905 -0.11109071716805374
0.6415625959438387 0.17427357991680026 -0.1291958700380178
0.5739682562412014 0.18208491405059135 -0.12040627652331182
0.4405541809411062 0.1870023924860078 -0.16468437428531502
0.5735634681993105 0.17550058685245062 -0.11567034538943233
0.5929915616031707 0.14230301173182625 -0.16314217660006136
0.5582685345566176 0.16777363095653186 -0.10569643166212472
0.5342791199958299 0.15132610152231507 -0.11400275272663407
0.6881596070400064 -0.10233292904258917 -0.2946228799766004
0.6188981258724482 0.171771514538392 -0.1411584508253867
0.6321026493250343 0.17736710503612585 -0.1629658919385122
0.5060983984735401 0.12264063543139514 -0.16728063521470915
0.5306732698059591 0.2177743098636853 -0.07171284506291897
0.48443270727983645 0.1813876011817399 -0.106228606213989
0.5214441311816955 0.18365164367277487 -0.11128328630049111
0.5389903242610643 0.17804589671422377 -0.11582361064836277
0.6830811803252459 0.2292025733186449 -0.12058524708542961
0.6022193893087859 0.20411345881159093 -0.08580609725635213
0.5579479397991349 0.18260538813856897 -0.12460536904700348
0.4152849207838756 0.18008996298020463 -0.06318208707128292
0.6156064971245883 0.17189458622550546 -0.11856379312148135
0.5695970611544112 0.15337198035632582 -0.14477729510967663
0.49561895683103785 0.03258157847558607 -0.1994559915913925
0.5159120581939902 0.13751095672668612 -0.10029686228583046
0.6223470553592421 0.1614660417355509 -0.15077297634972808
0.6012229622351697 0.1471111171232593 -0.18569428165568524
0.6299963890334794 0.15527008213379645 -0.08225115419800488
0.5420425563638105 0.14335463178233 -0.10638814220035897
0.5637247809364965 0.1380365737829976 -0.12885416129056182
0.559279759543216 0.13222923383878538 -0.15461724644110575
0.5412343524563141 0.14617612616825681 -0.13454514789100358
0.6540308999385189 0.20301796985411613 -0.09126681132786985
0.6006447716508916 0.19325312240101766 -0.13007340890661112
0.617980730479502 0.20437232975402253 -0.10595662194793931
0.5966291356349558 0.19423761604060985 -0.1034714454436596
0.6051600689275176 0.1500680700458048 -0.1468022533589135
0.5385698141797661 0.06612477295655594 -0.08018884201494814
0.43886546883909716 0.06092173257954414 -0.22477664738867986
0.5498779076916662 0.24080529690429842 -0.04435576146323683
0.5270724011452472 0.14503769296362634 -0.13247221560655476
0.5652614252353345 0.19575439929933225 -0.05052428763585226
0.6195731359711232 0.15811420374119223 -0.10201619822612429
0.5970763464539459 0.23548483796280095 -0.04726289781231685
0.570615291948755 0.08907450955672402 -0.15256449522954085
0.5663685304425172 0.1252946366178378 -0.15010499353587647
0.5638236983392488 0.13016155618316816 -0.16522263922556135
0.7128029754333625 0.16508935665763147 0.16559530671358402
0.6634341213597565 0.15344453243906742 -0.25347715740123533
0.5977449248223365 0.1619495115467231 -0.20010436781939234
0.5390040306840262 0.06388911633644057 -0.26300058747584387
0.5168663754473926 0.1416963523538186 -0.11993498170123473
0.6617784799056636 0.21264389748040458 -0.13679474531542724
0.569580927058496 0.1557517290139856 -0.13997846392294377
0.7596589974466497 -0.2168623902209248 -0.3048405319718057
0.5886359647094395 0.21162133460100563 -0.06532583266012182
0.623787866173231 0.19234762654483006 -0.13889691558206607
0.5805346655545094 0.15870102671659936 -0.0256577495285768
0.37763352691128205 0.5200152402892826 0.14817212912777222
0.6217431011875618 0.2991209964401378 -0.07911560623530534
0.5325476295140845 0.1741894473703809 -0.08301306196456437
0.6568407716093105 0.2152242167109364 -0.1521486744786671
0.5425368531494144 0.1113270707913756 -0.1627795537776251
0.49117438054388174 0.1477171821203882 -0.12199239874058776
0.46171044044807275 0.052930746933824935 -0.33090080990801596
0.612739563984718 0.16554377757444172 -0.1428824338435959
0.6970534002417992 0.15478915765767454 -0.2016059836071662
0.5852488173209878 0.13762082176297952 -0.16919718249360471
0.519431799125158 0.07995840593271453 -0.10488694548612898
0.5713044026892362 0.23234160478628496 -0.020095716263867303
0.6379935314967753 0.1619967621903129 -0.12020874915785384
0.4273873879601098 0.020669906455296427 -0.3566232146092574
0.5969587974474138 0.20557758090799894 -0.155561389314812
0.5684815252494957 0.14496104998019632 -0.14251921675003132
0.5763669705074648 0.09946719390565306 -0.17755442931289167
0.5313614928742538 0.13644483072278035 -0.15184055082849568
0.5626380189231952 0.1537734601670877 -0.15297075126120774
0.5426469752094505 0.11379456887290473 -0.14236488685136806
0.667647406918519 0.16292258933175674 -0.0827969992665345
0.5449318488260957 0.11581177495966699 -0.1416449885739013
0.49372394465081015 0.052389545359559975 -0.20221058264310443
0.5893204615028225 0.1806887775757673 -0.12065125757034423
0.5188942060695041 0.11399610412870231 -0.1781327869171605
0.5413762971207063 0.12286744581049902 -0.13538290802958386
0.48475367926849344 0.16656732688093712 -0.06563388306130946
0.6297241355084111 0.18576683139785644 -0.0532932299370259
0.4682950958606966 0.11919487538774831 -0.11457929650815402
0.5496451708541485 0.22715233506268362 -0.07063529602172025
0.44358532038712895 0.11361157568201463 -0.22507319032881412
0.5281231117392622 0.22507878142661752 -0.06583201383206472
0.5554704863313447 0.1520056278396993 -0.14758933708159816
0.5849545950529489 0.13537824766559936 -0.1499487505438708
0.5666961606097374 0.20989579518202106 -0.04822479771438282
0.41853362728079446 0.11604378806153193 -0.2364457735094021
0.629986074152896 0.16456721166773036 -0.15785559693861728
0.5816929918705256 0.2226635688078602 -0.11844258476619984
0.5602517509556719 0.13015107670493364 -0.13449309167438628
0.6245436550001386 0.06704865466612375 -0.18955164158893467
0.5561667056229709 0.24554018379851072 -0.09141669884775183
0.605994565543142 0.19161093812142838 -0.15987301844590718
0.564160749147959 0.19576944492760617 -0.1400109797641278
0.5453161549673808 0.17439056759045002 -0.09040433097635514
0.5245940789774579 0.09064448676932102 -0.16496417192358592
0.6385360905967588 0.1704214715767307 -0.14079856583312278
0.5581578408826573 0.3206255355141394 -0.16070283017450038
0.5750481781348213 0.3488659955514777 -0.031874339367334414
0.44694295677891205 0.15456470023953273 -0.08800698903635862
0.6012597228318697 0.07154541385496316 -0.19566043582393888
0.5564970326019818 0.14624847802313923 -0.14121552122649916
0.6075498742006573 0.13703567023665641 -0.1907609401518613
0.5617875667889081 0.15634543947504653 -0.1475973679078919
0.5822502066556723 0.12619141705555137 -0.199052524811961
0.567945576489663 0.15870622453792294 -0.13003500377934074
-0.36947353117989223 1.0127814044216734 -1.0165479390204268
0.5234415850832619 0.10596792972526714 -0.10608758987501687
0.5762778608734891 0.15395217591544963 -0.141023346095551
0.6111780734617582 0.14046381323706214 -0.19163457926568128
0.5672185163344068 0.12317036299424444 -0.19491672741264665
0.5672043631382166 0.21716821634572625 -0.022767902732965695
0.6115924564942787 0.20571681154628152 -0.11385128947421208
0.5560326603557542 0.20427238007023618 -0.09246105373762248
0.4955139521472063 0.18152492442881396 -0.11383230071071182
0.566409234016291 0.20112449137343447 -0.08348690755637733
0.4913566295997498 0.11864856739151719 -0.1256158028282499
0.5893230362571131 0.09870669544335442 -0.1598542778397416
0.6310474547698419 0.21406078774828075 -0.09761376881624528
0.5598530540991504 0.15109559711395093 -0.12125664817357062
0.492822117798454 0.1464710748460334 -0.09836731283385802
-0.16114981345120327 0.45107775278373197 0.2858871685993023
0.6266522167744455 0.15436441253456223 -0.21153760604617844
0.5911331400211424 0.1207782035546785 -0.20114612151790823
0.5941807938095991 0.17226462845258084 -0.14339058813129668
0.12540270137625953 0.09687108612631334 -0.5973494108949211
0.5415158296706153 0.1390329863087203 -0.12292306070413872
0.6162774517751046 0.157053235504506 -0.14731903433853688
0.5796736396413564 0.15957612217422934 -0.11362355184317607
0.5329791998384081 0.21089607713291514 -0.05926710957680825
0.5050541620494329 0.0814695393211764 -0.11358029981155937
0.6142147604319348 0.13896498958509085 -0.231263291368478
0.5438777954504985 0.14563890811827207 -0.1439932670407984
0.5625021100640737 0.15119034247658192 -0.13591709505300287
0.5740797889964142 0.16504110325259091 -0.1439215398600595
0.5771941664023927 0.1524825358863211 -0.12230840181965164
0.6158450538627704 0.09213375150255843 -0.20276273866683425
0.5378182027466494 0.15685932612061038 -0.10628492354020125
0.5613098712960749 0.19080439182808107 -0.1080764026517329
0.5851458350253012 -0.0825353090166061 -0.17674181504438025
0.49228776370266303 0.11704315539185473 -0.15164570964689972
0.48421120309329524 0.157809380691603 -0.10266491958290658
0.5829202418736941 0.21243119413503564 -0.1244507138791846
0.5495915212480327 0.21275256424563338 -0.04725500566061669
0.4755688168988428 0.15963642825134627 -0.06494522516715051
0.5901144101899547 0.15204737896877418 -0.12425259498614594
0.6544495495042355 0.16541008830328963 -0.11666416777781308
0.6182122373023446 0.13834189812000375 -0.15475207266287327
0.5339144254260049 0.12419074133785557 -0.17549491028202624
0.5536339971279887 0.19664013457527574 -0.08192075042178715
0.5995889287882221 0.1225199231141545 -0.18537958153241618
0.5849978455163551 0.2119405168459565 -0.11696914666994473
0.5956782248195367 0.21768117000954135 -0.11515435047554945
0.6209396090504953 0.2226880042734649 -0.033283213021505276
0.5599188261708008 0.15123780052680047 -0.1369383116936831
0.6105763981272361 -0.015453621688678254 -0.05455592554311295
0.5430682842934687 0.14374194827183828 -0.17981879132970846
0.6435969201996556 0.133014231255018 -0.18501307787511223
0.6145307030116669 0.15588244386596273 -0.16462869382039003
0.6453338614218325 0.17610580771660977 -0.06409923825970054
0.5539737838496279 0.2594990007640092 -0.18154242918970454
0.569726244402986 0.13651145501773954 -0.16014411444106713
0.5656614642061868 0.15320071221390208 -0.11436088162726321
0.5658428955353259 0.15683220094618378 -0.04800185807124535
0.5487040934371947 0.25462361562851754 -0.061685931705738994
0.6315052862240407 0.18294769084414497 -0.15082399166257687
0.5531853683854138 0.11479946040469713 -0.13307334454604813
0.61247566666745 0.06083032786447973 -0.21761503214189304
0.5534976120252821 0.1845713027643967 -0.13926107661586684
0.528236207750524 0.14844136881961845 -0.12170659378168125
0.6485496638930073 0.19769712466238332 -0.1884940183181243
0.47662826695896854 0.22138576728535497 -0.0024368796912881407
0.5452779757488742 0.15284796330911377 -0.14401449786456055
0.5658481578812058 0.19442727457237652 -0.0757050072038794
0.43672872998125456 0.047171621009084674 -0.10789996532949431
0.5542973165878209 0.1709772327035637 -0.13080967327204007
0.5552513027218424 0.15432556236710582 -0.13590449734282117
0.4797430123320794 0.17384713727794576 -0.09125167144161139
0.5568980816747029 0.13754331340643944 -0.15998430539775654
0.5503259726209393 0.14425322528303752 -0.17848879809746165
0.5996852012246592 0.1687664745480646 -0.13016620669719714
0.5282680161924844 0.1104584817644394 -0.11656169895729818
0.5763847912084827 0.21717783137795266 -0.06579559268419644
0.5042564928633197 0.14004428797758806 -0.11867457923209201
0.6387167170531285 0.1258999553604525 -0.1976522117091406
0.6204217049896243 0.21589171439383392 -0.07742490466640106
0.48181730152420243 0.12054534655793248 -0.10035406844538386
0.5777830825352055 0.0887151972689253 -0.25362615000946676
0.5657250327981558 0.16616078286809 -0.16064184708736207
0.43659371919882517 0.14185653605049708 -0.073506596567114
0.5863537297183967 0.17012844728216692 -0.11210908465287162
0.6037289721635943 0.19793028048073324 -0.08492742536961373
0.607552530644341 0.15041478229849758 -0.13699273114927735
0.5836099353530955 0.1715187982208164 -0.12508552872638745
0.5091392952713818 0.11772080422680631 -0.1254794469134879
0.5403382730834068 0.15907550091914402 -0.11220139633536519
0.5836254162593377 0.13769065237234202 -0.17355063015368444
0.4748758652999925 0.10152401427436075 -0.10193744424547901
0.567850580381716 0.15550797021836615 -0.12727380196047022
0.568829054425791 0.15101089708370807 -0.13970539375972635
0.6065383398706103 0.17804123644472725 -0.13505355555489018
0.574690369375773 0.20054951075785254 -0.08919029660201261
0.6033849640439399 0.18234895866454792 -0.022512638612738556
0.6361198217554858 0.1587371907862689 -0.16468458925542961
0.5600742057791734 0.16133021772843392 -0.09826678787756293
0.5765219651751465 0.17854886020305116 -0.14291418069473139
0.5533958305561839 0.14935945406035955 -0.1388666843185007
0.590998515520198 0.21495792710824446 -0.1019219540434193
0.5872517887742958 0.15288217839672313 -0.1789164737803901
0.5891740404045294 0.13428210669152918 -0.16593629278000321
0.5921446231461687 0.1370070071426852 -0.15863955763767024
0.640391154579504 0.1728993020725227 -0.13679298399800643
0.5328395049088357 0.20543135789603184 -0.06071966837440357
0.5405741312820282 0.08650788841163148 -0.16885179676147288
0.5499148279948542 0.13668710867243306 -0.14441169001794663
0.5561465072986493 0.06524159751772629 -0.19494046682684996
0.5267767277876629 0.09648264912765114 -0.14632049713317485
0.7615614616897659 0.29974017467313274 -0.0772346590457289
0.5366230554219129 0.14458519151567373 -0.15049307417454827
0.5831730851383838 0.16083447430345643 -0.0878960552480379
0.5740859119979405 0.12600141053478353 -0.14025692938696466
0.5819937174084799 0.08332011922540516 -0.16847578978205036
0.4754458059215523 0.11825662924552205 -0.08830150200421372
0.5674719500659222 0.14601986520754906 -0.1403823081445097
0.6155672980704026 0.17300631006366984 -0.1419787438473179
0.5353859303146606 0.19730413857989504 -0.012568875047918482
0.616942892868849 0.15995926621799583 -0.12485639579804797
0.517833009284729 0.19537017053070826 -0.04261065729572522
0.5644686256604103 0.14889362877111978 -0.03006946484697437
0.5556148004522754 0.21368759719749164 -0.07248632442569658
0.5803461478450487 0.17205176709005343 -0.12013372411989565
0.6718198744586488 0.2861055452857926 -0.17383707719767472
0.5034400352639778 0.12622776664778712 -0.2456622955881329
0.5543101252651894 0.1577828997407522 -0.12415826358915183
0.4284207504708064 -0.19204329767767092 -0.2884383121739944
0.6398027051107391 0.2920274695799918 -0.24898622960526495
0.4815214601541271 0.18113171862678712 -0.043773958541223124
0.5719822602462159 0.14874249748950774 -0.17332898097058091
0.6468147518919523 0.13642707559860412 -0.18978476895048857
0.6254801932443428 0.44180722895625024 -0.32967383992605903
0.5966625275336668 0.16067001291072813 -0.14406400095739968
0.6257300298735657 0.17290595739376613 -0.17584226887574061
0.540489479967249 0.2091690496810088 -0.11370946569326179
0.5115910681679736 0.14622160645687643 -0.14202406008291746
0.5794939239980295 0.13221385464005664 -0.1491771944817799
0.6595376004289903 0.2127547996903587 -0.059499512512331876
0.5857403804257331 0.111007891423057 -0.15819515142941043
0.558616162340428 0.23305393547370556 -0.05087371767055515
0.5757463691323181 0.1706938078164768 -0.1369546615879642
0.5632687833627443 0.12514659389297833 -0.1361988932678031
0.5320865362771912 0.12983361755617295 -0.12736519369831
0.5921450516699593 0.13002396369017788 -0.1850160392024378
0.6058679279599914 0.2540535328171245 -0.05484516886336621
0.5819018766855493 0.13953259360550874 -0.15464735301439703
0.5791954403460124 0.1216961966988066 -0.18661166612183422
0.6849683386561765 0.19917018466962588 -0.16345719907062062
0.5311001903985044 0.15293738846267502 -0.11069010699816317
0.5308900189720589 0.16420495796594992 -0.09837582922460797
0.5032419086343225 0.1546739892065716 -0.13017463563956255
0.5914051917760474 0.17868594640346203 -0.09598835588433019
0.5590166138689483 0.139467187647611 -0.13646942900399495
0.4900158875729659 0.19256502320163804 -0.09440849471305057
0.493827787544447 0.1088235643214972 -0.1465693885612751
0.560412494951251 0.1227509017707149 -0.15376044352896656
0.5834142852339141 0.22656572559837684 -0.10057577608125712
0.5425178935204258 0.1185132422367019 -0.1431869492074327
0.5788987020284395 0.16644853494499046 -0.12487773884298292
0.5447557238902334 0.13123932711812358 -0.13632199007454915
0.4846213446001002 0.13527882266480162 -0.1537790385424671
0.5822112660985965 0.174249291253318 -0.1305200334729193
0.4838830918741337 0.17587450260647586 -0.0437593114088628
0.5564879808972307 0.17707679284661992 -0.11275593282186946
0.5594330113280819 0.13581593165943673 -0.15540318775295248
0.5999357350350181 0.15876543912034435 -0.14160895144414098
0.5126417559956451 0.16537340183225524 -0.11740320382673985
0.6176080850364087 0.1807007389167552 -0.09157876528509235
0.6295543961024208 0.15394158639341526 -0.16340812875434096
0.550315587243702 0.19054969439974911 -0.09696577064161715
0.5856345416186741 0.1637932133318145 -0.12967672905297434
0.5380945961418888 0.18947123859378223 -0.10304487216927782
0.6217710864880956 0.15198810154780062 -0.14619884959543583
0.5682762248840874 0.15100104613289034 -0.11982458960130771
0.5615426163412849 0.14109863187354676 -0.08560360599101102
0.6324209583966507 0.2968825401460009 -0.03980972717243958
0.5410147618848669 0.1568003208871147 -0.13962919756242798
0.5079044380006508 0.16396361007150517 -0.0644436862345259
0.5674666363022993 0.15408245983425672 -0.14277857131540372
0.583395089225931 0.13529209422662802 -0.14163812016894894
0.5837899395146451 0.15064533316326845 -0.1580947392950236
0.5724271036082058 0.17432645565826022 -0.10311636505825561
0.6207506089484127 0.18063306352851782 -0.11517252870160632
0.49705501636685767 0.16899503957994 -0.11184355436434146
0.5963878928773596 0.22909299908809544 -0.10273486074511595
0.5154631215339265 0.1524373956932692 -0.12242424500252014
0.5776157257173793 0.11442448094936708 -0.16759838593806364
0.5424771854422801 0.18173893612016911 -0.09292380393769406
0.5585094536408235 0.2233596417533903 -0.04933012666678849
0.6468793126060604 0.189859895407281 -0.11745703453966883
0.6141586513356003 0.18895410980393024 -0.09731509536187843
0.6937391881712642 0.17692656830644182 -0.1705594227425138
0.5740609937930259 0.1558835199223978 -0.14180826496541954
0.6112957106776378 0.21897569365854963 -0.14917610753342103
0.497391835504402 0.02564339225513379 -0.20936239768779785
0.573528895880159 0.22447773577511043 -0.03489495359563932
0.5679862389395112 0.16979063523142202 -0.12203299553121383
0.5517417285960562 0.1196619469869944 -0.14746901199330864
0.42649152822436065 0.14922929320150047 -0.1332321183210894
0.6299903191957554 0.146142314334881 -0.1935507998545063
0.5569672324412949 0.15527531471795442 -0.14432237193173592
0.5157925696221355 0.09948526945623826 -0.15410373926432896
0.5518572588519248 0.15397747641580395 -0.1427218617115642
0.5656596493169275 0.17258805961141377 -0.12542546115551545
0.5430983954070001 0.15147090802770435 -0.12327670601654006
0.5620850886680984 0.17316101555105945 -0.15227434478298107
0.5781085096521394 0.12526665708357143 -0.15289353016000007
0.7905850704765527 0.12827139611992777 -0.19168384438947328
0.5690502920716085 0.14764742494389793 -0.13268639921541592
0.5608864849751996 0.14823816908503318 -0.14055075594019684
0.5805150435233202 0.16110880798150617 -0.11213699474070893
0.5732826896107639 0.14984568726406167 -0.23842773505231207
0.5665963449421128 0.15550850757732348 -0.07451069284689993
0.6529536539016902 0.052452505888282985 -0.4258108476855682
0.5341337486247255 0.17108373465156035 -0.10859483770288136
0.5458193206894464 0.1435327814936187 -0.13873119461969452
0.5608456208375685 0.17164232741454555 -0.12622605609757898
