# .PCD v0.7 - Point Cloud Data file format
VERSION .7
FIELDS x y z
SIZE 4 4 4 
TYPE F F F 
COUNT 1 1 1 
WIDTH 804
HEIGHT 1 
VIEWPOINT 0 0 0 1 0 0 0 
POINTS 804
DATA ascii 
0.5732194096228085 0.17285788324471696 -0.08737128001669703
0.5318597608770688 0.10055048613065765 -0.13419343705135134
0.60322090959923 0.17419242686290204 -0.06932032377336839
0.6877981608691783 0.14813742615925207 -0.1543766147143657
0.3247779765131753 0.18264965653699505 0.03520919144912682
0.5789527111761146 0.21020511380498874 -0.10210375836400942
0.5678723771544156 0.15032238447000168 -0.15353463343356566
0.5796239254994049 0.19707738709954015 -0.08252189334641002
0.5075593858574763 0.10746451016760261 -0.11615315865164177
0.5541337111830131 0.18097703312645308 -0.1334443539324468
0.5783914204158407 0.15927854306747236 -0.13334010719030687
0.6810676601609771 0.19957699368404747 -0.1668393457955517
0.5665948596243453 0.16293128801325452 -0.12336957078920818
0.5464516073468104 0.15532891802070026 -0.11727243712311974
0.5681014535693407 0.16291861493158422 -0.10920832452977436
0.5713857496831451 0.16855708456853336 -0.12985091600029364
0.6996324742663091 0.21184110955286428 -0.14272400364318116
0.5844431171859696 0.14409783555592526 -0.13373688182700505
0.5955976426335354 0.1543692069236613 -0.15276524729053165
0.5361879094669888 0.1730767391056247 -0.13563855241579859
0.5548457625779974 0.16075896195496853 -0.10764260526511293
0.5657807066925926 0.1901359734887933 -0.13115150860798508
0.5122811762005739 0.11042138184186001 -0.08481348439177339
0.5667322404804196 0.15671338432397874 -0.14014685580877995
0.6299740062441543 0.1977541334970283 -0.15417619273516436
0.5853313451009541 0.1254548845325587 -0.16760301034443614
0.5689983831701113 0.13473975246006376 -0.14378780680982572
0.6044552517289645 0.2038433056724216 -0.12646074934195894
0.5968805229471172 0.18356973224049966 -0.10895925480805602
0.5813885720588132 0.11751047092877798 -0.1736110067159018
0.5977783019648655 0.14021714687322628 -0.17732986413143692
0.6758589515606559 0.23763971221484326 -0.08782462381476819
0.6081967097592553 0.15979839588482037 -0.15541599121326044
0.5302657389560324 0.2173815552257281 -0.05969881008059019
0.587159460862992 0.21750660385100673 -0.09804257869645028
0.5623401311183756 0.16594825349204712 -0.1324431637168857
0.612124398702889 0.1902557512345595 -0.11276913553277268
0.7086347001784219 0.2019446640910303 -0.14361822673913593
0.4926473985801323 0.12952354136911026 -0.13772534568143158
0.5409211450345595 -0.6343011904212119 -0.3504242306932639
0.5165929815100867 0.1770750761580473 -0.10711666297525824
0.3340641787474965 0.19555426952589983 0.058423712484682255
0.5492023971643221 0.18798290710739707 -0.11625864453061752
0.6257033755751991 0.12193921756778536 -0.20798821673588463
0.5656107222041555 0.2569632669962232 0.43598101583171456
0.572860008515022 0.1684948489443343 -0.18238622677607452
0.6228841211042777 0.18157824217252028 -0.10339889096769639
0.6022500315003185 0.1606971174334717 -0.1284172664094001
0.5502911109651478 0.07001488144391033 -0.1572328893874868
0.6587779990935871 0.12806688010078915 -0.20005431992953504
0.5688235530371912 0.1564669236443308 -0.1255376815135918
0.5595711130710868 0.15121231505509058 -0.116465193440078
0.6347473123820038 0.08934242765093359 -0.2656775677341585
0.5762143432263827 0.14865124324589374 -0.09209917442913707
0.49710561222697436 0.054036182410555966 -0.13712860331943943
0.46900250935108545 0.10997493584187623 -0.11363162878693345
0.6051282914984029 0.16777636851205102 -0.10967085625364348
0.49967190031046016 0.17710931242027073 -0.053525206813560544
0.524133800052752 0.10561046975826116 -0.10365220974512113
0.5539604582560855 0.13879648268465417 -0.13990743071792622
0.577766030366675 0.1476794388663052 -0.14396884877905336
0.6918369448767123 0.18337042909487877 -0.1280836768146969
0.5923567165404648 0.1816517661554542 -0.12224503130988751
0.6750287316964716 0.16781547694617416 -0.23371989332621013
0.5790874016132364 0.13219036140517915 -0.16354335642247975
0.620416940883814 0.17623496921456194 -0.08292121770402616
0.6593990797477716 0.18079444247157994 -0.20472845257421568
0.6464784700168025 0.15416888867611078 -0.14639152532798505
0.5891173182325957 0.19947685488881461 -0.08911362436005277
0.6481337999666152 0.10762080156376896 -0.19159105955874622
0.712505649609966 0.20619422006916466 -0.13155031940290485
0.5652675537130989 0.1630079503045465 -0.15029222067219905
0.5769804273368777 0.1945211559926463 -0.11144973225383126
0.573499759304255 0.15132012398876782 -0.14278933209318723
0.570963409864305 0.12333551961464195 -0.14509747207742407
0.5223398259391416 0.18614877800033014 -0.06924611658624258
0.5613233143302665 0.1473579760311452 -0.13445049470807646
-1.3235298320812348 -2.132289654938745 -7.573570040662418
0.5629826880390709 0.1720199393866153 -0.07911438537634297
0.5635438849002696 0.11557212151171825 -0.16936458571487378
0.6361835992359772 0.20018752586105393 -0.08430903220993002
0.4967695637854632 0.18408946475054222 -0.07113985713199611
0.6021227935171822 0.1671708642064118 -0.09867652913722225
0.011602463123409734 0.145474174404427 0.005914159655048934
0.5643424836151354 0.174640939304453 -0.13215856212293886
0.5676804729450566 0.3768629341001315 -0.05853648966696312
0.580588365959585 0.1553473307434956 -0.12226646052030787
0.6598907127573455 0.2014959394783773 -0.11734760347445672
0.6159648014131562 0.2266103613075643 -0.09132877297182063
0.4905800996945686 0.12753716376721513 -0.1077384892573292
0.606901981892392 0.15416331183456577 -0.1228047363893836
0.5751488139330547 0.1437802243376325 -0.14301313740277521
0.5689132972470787 0.14717014104996906 -0.12379856713729964
0.5737990323294326 0.18734394292710022 -0.08920725698091303
0.5849831948866466 0.14173322753904927 -0.13728306495879394
0.5642593017484785 0.16414441255341217 -0.09805249465371446
0.5477789451769297 0.18455804075142623 -0.08387152210887905
0.5872286752201745 0.15979395459396528 -0.12916018891849035
0.6641273329819342 0.1418296523903564 -0.21114916055377364
0.554216892735397 0.22530144960720122 -0.0995324620860174
0.39527755947430876 0.5868340601476802 -0.23691439689331162
0.6064010772216335 0.16332595973054254 -0.1370126144374666
0.5371606823465527 0.14875567273574575 -0.153264519190202
0.5973084797733179 0.16480006730526497 -0.13040875039905586
0.6009574660433543 0.24574944310998603 -0.08441036608618901
0.7007710361285291 0.26874763792483236 -0.18957095467750662
0.6018462061202996 0.1931168299939543 -0.1108390221704525
0.6011428544377821 0.14335871189928184 -0.1627579817751581
0.67531251711533 0.09730391127911275 -0.16628024935685914
0.6064932709250712 0.12985797160393986 -0.18798509318419576
0.5673595566126863 0.1357540020318595 -0.17872776276149693
0.596715789648016 0.09883209055743691 -0.15822071735884435
0.5362493136688187 0.13578812089994585 -0.12998299929670054
0.6399035385815495 0.15583631260130915 -0.14975366590371664
0.6306582113831354 0.23605544827987046 -0.13263657152198505
0.5948462471594382 0.171394548009971 -0.12106005267780517
0.590498609780937 0.14503149205339128 -0.11870746967250057
0.6672600235480246 0.21245030147230182 -0.10080465656140802
0.41209435678199213 0.02025673844849507 -0.17488672081304912
0.6204682962272159 0.31964052914551644 -0.0347500030082557
0.5763757170005448 0.12395729455587912 -0.14621816777437857
0.535682411375646 0.05293991435772227 -0.11383881573405574
0.49032763066392704 0.08596521204137275 -0.15708444244006614
0.5905179735714512 0.07541582724948626 -0.23902608065306197
0.6313698648048387 0.11210045964787696 -0.17405861596580507
0.5835054891274893 0.13934373137374223 -0.14838361656794063
0.6481057668307386 0.12944266894930934 -0.22371001594038376
0.5486006010347495 0.11931069922346182 -0.1309298119062987
0.5045053727099003 0.1523792619998403 -0.16747746277157205
0.5173626116967966 0.04155304826264228 -0.10326425273198936
0.5371288135555119 0.09047007440156563 -0.1846877003639804
0.6287527039462475 0.19481501436973758 -0.13558318663480406
0.5699559157711178 0.18864635947926445 -0.07789331052123316
0.5910283403587613 0.15110993913270931 -0.13228265470506528
0.5738824162261409 0.17337911033646947 -0.12663548980854955
0.6702781259699577 0.17551811100517511 -0.2102884254417745
0.5829618482200516 0.16568786797998314 -0.12354743702293547
0.6154018557416094 0.18322688168831291 -0.14140937642899587
0.5129578510143205 0.16758242013557378 -0.0819626485582603
0.5846735900507696 0.17236475021431374 -0.09674021835174074
0.6401063651433958 0.21807549688850258 -0.07858891141218294
0.5801281306397073 0.1720618277035726 -0.03829267254489821
0.5762498115910404 0.1458623224293376 -0.1331982925078421
0.6187742896118209 0.15634895371013613 -0.15645693940346916
0.5752698173455286 0.09397750226179369 -0.18491304233572237
0.642084951093409 0.17210163777068033 -0.12307048321588354
0.586907669104761 0.23735906874668444 -0.05357772956556062
0.5887392395017486 0.16392399633926402 -0.38276602473216315
0.5585639874410191 0.14591630587517557 -0.1466972345355657
0.5764986671675416 0.17736761162362313 -0.13821893308987399
0.5268282074112989 0.19528868984787096 -0.12321225101506172
0.5824862259332662 0.18834954968446027 -0.13950683149688814
0.5315673970906545 0.09945097243789291 -0.17885873324016188
0.5378391304130048 0.303774551785466 -0.09427845591933703
0.604191019716211 0.14068183712879545 -0.16217552070489205
0.5625992096649384 0.150667739404156 -0.15942996096951845
0.6612733583505985 0.26453613168945367 -0.11004905836283285
0.6082762501300323 0.15181469120491897 -0.1463252179540433
0.5888940805865985 0.09083506373525552 -0.18967500074765553
0.5875085078642286 0.17381603372720633 -0.12862200586349104
0.6284820565118991 0.22654759059855678 -0.11321606227885184
0.5690826654121253 0.22857630313924915 -0.05692239979389058
0.565913866414391 0.20160261256413037 -0.1299567036731588
0.559213024061961 0.25077668492627936 -0.13175541863772366
0.6418058418880008 0.18140795990731817 -0.08707389753622863
0.5509081901969637 0.13370225365355282 -0.12687349645804602
0.5322588598367872 0.15835218786773453 -0.108474799339902
0.5520169024299122 0.15637502276922532 -0.12508822178267565
0.5072552039629414 0.1596968561403571 -0.14280253907030271
0.6397695641622931 0.16960425119444267 -0.15841011500837965
0.5814498128694936 0.1533057175664112 -0.1403431755793889
0.40456905216088046 0.19769171077297187 -0.27512998528725063
0.6334846797962541 0.17016092967423901 -0.13786522903949106
0.643738394314255 0.202632719168804 -0.07649446133495985
0.7502533549310186 0.28875512642215995 -0.4640932974090646
0.5902171349140133 0.0908795423185893 -0.15882267764807523
0.5519008497862927 0.11155286349429616 -0.13728761339304185
0.43391763530374305 0.13388962555086437 -0.05342752909203341
0.5773296794767475 0.17241441852277717 -0.14286086422636401
0.5630100893801568 0.09232651032718309 -0.19167323722972185
0.6169503075704341 0.1932031138774164 -0.14477659287715028
0.6037398825450992 0.1488916859476035 -0.15756072719378267
0.4991692835887136 0.2089518071674945 -0.08478482061491377
0.5999820950231651 0.2540911796402838 -0.059754748095485866
0.6076436734654038 0.22418651947577928 -0.03576095031405657
0.5702519388175631 0.16612869116895013 -0.06857824223975229
0.6044936508764351 0.15999433744053704 -0.14408320585735623
0.6639898960350621 0.2654433552901594 -0.14288835493334773
0.6700905942267781 0.19796529872363067 -0.26213547184114816
0.38352901758351265 0.22614500042573127 -0.06821480618616249
0.5684214024956873 0.1800691225584501 -0.13305194679436738
0.6618075322624861 0.1873381963450811 -0.11857636295064822
0.47871444004876196 0.16639323678970186 -0.09794477435164595
0.577488627607309 0.2818253919825793 -0.08498458826987587
0.5735841314644148 0.16859780791932621 -0.17442396027918505
0.586835328817287 0.1483122680902227 -0.12516409278200058
0.5730517960468262 0.15235830066009726 -0.13627095789586008
0.5685803259549118 0.1787244920894011 -0.11376663308773516
0.6530426868134924 0.20771791579281285 -0.11397243170823401
0.5513321620113629 0.1611506776638123 -0.15758667431005335
0.39018499409060325 0.1488987581051049 -0.19779950472629082
0.5303061579900685 0.1600446911189124 -0.06652603187120576
0.6266823560539194 0.13761815332210858 -0.1493548815371213
0.5657398919804848 0.19098948809397598 -0.06918662296371281
0.5025483957986125 0.16059325212430053 0.13170850097080233
0.5952269088410844 0.135199108373655 -0.1663979753031839
0.6028384637409516 0.14591340302106914 -0.2340025457498598
0.5820521300390027 0.11840061750393716 -0.21053858076757592
0.5446747775864935 0.13440735319014152 -0.13342262906033397
0.6213808042108155 0.2549799446846919 -0.16578892688795577
0.6351204408468476 0.14706003357954955 -0.19860671954081965
0.5502650690960706 0.1552609009405046 -0.1389607699075981
0.5798189415608306 0.16420026085805262 -0.10135679346252857
0.5977461614210569 0.15495892936235123 -0.15050280537927563
0.5729196307282649 0.11800975112015522 -0.13505286794153903
0.5686139350087132 0.0983085412234459 -0.22141408391743767
0.5900353340016267 0.1564837925448046 -0.12188263271549715
0.5804362821582743 0.16946111012009624 -0.1193198042864907
0.584946007648611 0.09289175024753149 -0.17322313008142487
0.6825974653066282 0.12216473174987641 -0.17984980562525266
0.6087524223868428 0.2134652669743673 -0.05898207552461088
0.5666506298287146 0.2798869806750872 -0.0007761151401837196
0.6429288863594991 0.1584155497078541 -0.12925438843086567
0.5168932983594345 0.11865548362925438 -0.08474664587632219
0.5183889463574332 0.12492813677263825 -0.11220762111771876
0.553471576805947 0.1172020949542798 -0.15748020593483147
0.515401438692578 0.1745393420418111 -0.08166592958346541
0.6026146397081789 0.19368465591190898 -0.12279599407216324
0.5720006458770968 0.07294112685693221 -0.2074307563879927
0.4980739600796795 0.11945410285935054 -0.39269816837717997
0.6032637157145615 0.2198164612712219 -0.06511411889690066
0.6146937183829095 0.14900066208198837 -0.03959007179858531
0.46929573273089886 0.09869787234782734 -0.06677485756993917
0.5676556180859365 0.1835865799685621 -0.1116604678868498
0.6386011647140464 0.17675517060834522 -0.15468177452119392
0.542132896707642 0.20123872854694014 -0.06770335072144462
0.5582778467367291 0.10399821477489013 -0.1937522033536112
0.606306092714064 0.17369002623098595 -0.1414390159013692
0.9484136903591605 0.46022258112498093 0.045548410672139994
0.5978301302872353 0.15836838708037249 -0.17970194788662752
0.5729768177038324 0.182290049570355 -0.09657923588120809
0.5823841699871508 0.17732393484237718 -0.0676935808144492
0.5804436793543175 0.1516423244273426 -0.15085241488307588
0.579669347606611 0.188685474625629 -0.043636945144982064
0.5650303106959313 0.21667492116060316 -0.10182041476601
0.4736490109371232 0.09717469144311508 -0.17611767846352677
0.5622541450048146 0.11276131568030223 -0.14353968624699576
0.569636976402208 0.15305660631290152 -0.14029086474955932
0.5619182707625896 0.19711321408931326 -0.11773110097618655
0.6026962236998799 0.25644342381670526 -0.0998393009545282
0.5905212651739618 0.09794004238705156 -0.19224601171981703
0.712455964298556 0.1488819455985606 -0.19398309455246476
0.648759970562665 0.18931899494313598 -0.08540862497135038
0.6234226640410583 0.14527574521594033 -0.13776145213944346
0.6515217840199625 0.17357075561622537 -0.18614395925590088
0.6046149935950638 0.18425611038506418 -0.13709602055315884
0.6023015553802225 0.20915029144794062 -0.09610880019074841
0.42478556909203746 0.10460169955473475 -0.18443613380222246
0.5476174384370438 0.16061833254036628 -0.11687754906213854
0.6405147646137692 0.2237041930407031 -0.10317174564757181
0.5999999801348537 0.2129097120441088 -0.0923887202750251
0.6240213216078843 0.1761660011680135 -0.19961163704940077
0.5755634756933432 0.24509804367178845 -0.09136833778734399
0.6012070903126556 0.16440572257295116 -0.12253003326024725
0.5848604317391732 0.16510537099324551 -0.12466871882223529
0.5611323743618897 0.15644992907672872 -0.12658345074045485
0.5199461064763824 0.17992978973580875 -0.11459765545055234
0.4889227962116962 0.10172765031359177 -0.09575069181529727
0.5669288766406027 0.14185242818521715 -0.16319396336625402
0.5790289580964725 0.15571741086404245 -0.07547770110301144
0.610417502823708 0.20431062899470476 -0.13339514398954577
0.5980937829481832 0.20719587212070678 -0.12246205484804307
0.6293726361539171 0.1649427135324686 -0.17002498638227337
0.5736991747352675 0.16467630782523202 -0.08656106803593389
0.5644169003128354 0.1865813581575253 -0.10668143258432394
0.5936253873191788 0.18295392777537245 -0.06577062418170954
0.5159622837601745 0.14158376992222088 -0.10237383605195305
0.5843559757265524 0.14371795187577163 -0.16271175504972746
0.5689560523935597 0.20613641494790613 0.008191752875077896
0.6117078187145069 0.22621423141444552 -0.15618177192560267
0.5893447002287218 0.14809693793915812 -0.14298518626331713
0.5803609682983364 0.07737362931004554 -0.18417406959052585
0.49214184909833136 0.1451012975063577 -0.08201037460517568
0.5583901167869527 0.12192124695377515 -0.2392379925207564
0.5798748680213066 0.17065814926547773 -0.1278130942036313
0.5679943257245839 0.15087098077887617 -0.11377956017392421
0.5689720217001195 0.1821661370249501 -0.10719956742873649
0.5155675574482927 0.16206443304955087 -0.0916586614373216
0.5911417557933873 0.17613845050462373 -0.09719178347293678
0.5530726157694232 0.2573839646359204 -0.14287659868118396
0.482860282444733 0.19425320564593562 -0.028902874432688463
0.5784863501482818 0.16598942436957032 -0.13494156848641126
0.652332640736816 0.135678769315831 -0.12331305232673628
0.5882216684795338 0.1695558414954519 -0.13336433134375625
0.5665114557345134 -0.015070843143377033 -0.23555820423317186
0.6083050446577118 0.1941474402117933 -0.12877603355782696
0.5706810017399278 0.16493502297896612 -0.13744212339091177
0.4987604794822573 0.18946272049171853 -0.03586521111770935
0.6209781600487787 0.16942625668806954 -0.12921364913943023
0.6713066658320628 0.22807227360243587 -0.11788429766514241
0.5859795188947032 0.16701902699017523 -0.12433042020867902
0.5701157347900363 0.11768161273076316 -0.25770546420055496
0.36891753203742894 0.08156130281315654 -0.06475997637276976
0.47139196781857606 0.033061566941427145 -0.19752209641173124
0.5360835106015287 0.14219831183945075 -0.12394486298269669
0.6036323021310182 0.1789131413433438 -0.14423195249928256
0.5466931298778377 0.13117177356289744 -0.13847420121798848
0.6348099513787986 0.16323036238298982 -0.10729072374618909
0.6159354377494424 0.19377994015755462 -0.09010010240697852
0.6169134614556242 0.09004634122456423 -0.14219277230874638
0.5267246000729955 0.11725955289858803 -0.13966789269035473
0.6765567410201498 0.17171709164830418 -0.19640898733153733
0.5913168614103625 0.1741768786014859 -0.09597142062736452
0.6010752576555092 0.1638456995203228 -0.13699882369721195
0.5216745138388319 0.1925564800623647 -0.09301886868557574
0.553961284020076 0.11169714930974806 -0.1629979451981285
0.6540278286160941 0.1655511409442738 -0.21415215189500714
0.6805751526261758 0.22384050705119307 -0.10415856399593793
0.6171488845796631 0.2226082887603411 -0.08495282789620262
0.5884466751153496 0.10026318742970375 -0.19309314086653728
0.6555931753377138 0.20357325141912952 -0.1678220168617628
0.8213314494083335 0.12630962922929712 0.1265428373121864
0.6404798338969186 0.18900798563643662 -0.11622035423972932
0.6546736704763134 0.16326034658985122 -0.12999135043010313
0.5839590854776873 0.16363025657400954 -0.10390734669280732
0.4968804146114678 0.10543844563775906 -0.15837211367340842
0.5752473357678696 0.1300177630196231 -0.1485982847127616
0.5604997267875689 0.1357161335482715 -0.14060188426410036
0.581160870534049 0.14569314991052806 -0.13036859420067515
0.4627030544698272 0.18145515240516374 -0.08350680005139566
0.40342266357242806 0.06520329073219955 -0.21121714166199013
0.5591653398986267 0.2113185864901368 -0.07906744440765578
0.599731272350752 0.19026435885615456 -0.1239297971510922
0.5339745447938355 0.16022329926940415 -0.10723119190524244
0.3861613434969513 0.012273917605654106 -0.22260214292174396
0.6245666423949245 0.176562978627544 -0.1507875095685165
0.6051843523947156 0.11242890272012573 -0.09342811823675845
0.45785999609920225 0.10004129446051024 -0.23083553739461138
0.477993522945269 0.16557428927188766 -0.0944128702623317
0.3632641013906408 0.14428320611744994 -0.635852481705129
0.6038204135972194 0.20858339647526236 -0.05781405182126775
0.6317763546644954 0.16191590291796842 -0.163681274019865
0.5829922617205909 0.14005607277832155 -0.1628078078535964
0.5720651326980573 0.1398516217466863 -0.1581577990722849
0.609638803901376 0.12651782174378923 -0.19379362742364492
0.48273777530549467 0.094581043397028 -0.14021726661310652
0.5962231157594999 0.19332675974240487 -0.08163804195410762
0.6179337017459403 0.15871907845004785 -0.12324815766955055
0.482061386274637 0.16233182109814948 -0.10266780500784023
0.5770741349546142 0.1284236149427329 -0.2098509693057764
0.6007944256142537 0.15296046570716726 -0.12368398826615135
0.39788129922837356 0.14873154245213982 -0.10859811984890655
0.5870122930556221 0.15937299962573093 -0.14420903046340072
0.5958179770824614 0.2093812306282814 0.01886690393453705
0.6487350809577919 0.2759874489551919 -0.09003350482241501
0.5797263613128649 0.14427978443302436 -0.12100319922613778
0.5848567022713098 0.1512194309469237 -0.09056425820750746
0.5204812696435255 0.28696590566903524 -0.07122233038904824
0.6242484919916222 0.3118413865360594 -0.08170326940647499
0.5590543870743829 0.20569133227559178 -0.09334786677426621
0.5757747114188163 0.17124402584624931 -0.1258398025596108
0.5611547478598453 0.1534648390566815 -0.18594856112213165
0.5689677474677666 0.11987990623626388 -0.18161611246966913
0.6483690522322973 0.17202223508220982 -0.11903188287040223
0.6453583715268252 0.16949891904539527 -0.14290814979476352
0.5490464848956265 0.13736747937775817 -0.1416741658928231
0.5849984401682349 0.17292354019980394 -0.10114763625986711
0.5836029610727849 0.24748538550105081 -0.023941642971195165
0.5931505163742941 0.1674231225232461 -0.13570507453297864
0.5709029065007201 0.09208632406145512 -0.20140823368487304
0.6425753056936827 0.18003193661246542 -0.12801176314960117
0.6160378212193081 0.16419334084164916 -0.1641871266424033
0.6143784128918242 0.1636405160795107 -0.13519169517238083
0.6037354281663028 0.15484366813973338 -0.1482852023015937
0.5322592835951667 0.061326482761586476 -0.21525976693394
0.6383575462685087 0.19705030297976123 -0.1298559159969983
0.636630479498109 0.19495684566695104 -0.12740925123175373
0.5996022655820354 0.16709643161078702 -0.13576937779966158
0.671733602422762 0.20069839856918748 -0.17099356081764938
0.6220196575470567 0.14760440910276884 -0.17358001772345233
0.5575378158688409 0.12113898656966171 -0.12257086876081758
0.5731530113492767 0.1016790440493196 -0.10845753362178812
0.621902109917329 0.22759946436096357 -0.10763176301516353
0.521935668590757 0.1353383282772711 -0.08400661347911864
0.6572086959733809 0.2281308420900814 -0.13421769685439244
0.5852057221179621 0.15016395712373765 -0.1390444615480675
0.6289090340798253 0.10872060053699784 -0.1620149671518618
0.6491843362880445 0.18879320800243704 -0.13045525334136698
0.5407446418688266 0.18978049648364959 -0.007444806652770808
0.6029748961679786 0.17799245264595243 -0.13369992125389274
0.6233670634985202 0.20584942655625582 -0.13822615152477624
0.6493734214852225 0.14717990493352318 -0.10730695037540272
0.5874569791805442 0.13104315508937248 -0.15372821883362064
0.6132719969189822 0.15479218844015463 -0.16847738367626164
0.6204939988604963 0.21343864871440132 -0.09062351776555033
0.5891558885372348 0.0812551421641956 -0.20907174341930101
0.6342204266552898 0.16081550134788358 -0.11550501584687822
0.6229667824342187 0.20784602154455456 -0.1360331929905385
0.5939968573758847 0.05338110249147121 -0.150225935705123
0.6611571211526268 0.2259106346822648 -0.07277583544245658
0.560036830498575 0.18478048213657416 -0.10057983998656539
0.5819718319720124 0.15870298904886226 -0.14443443173301773
0.5521726270584111 0.23126252662163438 -0.044840904462390085
0.5892590917539735 0.1291755485678152 -0.17188107420847132
0.5512723839013489 0.13842962457232488 -0.13478495591226647
0.6267818870542072 0.2720300964299156 -0.02175818215248171
0.5421246596117157 0.15884365570155978 -0.11259230433252299
0.5818233545434879 0.2053666810591892 -0.07253213718060181
0.5354592566998235 0.015751684829723445 -0.10664032493043862
0.5300605495315409 0.1536716793441144 -0.09973090975903176
0.5763017375277428 0.17928016487815057 -0.09866215677689638
0.5493055305327488 0.06826257285354131 -0.18919899416391672
0.5443552928664701 0.1287704945966368 -0.1400799082739752
0.5671594426211044 0.18305381096203632 -0.13116459086086252
0.5568980293071348 0.13840626277871593 -0.13032094683762807
0.6970278428449319 0.15634837998450735 -0.1881705338708315
0.6831728874766156 0.20911803188599265 -0.1517158052536729
0.5807419341597893 0.14692000851249531 -0.14051256300882642
0.6176026411388591 0.186558243153371 -0.11107872170032351
0.5145781289034232 0.11171414467276009 -0.1387986827965193
0.5773495454278361 0.15539963201871387 -0.13809139083092248
0.5098765045461278 0.1348604620620506 -0.10873187831985831
0.5537481933729964 0.19085185556730266 -0.10038390365764371
0.5657361823243434 0.1703636912943125 -0.1438688825310237
0.5331946828247283 -0.14012511103788938 0.02866013633919806
0.5842058163290176 0.14937544263983682 -0.12949264053517595
0.6402557289706436 0.20662483922794195 -0.05265857126012463
0.6032489266176952 0.16727013169827387 -0.14988576611365545
0.6382980163892142 0.23067762583772833 -0.10904618835894553
0.5920182614721057 0.19715153342764324 -0.12142454784633117
0.449523497995969 0.1596224375624331 -0.09844278189667932
0.6077055472977264 0.16186269476759207 -0.13097228205583633
0.6741331889427329 0.18827473594456023 -0.1480325607375761
0.5841802772595202 0.1714516801511934 -0.12879147629706722
0.6166682613251879 0.16488596089925522 -0.14154574760722483
0.646345363785727 0.160728017904205 -0.14478369636357513
0.577677512176038 0.12698999189990445 -0.19780411606086545
0.5858857082106539 0.1782185380628789 -0.12158934732448756
0.48495561217185923 0.11892310656153882 -0.14367105458040896
0.6878954347139654 0.15318387273319445 -0.17933084002865485
0.5728916218631781 0.20137613129710985 -0.09979281327355238
0.5631236244582567 0.07101815959768487 -0.17533034219893295
0.6567410776016231 0.15210329935530353 -0.15365474150821967
0.34975340301102165 0.08475555929879874 -0.11442612263716967
0.6104039990695895 0.11311011280832872 -0.19400573866219872
0.5991110820419578 0.165318841489551 -0.1254300518814091
0.5681562560906883 0.10209383140826844 -0.1479017359014705
0.5775032477974662 0.11244003189361251 -0.15641666334994397
0.6853172730941992 0.18981658033854387 -0.16590097652660063
0.6300765671000619 0.1675786307381486 -0.1495359111773098
0.49752527344578823 0.07896929625505322 -0.1623673589823511
0.561455768873742 0.15556986373121617 -0.1192433489134288
0.5726181821657121 0.1049056756979212 -0.1605008366789349
0.56401969238226 0.1658001002793128 -0.13972286162629644
0.4859302315258276 0.14300390034577504 -0.09616692159163165
0.6341479747154892 0.15800933312300458 -0.15727635254090444
0.5810819541860326 0.16718550590957193 -0.12850705791194628
0.5138260506872712 0.14504033757717139 -0.1056923069921396
0.6351777859424743 0.24300992791236808 0.023653224674916373
0.6435926072984586 0.1804712758699054 -0.13041239844289976
0.5095267089010065 0.09863311958312693 -0.16902471983094358
0.5592079118867872 0.13557322646806824 -0.14680832304480873
0.5648618006018609 0.14036723016184283 -0.17182386929441407
0.5835528737196256 0.1790636669328194 -0.07749065117666021
0.5274321542654974 0.1659666997408067 -0.08576558770336362
0.44691890174075866 0.14660162425445833 -0.1599613956580015
0.561372963476984 0.22187190732580575 -0.08333089057236975
0.5546338308585206 0.1472837367593911 -0.15585230911987935
0.46930032778251984 0.10054042937477448 -0.19870614471113868
0.6250495894582428 0.16088098754983093 -0.14090275615878056
0.5400823030384743 0.23273950957704415 -0.09437720894641188
0.5781929945846969 0.18543654180930957 -0.0575838562039479
0.5866132166763123 0.17878889196833825 -0.10052803259299026
0.7010060308602277 0.12177624415429023 0.22804773099085196
0.5801081445374052 0.13490156220134963 -0.16036329520471782
0.5974827949346775 0.1453854985567773 -0.14280835108343126
0.5152852062777811 0.17333609048068865 -0.09748611946650954
0.5705322966452115 0.18878475470205558 -0.15679216711357924
0.5208778043929954 0.16327021586312185 -0.04980242476480612
0.558033756018105 0.1631544537080174 -0.10261172107843208
0.5789822319896842 0.13367152671693816 -0.1415426577469816
0.6551468186266902 0.14444871247383162 -0.21653645942375022
0.5337426198177013 0.10683390537349169 -0.1812217495194517
0.5318916692402098 0.16273368096008767 -0.10861109665367508
0.5559575425885299 0.1782743727888203 -0.15551713882142337
0.5488579075611426 0.18175291789674475 -0.10607417959595011
0.46161282252033686 -0.6200206658612615 -0.40860419024323846
0.6655326495525316 0.194876470351943 -0.09317681639849695
0.6534206763321322 0.1938001432523322 -0.13740276703794052
0.49756729354413665 0.13317567513212225 -0.12296621841080935
0.5302195124041305 0.18243720662326268 -0.08560442056210604
0.537378625079711 0.11252712501817541 -0.12572046940826453
0.5906031839725898 0.12664852929700032 -0.2062825764368057
0.5578656351451912 0.15575944433203404 -0.08266343041653101
0.6361186867288353 0.17598755595813032 -0.05511334327874806
0.498092289390101 0.09419424685518152 -0.1060293424635006
0.5638718880764486 0.15965759918753974 -0.1698706291472405
0.6370735541746058 0.1526647617452852 -0.16936018753727922
0.6135304256745258 0.10432532134220196 -0.2238962715699273
0.5745220975442891 0.1492331790734056 -0.13887789248795457
0.6235947574152618 0.17270223112339522 -0.14264652250626852
0.5550883388258399 0.19259069995229083 -0.051535253796600955
0.6420729785872652 0.13164855613740656 -0.18515853625829948
0.5936503068241166 0.21019845373760404 -0.05577780680964395
0.6401436115859696 0.1489864423365077 -0.1603332040698433
0.3795747133805065 0.1073647747433597 -0.1399581889381949
0.6189760375876432 0.11411445240321427 -0.2000342674235327
0.5102120457639359 0.14338004037523433 -0.0967680845520249
0.5722680203399193 0.16080286770062457 -0.12634927268939578
0.5885230584885193 0.10574896045596915 -0.14383029806475633
0.5670348898518967 0.19243265397443565 -0.08768913243905274
0.564969383335665 0.1248753193038965 -0.1472777066384623
0.5747128757327715 0.12452905510369305 -0.15435328836620954
0.519597834069998 0.1540641320981706 -0.1482534541610363
0.6412648358597721 0.15281600307426402 -0.11780004671960853
0.5042351838090013 0.1147466758776261 -0.17854678598564533
0.5682152492576478 0.13215959858777637 -0.1573239087945808
0.5905149475306786 0.14490639572267128 -0.148959913765637
0.5618259800664873 0.24041798239758805 -0.03629080631354498
0.6223331756551715 0.17353143771074997 -0.14932466449103288
0.58934216489682 0.16630378104628107 -0.14571863950207842
0.5235470204911792 0.1825532781455479 0.047938994816135505
0.5434361595333286 0.1486733620149039 -0.0730027906673314
0.6541359455910367 0.14997600578141146 -0.19720517454175024
0.524352120481197 0.15819616373605072 -0.29627319866054336
0.5268421616336951 0.12026300124728095 -0.1338122681221705
0.5495057133655052 0.16000718081309628 -0.14481212189139114
0.5671036516829702 0.23342531108082198 -0.0530093902729476
0.5548349657767488 0.16466075554893678 -0.11343970654019131
0.4818809860092017 0.13272167310807959 -0.1106858998681588
0.5400449702060115 0.15558547443970383 -0.099558115440459
0.538384632145366 0.14905676261898293 -0.1396820575018154
0.531081297236895 0.13525250034828673 -0.1365603713674517
0.5985368910891538 0.17137914110176666 -0.13828111735544724
0.5615914668790225 0.08253851782527022 -0.1363669813511592
0.6680817664424836 0.19370377454231402 -0.10749382067783131
0.5923682366132113 0.14511899421648877 -0.1478198248451008
0.6299711715687835 0.18738972341083127 -0.0896985831051893
0.5765038415391786 0.1387674802628851 -0.14248443946583222
0.5278278379567354 0.11328745236036752 -0.1305781580929164
0.661634059880555 0.10141481687887222 -0.07221122384135015
0.5803434588243874 0.12250616406436166 -0.1855903052195771
0.4915044971107392 -0.1663167091394655 -0.4365677716466081
0.5364943118968171 0.11892828619440365 -0.11616646909796202
0.5953800407980054 0.1907528562636287 -0.12905951289768325
0.5720156945560291 0.1521068230570961 -0.1395871892270435
0.6439055883329843 0.30639892152018433 -0.014629433365243472
0.6191413010141673 0.17896846751702356 -0.17813318380649434
0.6510859467866936 0.14865998519672985 -0.17178557514817783
0.6607624353771797 0.16160345329072356 -0.13355850094032462
0.47853511920899905 0.04980639718542079 -0.1254233946537795
0.5850645013389766 0.14246284814788623 -0.1066913278171171
0.6209710492126703 0.1768817149371955 -0.13756216229593576
0.5701456724934673 0.16341571278556444 -0.11368291046309764
0.6326581389724169 0.16169876195513666 -0.18088286041492552
0.5261267171872817 0.15599811078311632 -0.11730179000905139
0.5647098705228615 0.12620130884812397 -0.14765791463872802
0.524313827919002 0.1810835757503071 -0.0710068348805919
0.5949822989972233 0.09987251583658008 -0.16092259492647543
0.5876482432123424 0.13007260810888965 -0.14931099803244763
0.5649892427013157 0.21256312921627796 -0.09236280277984577
0.5819649178894934 0.15428778625994255 -0.10485739749728396
-14.21778521622835 7.395076351544816 0.5805870251169409
-0.21470469305933193 0.4852804866860936 -0.22172086090373
0.5941823928060614 0.1779917242873239 -0.11933168535539096
0.5434702459304077 0.08939508601869761 -0.17140913794973756
0.6585351460681181 0.20393843145427581 -0.12812475252785305
0.5966122712213888 0.1856694392599536 -0.11254529097678301
0.5662662864045132 0.15176195908753698 -0.1363831727727387
0.6532479859073987 0.17612038856907475 -0.14158538307590618
0.57940892334571 0.18776224260281538 -0.13231525260508192
0.5481896101711072 0.1387035136690713 -0.13687543101457322
0.5396167208163689 0.13788001992321597 -0.1372347110066272
0.5648916138206062 0.16295127688576372 -0.12575582634028137
0.5285290012960928 0.18377193860925445 -0.16028451054776838
0.667607532266075 0.12292715175743751 -0.1969428064410863
0.6030026136407258 0.15143778431101396 -0.14753812762249652
0.5262312929545914 0.10002132728874358 -0.1536453068956689
0.5418445373665577 0.09205326327713692 -0.16926668306165027
0.5842814327033352 0.1655450936343641 -0.1299619197448152
0.6301604703962198 0.2238758991294958 -0.131767561509605
0.605319691312161 0.18591289057448535 -0.13567541244603376
0.6112977864583655 0.12628302262865532 -0.1706861153292749
0.4965569209990548 0.11531955401173377 -0.11395346210805712
0.5998195319345143 0.12994289980954932 -0.22055811128444702
0.522932995350871 0.13850792824140967 -0.13916650795269447
0.5617042743766802 0.15306574570985276 -0.06621310764352017
0.5765382578802445 0.21312098512817101 -0.11082606628946223
0.6363633552384158 0.21293066941089478 -0.086972895051602
0.5831845767659871 0.19391022938074798 -0.10972225328620766
0.5797715171622428 0.14656680975377867 -0.13408464654224872
0.6339710888225625 0.21514180456716758 -0.10250426917805555
0.5687340837806403 0.15131757134528812 -0.1454164855779112
0.5880055825255965 0.15658026678337933 -0.1336001081666609
0.5371147294813028 0.23416086536067837 -0.0708893637901582
0.5825622211128234 0.21559622529798617 -0.08601850985122894
0.6026861695529391 0.18594869465559327 -0.15004932229396672
0.5480619092213601 0.17024152444651008 -0.0952446289274036
0.5639761818106592 0.1623182449704359 -0.11689917858274157
0.5610973347865809 0.13626604405055787 -0.1541709066022463
0.569748405248717 0.24350598693050074 -0.03759030788938844
0.42648463708543716 0.03582505291657867 -0.09317254136584552
0.6252452531322206 0.26718033956237264 -0.12108660746639544
0.565160361289287 0.178566166755445 -0.2811549680312737
0.6039187864257514 0.14406736150161237 -0.13860187384538847
0.5745516104708202 0.16906615710868778 -0.1506013794195269
0.6033624750967874 0.32973761634013954 -0.048732727018617084
0.5230220550175915 0.15049810373744776 -0.09458980425702634
0.5955150547472812 0.175595058230698 -0.14309461969438075
0.6359858677448784 0.15251459128509737 -0.09926810350232529
0.6040512726515175 0.0986307581822814 -0.1845804892772378
0.5481082706638745 0.22947847375249353 -0.127844570344962
0.6462174376167553 0.09620893744428827 -0.17658388409336112
0.5984765529231737 0.15378098303301613 -0.14780410077527506
0.6290415487291625 0.14383494187458723 -0.17179828953720744
0.5332323443523848 0.1501642122901785 -0.11532760339267156
0.7383565022149128 0.19466846212355904 -0.11279604578001567
0.4653655819629279 0.13707903202177363 -0.19041483894255862
0.5445325816602917 0.09208159492300183 -0.15899965322392973
0.5700081560235759 0.08265496127873462 -0.18597449082496098
0.630658843525282 0.1906190995542545 -0.12012267246221597
0.5851363294701173 0.11926199654709535 -0.17347272358516364
0.6659753019012697 0.17255214088098114 -0.1607764357644328
0.5588639541069966 0.10923653063568395 -0.1323140060573138
0.5310469974864418 0.05057232646947796 -0.2720563761058088
0.45874642250076647 0.11583801224830381 -0.13633569893292474
0.5345053040844903 0.17096554019207133 -0.09469156519635646
0.4890995226499797 0.11793173004926416 -0.11863532144121791
0.5764097374651413 0.05556022098269864 -0.18371473509449743
0.5841788084914299 0.13975416462236012 -0.12266633821590744
0.6143297057908654 0.19169835391130619 -0.12519327631019905
0.6112601013949472 0.17019941485088452 -0.1146095295727747
0.5819138778632151 0.1320587703751812 -0.16130120512309531
0.5585269649433968 0.1305529727866599 -0.15944029492072787
0.5565551227670369 0.15176832357329317 -0.10504619668958526
0.6018283341006452 0.13986288676844083 -0.10963057902063156
0.635667121726172 0.23041922292128447 -0.07637092648721477
0.6114250632428337 0.16156732910073401 -0.15282218610555276
0.562063641948356 0.15321831995296975 -0.1393237258972846
0.6703271498242458 0.21068211962551686 -0.1842255787485385
0.619875917379801 0.14890162395099082 -0.18232806292195392
0.6645350278682542 0.19946184104045983 -0.1037882768213052
0.5276857726626787 0.1378931469212148 -0.07481544474296697
0.5682556829538328 0.1353532880541195 -0.12547717412496695
0.4740003574218008 0.12565787337860002 -0.11118254595051269
0.4515865442929652 0.16643182290582104 -0.04698507910192973
0.5969513011312415 0.24938754392414353 -0.044342641953576845
0.37649654278943956 -0.1225295785619096 -0.47284408337418427
0.564461816844684 0.1900750271902325 -0.0840107562829644
0.5673838430603269 0.16468384300679872 -0.10183537948343258
0.5992786516095094 0.16600821796936316 -0.14603573192454178
0.654133978094606 0.22133419346965866 -0.10405871472310935
0.4951976994677665 0.10205984447600258 -0.15468629672430723
0.5404535368062113 0.1619171291275734 -0.1424329283870378
0.5199256900179705 -0.01773561504737131 -0.06775305051476721
0.6070956362429882 0.17668169395511768 -0.1274967707549024
0.645546529689625 0.22079510761324173 -0.115033028943472
0.5345657111629549 0.15142922463306263 -0.13603063423488493
0.5501068567781999 0.13414540135141806 -0.13368979204386733
0.47507902686794523 0.1357568183553326 -0.08420188289296959
0.583089233038919 0.18217534255708756 -0.1015025944900998
0.5309940038149534 0.1602924112800963 -0.14519146790770776
0.5833464407616731 0.14940438680716284 -0.13528712250010244
0.6186258418594264 0.14944241814026782 -0.14883412907018112
0.5706221576288755 0.1896861098404088 -0.07535313426720336
0.5755310963979383 0.17991071846265072 -0.12575061853867453
0.5963239947586345 0.163763340660239 -0.12704172926719082
0.5737524111767414 0.1384966625127504 -0.15982683166853917
0.5593967192044431 0.2346232542994926 -0.06361231474865292
0.6975594738701858 0.2033732426220638 -0.16133098169719062
0.5547813352706044 0.21036604599979114 -0.10102119179005342
0.5766088540350296 0.18155902235650956 -0.1075442789203862
0.5561166631516983 0.1805365697055663 -0.12405945922812123
0.5171100742941519 0.029360103707347207 -0.15353547241988963
0.6504429196406392 0.2364815040273811 -0.07509431152955415
0.6401231873947353 0.15386047189011265 -0.24404122895714409
0.5259984581065993 0.1049622063103186 -0.08209089017826443
0.6901732439621782 0.20684815902743026 -0.18684998553219145
0.5665254420328409 0.1989508073285151 -0.09752341206171877
0.5478920309311093 0.16591968691150782 -0.1610061087368564
0.5991816706783482 0.18881590069750587 -0.12355194491003374
0.5430367077873655 0.16746976307175032 -0.15435033433612944
0.6501645244017453 0.44968552806028583 -0.1311260433774919
0.6133083011374794 0.17722264409695754 -0.12320973997690032
0.5650051497502204 0.16479130295880395 -0.1717806440659615
0.5963404115161524 0.0980401484367519 -0.2094551941244589
0.5910189162199657 0.16829752407414844 -0.11919299249979076
0.5074601251617423 0.1949973506857532 -0.03821303870363124
0.6983923804159957 0.17931181855439604 -0.1822946609702143
0.6255389220970073 0.25169103732301323 -0.1441705461710967
0.6169968543524078 0.1648668795054391 -0.13434627326718385
0.6378768982624763 0.18589889517286906 -0.1484401883593307
0.5415243273581467 0.22268961398560805 -0.09910161218276414
0.523949249305943 0.19277373018954336 -0.054696452907094795
0.5741173328267024 0.11890717937453132 -0.1293207564033878
0.5259100246539532 0.15581410805347673 -0.13260595560684862
0.576655905072073 0.15570852273106084 -0.14010671424146892
0.6358429387642275 0.20671422980578313 -0.01234174274270572
0.5212260979326828 0.18237221210100074 -0.08010363944458732
0.5406122621118499 0.14715972678624212 -0.13940691165122132
0.5050539096408073 0.15225799276180396 -0.14491047877449148
0.4426865703336631 0.15730619438940607 -0.03918928988363746
0.5849576683282862 0.16069824746753625 -0.13774650644323572
0.6778475039903356 0.1864992386785218 -0.17490695443920856
0.5313150384576062 0.15604942525411047 -0.11011633746275606
0.5675944235612036 0.14870248801278763 -0.11110449607572548
0.5917737203598392 0.1592972922682918 -0.11904474362931694
0.5192729286541606 0.13586354737114448 -0.20609685465876737
0.5776908689740452 0.1444675841783294 -0.13033881687874782
0.4094538102188636 0.08017381076396646 -0.15478587914931552
0.5438993096533267 0.1697069144286445 -0.14438214525995363
0.5817140826716667 0.16175879282715755 -0.13705765950189175
0.5876292593765555 0.15819634149303852 -0.15418016151727443
0.6185237990350032 0.07946665275872533 -0.19577982109098002
0.5237964843547331 0.09016955546238137 -0.17051902449765066
0.6235894140317413 0.135171064461872 -0.16283597307996445
0.5767059080056924 0.169636694575928 -0.15267463946702264
0.6000029636124111 0.18135447261860804 -0.13016897295806018
0.6574738187207458 0.1096418750362318 -0.15916421652288193
0.5716655930829688 0.12276624021646398 -0.13800757539283381
0.47410125741596687 0.30049552985437344 -0.24802423951418007
0.5809212693528423 0.14850835908620752 -0.13271056759586486
0.29818831411382973 0.12869524020592849 -0.153349939406084
0.6344340779340882 0.15163920414141785 -0.21464030931434763
0.6157130123842194 0.1729782477806623 -0.08261197328316428
0.5757190336914135 0.14508023045181062 -0.17411765975657545
0.664737736819248 0.12864917067369674 -0.17955426218027526
0.5911466902625762 0.1710403374729026 -0.1371014454755084
0.5634502240079229 0.11694002922334334 -0.15588548369404975
0.6113250528212717 0.16871511646769477 -0.13508037230639047
0.6372554818854894 0.16000176525932375 -0.1555921212872562
0.5501821417079213 0.0757522305518421 -0.1876787228587773
0.6271781105241558 0.18570469558162017 -0.1414091561419042
0.5180519472766889 0.14111795118458303 -0.06952922361499247
0.5439958124030966 0.17172315308340558 -0.09268620557310214
0.5945886237501838 0.19751481489464595 -0.052877148112415284
0.6300590892753775 0.17695091628772275 -0.15693706001951568
0.6578657912621537 0.184775783253059 -0.21248780931763633
0.5969888701163626 0.11951259430463779 -0.14734724609459704
0.5629511698294181 0.19136714546593225 -0.12857960786391232
0.6485313071210896 0.2139787680702625 -0.10739571970229633
0.5745130150903037 0.24142192701162912 -0.0344471706743974
0.6195472024157596 0.21177187188274615 -0.12374234643876036
0.5311657085555481 0.09415764248544178 -0.15175057649175017
0.5400317469846954 0.18738302074521584 -0.12892099291069314
0.6214393570665493 0.18206153498638855 -0.14196341793403633
0.5132632233689947 0.19593213675565835 -0.05574055329952898
0.5373353045904423 0.18977279735568686 -0.11101241846573373
0.6009250804534503 0.20299710866206055 -0.08871643095433512
0.6822804807399052 0.2133932780839416 -0.17845444403890554
0.5543385179453253 0.10955918817853671 -0.15290247375270383
0.561760734308919 0.1698489010794333 -0.13918047978162917
0.5816177979046557 0.11352577479181036 -0.2031597483839107
0.5338859500904931 0.1650985298480805 -0.15416320597100253
0.5175609904419076 0.13375944932133166 -0.14465131148817534
0.6679184674768663 0.16179505604765154 -0.20498754657553775
0.5592477372460962 0.10556382069634651 -0.15678713170434833
0.6347195010079929 0.17874531451536768 -0.18310111422350417
0.6134075897262221 0.21884522049950306 -0.07478281392047847
0.541491440692937 0.15110296729014294 -0.10843852752803684
0.5799245002234272 0.15144697653045114 -0.13021047259888974
0.6543767359050179 0.14377089449141067 -0.17642956144388222
0.6379666206311612 0.1400060161905401 -0.16212057782217926
0.5327766900977196 0.07517633506165566 -0.12492398297320051
0.562523592549951 0.1379591446492725 -0.2523721836702322
0.5898689558688233 0.1994789129342962 -0.06046664630677867
0.5938568853768516 0.14383383653881765 -0.13611281804976727
0.5511420682459516 0.14630545957328422 -0.14680173938936036
0.6317719864339608 0.22080759292302332 -0.07095071096546235
0.538060522148669 0.1743190912219177 -0.14746804247022283
0.535547556471613 0.22339488222755222 -0.016242853844261163
0.6338494394387197 0.1641411917288167 -0.1666721638331694
0.4291630045895829 0.08373762288522357 -0.10703156364850486
0.5357172741089045 0.0975640420033983 -0.16123381116261726
0.5679159426289289 0.17183415142477543 -0.14697191657106146
0.5683242456750577 0.13226010634932095 -0.15062733897812564
0.4635625576766955 0.11065712628249003 -0.08580747134351441
0.6440190918630861 0.13274852046455976 -0.17944157960887708
0.5407041430948567 0.08168919335236069 -0.16592554471644405
0.6028754756075188 0.1559240259628325 -0.17655234186833013
0.5604826141007351 0.16597266184979276 -0.08628658850373938
0.507158128875929 0.20530657221058846 -0.04541029598887292
0.533098943265216 0.15379542392702206 -0.12447295282905202
0.5654450217256795 0.11238609958735424 -0.16327997852981468
0.5819215203047889 0.12321275590866776 -0.12688405444340844
0.6253086491541922 0.1618265334927571 -0.16148881076831856
0.6537437173476661 0.1470487118592132 -0.19645090999495096
0.5794480037534981 0.16896206663400903 -0.12454297542427639
0.6505478800694533 0.182629283519816 -0.05896156159758448
0.40927513723805475 0.14744069288053652 -0.23262861286170278
0.6062123093019807 0.2112507971829416 -0.07299590181669657
0.6074853659389703 0.2520675991298731 -0.10695911540445024
0.5851516874685103 0.14190646261710071 -0.12179285907193105
0.6283544573268784 0.12030643223593529 -0.17999537058487647
0.570589394218544 0.16856925753018004 -0.11833548733866905
0.5465258078741613 0.17538413981273493 -0.11094598909039632
0.5727164177700104 0.17978995466410197 -0.12594495018606722
0.5793336675233576 0.2015909725308518 -0.08512859467269607
0.6030308559992932 0.21091710655042561 -0.09425050484584574
0.5709978434675946 0.15487714078989256 -0.11047524098650285
0.4412485392887646 0.11601813512407944 -0.179649461225452
0.5911280843645415 0.15759121532772724 -0.15602816138073194
0.5673888137826282 0.17637734256615545 -0.10778813168438717
0.6368982313639009 0.2113587076950978 -0.11169338131803386
