# .PCD v0.7 - Point Cloud Data file format
VERSION .7
FIELDS x y z
SIZE 4 4 4 
TYPE F F F 
COUNT 1 1 1 
WIDTH 804
HEIGHT 1 
VIEWPOINT 0 0 0 1 0 0 0 
POINTS 804
DATA ascii 
0.5211785619111851 0.182914699910512 -0.0753152148370475
0.6243477203796743 0.1552294098079443 -0.12825473822962863
0.5967951457776905 0.1608051234182426 -0.1572426205658246
0.5772437679453617 0.1518352804154972 -0.10188074822301019
0.5910820647726069 0.06404547858932119 -0.22082372539787798
0.5870861144760795 0.21755299259241667 -0.12896876018839976
0.6234192055126186 0.1371555604016521 -0.18895407410158782
0.632057190934745 0.22857048110878964 -0.0786703712202268
0.4679458866021804 0.15725358359776465 -0.1442835015235744
0.565202533899452 0.14801052725194097 -0.15471834179001576
0.5162271903962221 0.15697766532211688 -0.1233469868299153
0.5908858625715823 0.11818268439169799 -0.1636391579226597
0.534371488847512 0.1098396348569537 -0.18577336810935208
0.6059597517130442 0.10338174144260392 -0.11596795206679644
0.7781329261008523 0.029515570095469457 -0.3849383579890002
0.6477607392986755 0.15068315152159073 -0.16137845486966285
0.6144907054025595 0.14138536549481273 -0.16720363079321032
0.5922062402984665 0.13667087440336445 -0.1935569418610612
0.5946808332402895 0.14744938803251273 -0.18528026714568568
0.6480229405981959 0.5492953103989322 0.5365870155097809
0.6033279094896784 0.11681325727059289 -0.21589002899494858
0.6037963553894912 0.19758206454361016 -0.10858316136085477
0.48479846725847153 0.11054610108388374 -0.17470815305196652
0.6313691849995848 0.20084795137736933 -0.14488105419425779
0.6352233513809864 0.14299526632623838 -0.2062718434030728
0.5664608196612875 0.10696864272924245 -0.1528300801373348
0.5990219136003674 0.14223143994124143 -0.10335503045300243
0.629237803642468 0.05993559658284653 -0.19402940927838586
0.5858062701388889 0.19778083857718798 -0.0772079268969037
0.5153594895957667 0.09159371035606512 -0.14148681820842057
0.5863367394380958 0.1712096532030074 -0.12832092485012936
0.5595984427851732 0.19558248057931849 -0.08813661106808013
0.5234415412471236 0.1458020268613467 -0.12832867404944182
0.6116207344861664 0.11633310995867419 -0.2168321114492926
0.5501244714589433 0.13929622619868098 -0.11383178168171071
0.49174809720132373 0.31334235535828725 0.059678176565057584
0.5574738842461926 0.15113780568785273 -0.12271940174869655
0.6005813712831838 0.15434974706077753 -0.1371307828988506
0.6574532803289515 0.13042841889858892 -0.10794515317678588
0.590787345480905 0.10466540673088787 -0.19557943233564856
0.6696981806945388 0.12701267458000132 -0.25521542308965195
0.5912000039286198 0.14520974582774215 -0.15210451328476893
0.5443708690790743 0.23816387278118611 -0.053985173605951786
0.5205666540954752 0.19997474227176326 -0.06733510669849352
0.6369306088881928 0.17318189153603214 -0.16176340900003083
0.5120516113775295 0.15746525394091293 -0.13932927704257736
0.6346795410838268 0.10705511108731969 -0.18514410122654112
0.5081428779794521 0.10122287098279514 -0.16669149676636152
0.6378329187323288 0.09473700572968369 -0.16984906886807494
0.5195106293518847 0.08188029380139028 -0.13548455934778758
0.6686460277588537 0.20233521108835362 -0.1541050120839884
0.6240660463097782 0.10540631654203025 -0.22023687327541097
0.6078056160668979 0.1807247853000007 -0.13512941858422778
0.5788496359875666 0.10746135899317721 -0.18541316513733364
0.5717790798361335 0.1798949975401456 -0.12126695091524198
0.47868736180528515 0.19192272190602466 -0.08649877749564894
0.4566712528114323 0.1469906641784462 -0.08124377073204414
0.673895312622733 0.17753757795631486 -0.15311412656001266
0.650004618323436 0.19954412166592306 -0.1731506534676157
0.6367715260158491 0.11521868744998187 -0.1361300306065516
0.6054101251817627 0.15716914881208766 -0.14449868588607728
0.6394361708239984 0.16778679730511215 -0.15016060182145452
0.5973246405469723 0.1733434479249638 -0.12673084527324363
0.6301315794945026 0.1937885655466829 -0.10532188779376384
0.5320078716158463 0.16706271528087768 -0.05609473138446219
0.5379184791669616 0.09326061933849417 -0.1399370088012688
0.5488305608698596 0.20904645026823232 -0.046607167369558056
0.5917100238792301 0.17386181517811394 -0.1308099755116814
0.5473558004198935 0.16335495501614616 -0.13348796609093938
0.6671287697561468 0.17357654130738354 -0.17168104440608545
0.5521758897873639 0.12722937478464758 -0.1348550259589274
0.6163330592350462 0.16828686158187622 -0.13855509204572058
0.5403016689438118 0.1286790007379892 -0.23549682948660688
0.5872662979522971 0.15279497336140935 -0.1488915910738342
0.5459169425899404 0.1154354006476268 -0.1499115845328447
0.4787005088726488 0.11135258805190063 -0.15343538516387412
0.6545236930662099 0.1249843550196914 -0.23080440978259276
0.6240737301060335 0.1901872776079898 -0.08368673730254272
0.5850019695773199 0.13967944298896384 -0.16152986184798124
0.6185891005205377 0.16599056018023362 -0.1523297613375405
0.4773599050797799 0.13269487150931525 -0.18016134778639525
0.5797220454004588 0.13677109886745598 -0.14626408250512668
0.6089975456283412 0.16487806670822636 -0.05869736591580477
0.5955960428387641 0.18594427504486077 -0.1105801799714925
0.5998762480311086 0.17566092050158488 -0.14861814049874056
-0.40144726927297825 -2.5618450322945137 1.6172635713481611
0.7166361946750612 0.21989003787827244 -0.06338559407859634
0.3378249353381193 -0.3732623366819041 -0.0799119853134016
0.6119964094168608 0.2885649635921794 -0.07636079671280527
0.6630814099754616 0.19653286307311646 -0.09611332573584264
0.5577074205994421 0.14296819162892405 -0.1651309814196793
0.5703433630150698 0.19038228289068115 -0.08462788777598007
0.5652274211464601 0.19859352521775975 -0.10409198905813355
0.6345346950804327 0.1963317959083355 -0.1361948831130917
0.5478938052120697 0.1284396093566471 -0.09835287684029481
0.45110145737100993 0.13204609557600122 -0.06327368992057814
0.5385159969224134 0.06354414017582144 -0.12405264052492271
0.5660555334558524 0.16374407643129985 -0.0973789617763714
0.49899478919390106 0.15511420420341437 -0.1086461553111917
0.6475570544048992 0.17280171106561681 -0.16475319753388362
0.46756606999993267 0.15208823516303482 -0.12142791647070794
0.5826577178506795 0.1614448588630495 -0.13967169826614168
0.5692357193108961 0.0829440334864131 -0.4117963047407329
0.601825984774436 0.18634722319210084 -0.11536869996689347
0.5849595348381342 0.15009962067848903 -0.1532923964206816
0.5759639602826638 0.10047344376616252 -0.21754702782058644
0.5615163784806754 0.11150416457796553 -0.12545328609888884
0.4014678702393013 0.06841534466285282 -0.15949400510351097
0.5210944679145655 0.14761381703415566 -0.14380528439809837
0.5922671158828052 0.211997107564585 -0.09951045716800877
0.42937376392650606 0.1688481498215424 -0.15337519490367413
0.6765950047081333 0.11916496344962013 -0.2526332669146427
0.5742354255183528 0.14970392687698109 -0.15152812875578547
0.519923320486626 0.20437702906987454 -0.2172392012909654
0.628496950082905 0.1335184109191232 -0.15323437020975916
0.5183893387628444 0.22591339198878302 -0.09166527444654093
0.6496701935314633 0.25060061012125345 -0.0951394474625431
0.6120499643255499 0.16765171093031483 -0.15172141128402927
0.5764633144898568 0.15426827133124732 -0.13341782763299648
0.6673153698251326 0.2120819665173599 -0.1338073796669903
0.53836654542215 0.20266686820151847 -0.06480125069091969
0.5900900479387587 0.10729384529173558 -0.22033360879524366
0.6057874885260901 0.14748300612939147 -0.1295730036005125
0.5945706738866363 0.3465093053499544 -0.0443751610193317
0.6652623536835733 0.22421000569723049 -0.08962663313613461
0.5722728377552073 0.1726194454146821 -0.15725361543525196
0.542170555551678 0.1324597797856768 -0.139924798384925
0.6938015091846665 0.201459622472683 -0.17882521997552203
0.6168160868586909 0.18926456744749487 -0.04776655924172246
0.5000104372757619 0.15581246759569467 -0.06739808399072444
0.576561024789271 0.12962870766078538 -0.2034303981949961
0.5794529446324503 0.15157269093022308 -0.1337016546334553
0.6011080274782614 0.158397358907564 -0.13138079123660873
0.5166771237561534 0.1276473229166868 -0.13872037203231002
0.589961275092918 0.09832787319793113 -0.1729431245186106
0.6100026466455262 0.1891524169747214 -0.11922156324615685
0.5257759927674641 0.1364483153265894 -0.18303570075127595
0.5477765792796276 0.19378975879162397 -0.11665289758803965
0.5674491180566434 0.15992367458031254 -0.12170663900144518
0.5869836206760368 0.2308913459559534 -0.08735415314646389
0.6304881345508306 0.18667007415606918 -0.11878732900703426
0.6726375801487308 0.2200210933175839 -0.14560996447747243
0.5871647282937289 0.1506327533113705 -0.1343011118647155
0.6202349686635529 0.30932405190237944 -0.0646227590931403
0.6261995610232987 0.1913285832719538 -0.15932790774721184
0.5929965673928876 0.1250997328998409 -0.15622420613462396
0.6059697642067761 0.14135873955935097 -0.1641586920912914
0.5367840866972244 0.14784036562579672 -0.07272178257409223
0.5609811796989277 0.1284453627982458 -0.08622191206697494
0.6168403095291524 0.16562337180216957 -0.013999364073043807
0.628278187593267 0.19427813417175344 -0.10992003547582385
0.5894207497087507 0.18847418670686977 -0.0967838785491324
0.5852347918852416 0.17275161145089157 -0.13739185861874148
0.5596214044299188 0.23852791422217479 -0.04455953656110978
0.5127771630124869 0.16480846896256196 -0.10419268160129036
0.6250853284209086 0.09939398807675559 -0.2290871661806193
0.6360475239683439 0.11970614105580069 -0.1816743350138097
0.5599446971499447 0.18838801548930917 -0.13241563030669568
0.6122859543800985 0.19890450128622206 -0.26378926519518586
0.5217704535237004 0.145098446395167 -0.08147797510949317
0.5672402535532655 0.18844208482036606 -0.10120176588486629
0.611463225663158 0.22077660124433862 -0.08638041957149767
0.5116426567497427 0.18482824934902453 -0.10223163790558942
0.5848641783420874 0.14428061430825778 -0.1434736635507079
0.7293881674617921 0.10067021510248253 -0.18531903431693308
0.5266707997937203 0.1643849676353426 -0.11101943717011409
0.5822670791364146 0.14398825963698414 -0.14016810498111454
0.46009515262602463 0.07238636820498812 -0.18613549254840223
0.5672102684336267 0.13764961751375893 -0.14255229584190943
0.6789367785987821 0.18525376045197106 -0.19994067378596014
0.49945752626338447 0.12967378172558597 -0.18190389858168032
0.5949612054679108 0.19619407421041046 -0.1011296242922981
0.5972228097817833 0.014290283240001145 -0.1995475585941051
0.4941490679003522 0.12968309444724468 -0.13631376402639717
0.7257573151675984 0.18706873753990294 -0.13584919061287337
0.7142836797286947 0.22106139143001258 -0.16775919984902998
0.5843756216670215 0.1501924992166579 -0.13504094357961094
0.556180992566226 0.1830701334524747 -0.17260260690213158
0.5959316718225978 0.23299806205704954 -0.03574454961338347
0.6754696376772955 0.1655265589264303 -0.15958436882343108
0.566273292398904 0.06426136567711183 -0.23068514512198135
0.6141753586399119 0.10660998894103102 -0.1715635910639719
0.5648686559110843 0.11655441070770678 -0.15069600544080686
0.6032323878761048 0.1098865647072671 -0.16359382507081932
0.6407901881171654 0.2651191179611203 -0.04414711844839303
0.5221718913225857 0.12280758082307841 -0.14025921968146804
0.7019545464994223 0.1603222283845298 -0.16370154261107928
0.6178328100431827 0.17261025629817084 -0.1354994383646897
0.539918338910951 0.16368430635534992 -0.07513379469895654
0.5640988989127464 0.14419093263732918 -0.22096256773917844
0.4273684177620538 0.06882581688535083 -0.2771176078935298
0.5941824564663989 0.13996597969945412 -0.1514679147939546
0.5809355576025581 0.20188652644628746 -0.08802149353047639
0.605325812693323 0.15132632014062608 -0.15321538702545467
0.5483891050584191 0.13167403254563226 -0.12762794669751543
0.5607612463207374 0.1848609976712794 -0.1000493759929384
0.5870410222113094 0.23015071258011233 -0.04259301821605277
0.5266324226850969 0.16718218104857385 -0.06064700990708616
0.5175023186985754 0.21992265128763222 -0.061889217510014305
0.611227296131645 0.1568595415665044 -0.15464321686997096
0.5562159105749913 0.11654410649121871 -0.1854774691077523
0.5956491814585547 0.1934295475470833 -0.10552941109824587
0.5509038863670526 0.12532624434234663 -0.14061685842290217
0.6166121320755309 0.16672766654249926 -0.13832622098368574
0.5693128442855482 0.1670837661831115 -0.11673741729231324
0.5614455586402158 0.17490066135897564 -0.07919346142639938
0.6531244726913599 0.23095176956900332 -0.06897700154038944
0.6156483332576244 0.13562033064539492 -0.1880046535187887
0.598236334685339 0.13993979498951603 -0.15398329431107527
0.6014290565246228 0.16861190435193407 -0.12727909500756596
0.5957823164960274 0.16058938047510196 -0.12595338749301277
0.5781391101603219 0.1529397515261337 -0.14746133818766793
0.5454352699008638 0.24059891320526106 -0.03021286155686198
0.48790430778429084 0.004715099923856769 -0.16379912631231264
0.49546878245276105 0.20928178825970178 -0.1419186647397055
0.5886800146815148 0.15684522712133742 -0.13716181361900226
0.5751461001238738 0.1558747544886927 -0.17598773465411455
0.573989380179583 0.1495962577243546 -0.1318123975174501
0.5123341806126973 0.19087647028355548 -0.0802665864739538
0.6038327429386356 0.20219425099728028 -0.10093968924709884
0.5640542875876946 0.20404783534014825 -0.028501574386524453
0.6586484176175844 0.16260980362676491 -0.14613227364756654
0.5737719599362379 0.1794414737388621 -0.10817026852606659
0.6874715527423803 0.18397451111788143 -0.17187682634400403
0.6634927923759477 0.15749382878024676 -0.16530786558419663
0.6287305074179557 0.1733734239830511 -0.13592470461034623
0.4257386955184046 0.1510136908067352 0.37454591285890615
0.601174924201473 0.24524324846677814 0.031595743103167706
0.5823471851971362 0.25985589984264834 -0.10812063574502417
0.6769170190540592 0.1727136892807266 -0.11943613044334711
0.5982114058217576 0.06362164686584038 -0.22139207047968057
0.49635584987346704 0.26728713249249836 -0.06052005038455377
0.509364225382086 0.08565217781082879 -0.16520064545301238
0.591770335488718 0.11249042194238257 -0.1206341738493677
0.5567079553387231 0.20746864323054126 -0.12678268826417138
0.630253284720439 0.14091368015436956 -0.192523085885
0.5777660793100949 0.134259657727128 -0.1608043547883824
0.6166284534767357 0.14042976867547452 -0.16476470727664605
0.565573509571081 0.10065171270828444 -0.1328679457445503
0.6153387156307275 0.08740428441252845 -0.2534318115518204
0.6087104777410417 0.16096391946646804 -0.1519088360784906
0.5691326604538176 0.1122001784060842 -0.18597800905320128
0.6231318179597025 0.15127625282266877 -0.17575505486033194
0.3984700411023141 0.05617598366131915 -0.10839635630421185
0.6113721733068473 0.14844776559718298 -0.17589638911744032
0.5611659074997704 0.17662480577581618 -0.11210057792555972
0.489220910487532 0.04839637822041709 -0.14968670672377016
0.6652419269076546 0.1710887571942976 -0.058626052502290804
0.6290954458353895 0.18110330772778127 -0.17875366222872913
0.5900942703098337 0.14801436956929592 -0.12157956873221565
0.6421323797009677 0.13692540785675078 -0.18041749672048013
0.5897714367852274 0.148234048177315 -0.10309498517744942
0.6295710360922868 0.15649415434140224 -0.14996891536927137
0.529783962062325 0.16690320513436063 -0.11516516488777029
0.4847169866380199 0.09930446401891402 -0.12172601429341512
0.6236818462213165 0.1909586291573504 -0.02472257009677037
0.5843963704858766 0.21949289527212557 -0.10319026362768113
0.5998928594332398 0.13975641001191264 -0.10170349650616117
0.5718697419357994 0.21788284077216247 -0.09377500099040503
0.6384288052396698 0.16915685112722656 -0.14257211351068122
0.6847602846243035 0.20778934923251313 0.013222257185958597
0.6214573836964092 0.16035397198527335 -0.13777002821285578
0.606661891738554 0.20147601231326462 -0.12294238150965953
0.5429983253088437 0.15627797323918458 -0.10684095549075323
0.38670858453392043 0.17375972848201116 -0.06436915496345819
0.5766535413761176 0.1670536266376672 -0.15505398083541877
0.5840621444820329 0.16773871269762708 -0.1287874046889783
0.48234519389393427 0.16083195100665648 -0.10938509510995686
0.47177306461229307 0.19852416757822766 0.056039908364880375
0.6742583213479492 0.1790425718297115 -0.17318642773042825
0.5972339958021848 0.10248987053061853 -0.19537580200395155
0.6206205629887904 0.11008330903993624 -0.2049888086147007
0.5852375383546473 0.15273118482208758 -0.08636240073448676
0.6018416411946248 0.1447217920802757 -0.14951390369745354
0.5668896554747676 0.13822038949435012 -0.1351549456679777
0.5682700824607565 0.1768568652451421 -0.13284599204655478
0.6039537125114691 0.07613751827453541 -0.2120122756502667
0.5643029071440111 0.1569577320580322 -0.13979137547357823
0.6102357001792456 0.1403176507593571 -0.06466490394987545
0.600066701925229 0.15892246270246346 -0.09166211489909415
0.5895175789929681 0.16849802452630058 -0.1371299505076422
0.6038379570098584 0.17327265613219822 -0.14021640408074632
0.574530488119791 0.15517634172030625 -0.1258965438279347
0.5931235312295229 0.13253112796341782 -0.1588242098993078
0.6188943564208103 0.2023742197039553 -0.11119322663782327
0.45145929282307407 0.13178096228658376 -0.1598972492735129
0.5908582007360934 0.1567571948087334 -0.12819047908666903
0.48254770559304916 0.16147582798447502 -0.14568143397511335
0.5848580375538148 0.13792934583963756 -0.18758462573492807
0.5294989293915222 0.14497291250623334 -0.12510251327336164
0.6009548087208003 0.13737242454033094 -0.17681361226539138
0.5744465396412863 0.06888020699167896 -0.19250715037438226
0.5496486717996305 0.1691008067898565 -0.1282741583829079
0.6282053268353991 0.174094191114321 -0.14377432188192074
0.596894040604468 0.13769425658244927 -0.13475359350735516
0.6315742282250625 0.16010191493464276 -0.1505396900751066
0.5295528000462184 0.15328054005810543 -0.0667418789456633
0.6129686979727609 0.20602739517453017 -0.13309596003912816
0.5919036435692107 0.16608901766596773 -0.12193705305506342
0.5262897152035606 0.17048466693941577 -0.09251182251034606
0.5469797214248047 0.12052927286718784 -0.15864691959566812
0.6022018028006642 0.2004067711114743 -0.1709713322009918
0.5753394866014645 0.11332922280318769 -0.17166067377809213
0.6374910988675992 0.14367062347760395 -0.19386429519823878
0.5795957946776298 0.12947275988847196 -0.16131641719886147
0.664202984363115 0.17932808129995692 -0.15220509593908105
0.5728229705614183 0.09999509061398726 -0.31067744835232247
0.5290541071937582 0.19519859270330642 -0.08658856481733324
0.5056159677424148 0.11793682905330627 -0.18378626073715054
0.6040964796996917 0.20558506504164598 -0.11931854198459746
0.6069902463321171 0.1116801605506339 -0.16475067632563878
0.5789874537523758 0.2029628678519515 -0.11244225467683577
0.7171891923722882 0.1613408113789916 -0.21138064042796145
0.64559926024981 0.17981390542499298 -0.13561921672845756
0.6288557839446867 0.19408406643060516 -0.1303257653789558
0.5436273627893655 0.10908415744196986 -0.21857199862520815
0.5766908765965155 0.1383393531590258 -0.145493995681079
0.6486428942843929 0.15402410136147182 -0.211089741783951
0.5568362784016898 0.14030080724191407 -0.131184813040079
0.41821031098010053 0.1980373918488425 0.5484028855904057
0.5830312585947297 0.15286212936274524 -0.1596702420003453
0.568716555398666 0.2575608867789043 0.014687556319131545
0.5172195381360751 0.09364163349998478 -0.12549153537901248
0.5834107646227267 0.1022943307878279 -0.20696373184162553
0.5937765565853255 0.13403646494101906 -0.2099740347034924
0.7656768365489768 0.06063488035428577 -0.07005573517199082
0.5272557695519424 0.15128522781523657 -0.09918490132687907
0.5545928925491097 0.14344077426792978 -0.11247402330351974
0.5563353038591856 0.17035987965923027 -0.14863374103549631
0.6356425081591368 0.15884202248975043 -0.17068643051783283
0.591620486517229 0.13150712947455645 -0.1463608031871786
0.7018261797677354 0.18259126775978984 -0.1278024583359354
0.5776310537418965 0.11651818527083435 -0.16213693646810157
0.5287253467542712 0.11788693492658808 -0.16964230128724012
0.579129513488283 0.25937638189317624 -0.07740132788160281
0.6474387147485885 0.1988624252567064 -0.1216494330491571
0.537407469463929 0.16359328071044388 -0.10341525222420955
0.5439017633809584 0.12052182772745823 -0.14866170163273296
0.6055686625779231 0.15204156127821022 -0.08280075778836249
0.5799139809465714 0.17092614667186012 -0.07528742106589448
0.580883453334792 0.14650872276349958 -0.06807119238865766
0.4926773840215617 0.24811753705721173 -0.19736322260519046
0.5574094334011903 0.1218555897510214 -0.13526039745653406
0.5895820264578333 0.18337957096503033 -0.12153382535103674
0.5141889767224512 0.127105897864368 -0.1328411481966043
0.5056901811374956 0.12669331481097856 -0.12975828084435648
0.6146220283718833 0.14264059062801948 -0.16147628064450714
0.6245059354508129 0.257693038177095 -0.12153064130853863
0.5578370274582483 0.24615899191861956 -0.11563383520621073
0.5944689884168781 0.1527217916769814 -0.13956734515841163
0.5345720931126152 0.17370026588888265 -0.09053999657587042
0.6336293496029555 0.1433952319862044 -0.1749979181486765
0.5656061094405658 0.11971407066779705 -0.13587838385902273
0.526554989879898 0.23220488818662943 -0.10664824347875879
0.33160969194692314 0.19391473280853688 -0.05400475174698727
0.5886151105178499 0.12346119496272934 -0.18082327666013498
0.6470749322976133 0.19739617391562092 -0.13429437446410475
0.6413323830285265 0.17645505686067509 -0.1686243151809208
0.59390496591746 0.15209644652335896 -0.1661854895027659
0.6214923548418341 0.24036959732229946 -0.1168192949080833
0.5510990451053459 0.080707418552592 -0.20228941255783184
0.6031620117805545 0.16909308124402855 -0.1388927896411758
0.5937578328620106 0.17635954120960662 -0.1441977063831814
0.47746881701843336 0.17108914220838756 -0.08352983680467219
0.5287436630962645 0.1441311546761881 -0.13409284087069295
0.6400245929292936 0.1954727398224918 -0.13086214792775763
0.6156745713653464 0.16203799872482705 -0.14444746673930808
0.5874234139754009 0.15130778569852055 -0.14273584217258417
0.4903838717124387 0.06791879696184822 -0.4982689498278887
0.5757529631211895 0.10880524096451438 -0.16249637604644818
0.5149843464813699 0.08920640576890548 -0.18848601030157397
0.6403166772021507 0.1890239868083512 -0.14426540543482247
0.5411316205843946 0.11242229856121355 -0.1834713171671183
0.6278339882899928 0.17413382703887237 -0.12232952454138513
0.5998908700353525 0.15563792803173726 -0.1520716644177469
0.5670939934796166 0.1494072903267636 -0.13871798595431528
0.5076752445634583 0.12302967762843764 -0.08530736348981804
0.5655514258109093 0.20408153494632586 -0.09411775551996016
0.5656567812286113 0.09468101755264513 -0.1989113031283125
0.5361516735716236 0.135348667765939 -0.11305131965042392
0.7168524835033168 0.13403549407631488 -0.4855883930735274
0.6173078743965732 0.15303608136619573 -0.14885744492553954
0.6158756826959575 0.18682771354342265 -0.11849560665640979
0.5077602582036604 0.09472668423181574 -0.1717532133388886
0.6299580086255077 0.15422315997008695 -0.18071755539034484
0.6213271897588015 0.11711583858588881 -0.18855650644320576
0.6933770526377572 0.17066806593444994 -0.18080073552300746
0.6058809300432131 0.15922454909269845 -0.14838824286772478
0.6246437541622498 0.11892364757707696 -0.22706826946506453
0.5646040961262884 0.1739046859908484 -0.12274123707703666
0.6002865287767492 0.15543568305832878 -0.16790537969077945
0.590313337743666 0.14501820298151813 -0.12679740823560337
0.5073932847911635 0.13804338184003484 -0.11767791636535208
0.6118909179713654 0.24244770193661225 -0.022910385884046036
0.4267908243266305 0.15222546482098664 -0.05746537755911163
0.5894541801116162 0.17890739144648649 -0.11200595814094072
0.5415965217096783 0.11310486279110421 -0.15140882643402165
0.5845634175678356 0.09886090567309225 -0.19977269184590796
0.4904024848386399 0.14682534640564882 -0.12092769872481313
0.5859787465081467 0.18107842504538496 -0.13866475690579705
0.5701578203918416 0.16452171211686561 -0.16124614588133568
0.5504659440836406 0.20597831344069562 -0.11527360762741523
0.5464178950057317 0.09900071155335866 -0.1727946622498564
0.595316094366737 0.1345863851033755 -0.14020559444574587
0.6246795396327656 0.11970955416371964 -0.1836674565997214
0.5917516491870458 0.22420861102669676 -0.029982678023912968
0.5548104785003574 0.14934535134833027 -0.12050227080123932
0.49844373986702806 0.08215546714073696 -0.17104190246271855
0.5992566644245443 0.12998363612049957 -0.1415170386589466
0.5475750448475907 0.050032864637316266 -0.28244796118113413
0.5685468765263266 0.15006466012461317 -0.1131996028212825
0.6130319700934876 0.135367603000617 -0.127926361275712
0.8635624898601009 0.06986488470019481 0.01172754853152469
0.4703468027778541 0.15554566886501675 -0.10099570058150675
0.5850388808117657 0.15604503143214288 -0.12996802802166485
0.5424683697877271 0.08225185715677696 -0.14133534812222592
0.6217010149549509 0.1823230034230363 -0.09572020150972094
0.5878272396887496 0.19292641819029654 -0.09214044369991825
0.5646987892178714 0.08134040396171827 -0.169065879309926
0.6576233045211097 0.1945297748896877 -0.14646809882864886
0.6362945099630224 0.06050531637207257 -0.21484799563594947
0.6310472884509579 0.12586681278678213 -0.20461606367823038
0.5990139214740964 0.21642786766850008 -0.07425695452442937
0.6275477662392461 0.1221134103054311 -0.18315511320736277
0.6230740011836673 0.24371249489617242 0.0526362020940212
0.7316720658708675 0.17077390356359956 -0.22178441188319198
0.622763609591189 0.19979064449640305 -0.08984589617332972
0.5926532755160707 0.1325278658126905 -0.1656503818433066
0.7894351137539957 0.28069196889241255 0.02933508852225941
0.5790923027879842 0.19188216190059393 -0.15099675630887077
0.5970694956307341 0.1633537251736783 -0.11471352230626053
0.5981964165879674 0.15379155408395206 -0.14923027200532601
0.5729510948013541 0.2019477101757019 -0.0764209040463868
0.5649454153171547 0.15109534303545047 -0.15169122867325768
0.6064779683292727 0.16360252327713454 -0.12043396836563147
0.6456506648750491 0.16214605626640832 -0.1042369247395527
0.6128033054169748 0.1872560227250517 -0.16629986105485273
0.47725116636655684 0.05968231013552838 -0.14877876666906786
0.6224059168909548 0.15606682603255706 -0.14806664609102427
0.6465382885448321 0.1955885093015013 -0.13265799061719008
0.6237698763386703 0.15053662467346385 -0.13029828614941152
0.5509104918844088 0.14522289929247734 -0.11884974597779774
0.5629847392895613 0.1937962202624135 -0.11314915827219352
0.5540934132627768 0.12552929767673504 -0.10927563246997352
0.5839327314119203 0.156155178729378 -0.12166325910359888
0.5982010250516936 0.1306129288868334 -0.16028534737310451
0.3848231424640005 0.05793225378189959 -0.11253143469167526
0.5304447300013209 0.16626775872461508 -0.115818763804441
0.5982908760591101 0.16499321455439997 -0.10588238243781234
0.5488066846039032 0.16084954317439326 -0.10668675442246922
0.6757326791536968 0.1373322871739191 -0.21362286183546075
0.796355704371507 0.22464831620355596 -0.17445375110608552
0.5824647051922085 0.16832289395590294 -0.11849844919129282
0.549898428892277 0.17465225996336642 -0.11315033636088856
0.5279223288523127 0.17735377087996085 -0.1474121639865018
0.6045382108040229 0.13841166097446944 -0.16523678666692376
0.5699340315403845 -0.0044503131324376 -0.2038310799703993
0.6109852135200953 0.20779290296911768 -0.12137672450467107
0.5610529509048519 0.1552255887815761 -0.16481679822700812
0.580290865629081 0.16355264748581533 -0.1328094952447998
0.5846383221476827 0.15054351411060907 -0.15180001648809593
0.6434042969258229 0.1773466917338311 -0.16854792583936273
0.5096519696812862 0.1271998737120157 -0.11734537878623996
0.6011850469074602 0.1621638419331788 -0.1440313049769486
0.5271141338738374 0.09981066083867063 -0.12622306593220856
0.6042488824043772 0.16296354313634254 -0.1512078258054146
0.6148535334088052 0.14662517431192157 -0.16716413408147446
0.23008786586511576 -0.1777147815003417 0.042529524332138635
0.610962363599171 0.14653361217563088 -0.13006325202908897
0.5630452050584154 0.14226217471693303 -0.14094590884334934
0.6006956525681346 0.15784603803408004 -0.1320629735362786
0.5134767714270794 0.1402266051376131 -0.12017639559758209
0.5670940641661275 0.10995779237303793 -0.13836070375703002
0.5399730687870203 0.07556092997398878 -0.21722034196326945
0.45658707424713896 0.05860721974080718 -0.1702423796571395
0.5649014089371889 0.1404721894826082 -0.1531810614372091
0.5808462647249399 0.1286808306012972 -0.16587115973430855
0.5331701049452136 0.15529989675857792 -0.12739537667505374
0.5588244036482877 0.16591778141516045 -0.13404169114721753
0.5748962170395515 0.13366502144562276 -0.14300674338218755
0.6143363293945754 0.2073943764683719 -0.10548777993346903
0.6238973111687613 0.20154376778570793 -0.06065648367305698
0.7743470985265191 -0.2177394257977312 0.08980014742309095
0.5987758009919304 0.13718548703133138 -0.1931968039317269
0.5224987749966346 0.09330463337819594 -0.15681832440196786
0.6397192464060737 0.14497226424597898 -0.16060849185069515
0.6147152618231502 0.2615810238626324 -0.05671415558023796
0.42364905499483996 0.056496881313918834 -0.28464525306046085
0.5281699152086645 0.15051360229965383 -0.11013750086905816
0.6125432409355653 0.22000226948786406 -0.1377443015057338
0.535647702677295 0.15659527866982614 -0.12439119472753646
0.6491485987356214 0.16388683755289435 -0.1795983159880734
0.6665036464100922 0.18341866003626706 -0.1264818877968139
0.5768691175575924 0.1978114125241035 -0.0802970801704248
0.5633635326285429 0.12549524272024826 -0.13734427245427128
0.5174001337523748 0.11761348629313773 -0.16359700396964172
0.6192752093748908 0.1948591639204551 -0.188812587178262
0.5669614837503474 0.23327414477324737 -0.07342973291204657
0.5282315401685764 0.05004974865312306 -0.1799340836859642
0.5701462355126381 0.21422812076060893 -0.15593884652341217
0.5554251232328795 0.19832490665736202 -0.0986660881706598
0.503246641142681 0.1371095697182625 -0.11586682770928292
0.5659150927331495 0.18518292866704655 -0.03888262307282275
0.6223045403083063 0.1940217881645907 -0.16011594182376143
0.6445870237621136 0.17995882013390485 -0.13657726003398807
0.7308627715243716 0.2866477230075617 -0.0737087769210234
0.5350168365993682 0.11214121229221519 -0.20209711263586883
0.5315258584799807 0.14080331961532977 -0.11425976162738039
0.5555591702794374 0.11010377258591575 -0.17063529003513622
0.4911815779595372 1.0514226786999643 -0.47959914893266387
0.5641037128057889 0.1261065118116136 -0.1597243437013276
0.6191280104262233 0.18790711386141368 -0.22056090528997174
0.587064845085024 0.08649505768259758 -0.1262895607271446
0.5094670033769972 0.11026963107740073 -0.049999551131122644
0.5599399796199833 0.16821553828920344 -0.12653683584096598
0.5479321989193693 0.17829388255687206 -0.0961272353910374
0.5804562819251657 0.1389173765688554 -0.16514773534564142
0.6093550712878368 0.17403282968388112 -0.12632728390622106
0.5607157431061154 0.19417285399235595 -0.06510698214299282
0.5782903513867126 0.1923787578307241 -0.10018242179509684
0.40700903879222494 0.1446355899238796 0.18949416938420427
0.6195869385804968 0.20220611523123466 -0.13724557910731505
0.5985147732592111 0.18067338439321645 -0.14972756920224128
0.5969235857011626 0.10428947789492327 -0.18589948371143805
0.5793836948052729 0.16791661840454708 -0.14974323814627155
0.5804283442775358 0.15712232970514606 -0.13759492505886328
0.6668434029320309 0.16848713954721006 -0.2208738937860062
0.379230182145065 0.2513640909111956 0.00966885972539444
0.6056089948793328 0.23371253020788174 -0.08732574840698248
0.5999632165650297 0.1286002640225945 -0.15721655705434046
0.583578536179985 0.16291031746807505 -0.13526957463420786
0.5980331657157478 0.12752274908571337 -0.18799853419275792
0.5426263678737939 0.15909870367619305 -0.13251388204818682
0.5767905666680662 0.15034409020137218 -0.1873457771367555
0.519703990125393 0.1458977966842241 -0.00022571079935573835
0.6404591154798993 0.168605365327835 -0.2164203821691899
0.5564001367327336 0.16536802680485607 -0.11214993491205405
0.5855989025917552 0.15266691755084594 -0.038483999588152074
0.5550395195790969 0.1622241236079418 -0.0901340897677585
0.5922393379240418 0.1400121776601111 -0.14160300656081404
0.6679539163942394 0.16885941985135844 -0.14491900891275122
0.5887974442375423 0.23347035221546264 -0.14413207152077234
0.6555606080144116 0.18208616675754286 -0.1132251343951225
0.402299449466355 0.015148663459171985 -0.10997785156180839
0.5872966142979408 0.13980884194734244 -0.15184418348175655
0.4636400358427295 0.11356103256844108 -0.2826738429630211
0.5860328965689092 0.15883796930094718 -0.11254392705743044
0.5578110527125375 0.13031503733718353 -0.15012879522475941
0.4649823505070856 -0.0001235784865940559 -0.12974884261151942
0.6470974159703644 0.15127742040213832 -0.1807149187494872
0.5756609869205249 0.18730427807057026 -0.1184096081430539
0.4659646978501968 -0.41642810783842776 0.010211721989918487
0.3501876484275783 0.11898669039592846 -0.13659783669490366
0.5879935894042916 0.21799525564804867 -0.060448085355119474
0.6420205543385151 0.0921476856712502 -0.23489997647854466
0.6398192619598717 0.16476589962206845 -0.15269313638410154
0.6236966734505103 0.1141783405179666 -0.21056255381174083
0.6287297653195623 0.2780376597898879 -0.096886939250453
0.540515578092382 0.1313679430704724 -0.13221320966280814
0.5873223084803385 0.16605582372291394 -0.13711883220787513
0.36031344242040575 0.14376510655895913 -0.17028366063524913
0.6376471221904154 0.1903486436104771 -0.1438127335981676
0.5545816563450927 0.09865326759012305 -0.15377264640179078
0.5597972372713826 0.14445797746479627 -0.14686645958846611
0.6038417379369463 0.15970938201300555 -0.15216814866300865
0.5443193072949697 0.14856886460225383 -0.14739050415002453
0.5481290484063521 0.2065897661516516 -0.06239562408725874
0.5802759630842047 0.1296855143989717 -0.17404056433406367
0.6963503182737583 0.17353224025184488 -0.15501972783246742
0.6596600319958412 0.14746875352842892 -0.12987202145953347
0.6476176718366986 0.2117131415944158 -0.06783254987959708
0.6673546476071976 0.1977860870726431 -0.14534798242115698
0.5061501133840807 0.12847570949890041 -0.13455423403650002
0.5948287867345528 0.17030902525502256 -0.20898370410026246
0.6142690547353737 0.13835649085596913 -0.15387243818534557
0.5515981243458725 0.12139357541218487 -0.22072067908243298
0.6066500829612806 0.1183125758218182 -0.17214595171526526
0.6422253280694292 0.1349776934462028 -0.18647752193481892
0.5572098283408167 0.047212189191810694 -0.2714508138737415
0.5969993619828386 0.1657907878578584 -0.1293524561523327
0.554961083668033 0.11722667686854038 -0.08232099676797588
0.5900538830711497 0.18181700524608857 -0.11521154638634812
0.548958071882808 0.11107399346130364 -0.15211051152280675
0.6870462575434431 0.007727984303059543 -0.2910857227522854
0.6287454062262015 0.23553614862728978 -0.01156268116881165
0.5992873252885005 0.1472700948018968 -0.15386073197848305
0.472428765217046 0.28404421577504024 0.022019831328691453
0.5730299290857772 0.1654152284545205 -0.1372048154071024
0.6175972633766094 0.1553946352812119 -0.10931330838531039
0.5403076332225822 0.12190264553544239 -0.11511199667685901
0.6453173138328907 0.16453481809125492 -0.1479192758872614
0.5679693553871772 0.11928909625767403 -0.24224485041608546
0.5793604614997179 0.10677022252890822 -0.20123796848102415
0.5566019660791568 0.17437624768167836 -0.09608403000740395
0.5980468451717798 0.1450997715222968 -0.13418824981619082
0.5233468503625858 0.09575764738386283 -0.18315128668390912
0.7014115778553673 0.1329792940262422 -0.19482018920211885
0.6716021531550638 0.08133500421654105 -0.22512398635859654
0.6163357882356593 0.14771387314839046 -0.1924506585743302
0.6501187077022479 0.1290280447293668 -0.1985569659213695
0.5287597929248307 0.23402600351570868 -0.08541586923831801
0.6293655741911692 0.17420365672913363 -0.15080602851446656
0.5566872037044561 0.002041709144748438 -0.05306384673519915
0.4577159367202768 0.09130197156169118 -0.17482339040680017
0.6827889768692188 0.22840910304657314 -0.12015032253924574
0.5981319676189543 0.12050735386894473 -0.20727909421736967
0.7530968763238661 0.11692977211848188 -0.1304872831636601
0.553281955279715 0.17335367215318342 -0.15009589292242254
0.5854203997306087 0.03329629085105523 -0.20693992116025584
0.5687404695209466 0.13076837972104727 -0.10798749135491903
0.6726622209948232 0.2063267395091657 -0.0532771548290043
0.5928335280116386 0.12066064745847882 -0.15090722979874727
0.6585423671397308 0.12867925195561725 -0.20993495050851152
0.6639021693700613 0.16729377679830293 -0.18470537519129948
0.5954206570758203 0.19007060000330966 -0.13117903332627634
0.6018681082545498 0.1537255214502551 -0.1372352419954268
0.6195884099508646 0.23895316576724213 -0.10153647910388486
0.637777536557536 0.20634151980911497 -0.1113843070363032
0.6074528956383318 0.10900477556678823 -0.16419900614820904
0.6165247190382672 0.1752343402424117 -0.13390637468526734
0.36538131961329157 0.15472622484850262 -0.1264533485253878
0.5352981304039588 0.1938275830484315 -0.07767837560172097
0.6214984067324991 0.1495914464443331 -0.1261228738522675
0.6366930431129845 0.1699242501741196 -0.116362203236406
0.5882066691354453 0.16498589248116957 -0.13057205123078575
0.5553276113480621 0.1400899936913902 -0.15445034212237374
0.5944738075782681 0.013557217649179165 -0.17434302274540414
0.64750239202138 0.13294375557893545 -0.1860702867262205
0.6345428360446448 0.18086475801936786 -0.15213741332081554
0.6297374245054783 0.1535296893036957 -0.18601820752607523
0.49125723316370795 0.014409749330368982 -0.07462530955027091
0.7149983546648002 0.048903919678565444 -0.2302449431884952
0.5158947126183904 0.1298789762624324 -0.16074119641274365
0.6818990779863299 0.22254316732596635 -0.19147407506494574
0.586881486081424 0.12530803644253297 -0.17260840158817814
0.5350127912115994 0.13769172581163502 -0.15945375516602667
0.6526685543516919 0.15746878181616353 -0.1872857358408453
0.5850885716507435 0.18054728083716043 -0.13821373588169195
0.6090041681604532 0.13744646215434386 -0.15019294567525776
0.5764716108927814 0.13178865686144547 -0.1695009801202616
0.5850314870351099 0.13646747098516698 -0.16214251832184345
0.5100253074326702 0.14496282010166794 -0.1374344548885631
0.5058252422285392 0.1484585545788093 -0.08451285441651635
0.6515738070071819 0.1579342716691201 -0.15579719608550135
0.5952981661901617 0.16470767477697734 -0.13981009639252306
0.8642334801450602 0.39314345337784573 -0.13622650185027396
0.7688206877008241 0.1913676151342827 -0.17603983636104203
0.6337171519069926 0.21700820147552236 -0.10418914641400079
0.5647056387767293 0.06073784938172366 -0.1913627572383234
0.5735553749237852 0.11069808983108942 -0.15769509632153245
0.5069979662353887 0.1806139684089345 -0.07489001418383623
0.612671998797282 0.2645197407960893 -0.03597825267877397
0.5490921292641389 0.19318302856997605 -0.0689799546778147
0.5995416758034366 0.15923004443709488 -0.10514891331519038
0.6242599658632599 0.22443393475637663 -0.21218991704424184
0.5783275823836931 0.10549287059339463 -0.15764362169696255
1.182035922731302 -0.03212789156521012 0.76916029617567
0.6384363893317015 0.270080224941168 -0.10343830862694858
0.5815574013873146 0.12029503674040143 -0.12958452198378723
0.6554513039309313 0.17747445292967257 -0.15169028446473476
0.6234525274868332 0.20286203149491655 -0.1802289330409792
0.5492744668747065 0.15796073306455582 -0.11725697697795567
0.5773682543271548 0.180425564331415 -0.10805952727494628
0.6027078351087027 0.2575669193280419 -0.015905189661367558
0.6070711297827529 0.12084672511156214 -0.1905243983308651
0.6276735898554335 0.15983989100755025 -0.16454197972987572
0.568957417748365 0.20939585309504594 -0.06049058116909123
0.5235849272377209 0.14744728187496037 -0.1267610133483288
0.6256427549327412 0.1938811654305539 -0.14249830036681033
0.4856544414422217 0.08353300600295199 -0.10330129314939995
0.4210237917445454 -0.44110166474473544 -1.1748566577410315
0.6256497365013161 0.10660899002317592 -0.21102532111544292
0.43381929473640923 0.10212398541948176 -0.43764944497539204
0.5906069394950464 0.11385222189450417 -0.16132163403221966
0.6207327301664947 0.181372018271162 -0.13355509603366045
0.6484160437539401 0.16838043613299192 -0.19028398188450524
0.5704747167712014 0.18305126372688107 -0.10379309764022082
0.5189811376487938 0.13234146370838573 -0.11115627084009816
0.5820649148657964 0.20838787892111554 -0.0525392379065579
0.585300428805084 0.0833762753120908 -0.19507543206694322
0.5661856245193491 0.12995793461541894 -0.11785714573147743
0.5691768061890485 0.1306117621433458 -0.17230154481666204
0.6046044504727632 0.11727095089523232 -0.10298367494814897
0.5803769533282832 0.1682660959770459 -0.13153604366871718
0.4381812606181086 -0.003751234097862266 -0.23051029124636102
0.6204939965551546 0.1764573820450437 -0.13694353953010818
0.5594800159352076 0.14818518876276698 -0.14935516302688256
0.5293152705548891 0.09529836721246454 -0.1378465837932481
0.4701535158720702 0.009086999795101747 -0.03712344778719512
0.39675803619020655 0.15695811922687142 -0.17863022556451824
0.6410283106608858 0.13008464330874858 -0.22221425214019064
0.420943760921773 0.09190273583595854 -0.10345638392621481
0.6033264190444925 0.14925800223727492 -0.1480914761995109
0.5392147780210621 0.15322960108754557 -0.13975096009554022
0.686550926090078 0.09770175181091645 -0.2335589316458595
0.7098752262005092 0.1801388964816084 -0.1741844424547594
0.5398134623046786 0.20391274361985268 -0.05214531370401687
0.5721076462166366 0.15470980489681097 -0.12537955897803954
0.628273579167228 0.12251784470014115 -0.13832970266545885
0.5170355563543723 0.16442823976537113 -0.08668611520783998
0.47942552912917336 0.32748823716150355 -0.07501526124954694
0.603334425752692 0.1726433041419284 -0.10000244803705982
0.6271101915313295 0.1863532874301228 -0.18035807224072187
0.555496518800112 0.17950472229627223 -0.0028171170371820153
0.45340303243551716 0.13127249133829366 -0.19697483102146407
0.5807037451473747 0.11290262700599385 -0.21818547763547258
0.6279514110512281 0.12115559420112731 -0.18882210088261786
0.6488328454652645 0.28714355928987345 -0.11049876018651617
0.6097530466242347 0.09549158616897557 -0.18345772389250214
0.6909449377768055 0.13993582886185152 -0.16852176986273548
0.550693826165471 0.13709871896421078 -0.13752336107910423
0.6405728544166038 0.22102371227020967 -0.07509541275621245
0.5816790593343342 0.14516532837357943 -0.1328933845012159
0.5524776083954777 0.12840790406173141 -0.17428209138111583
0.6397696922107059 0.10516942036578314 -0.1923347796499968
0.5647036679035295 0.07220969863082871 -0.16537644144705155
0.5813276328869819 0.16460087887479347 -0.122398656247384
0.5332658571935696 0.06583161188277131 -0.1912449373051004
0.5792790081956696 0.15981888766407337 -0.14533671982727014
0.4800416790876909 0.17998925359495388 -0.13886889001383906
0.593532290087694 0.15634057728699702 -0.11981075651368656
0.5335985818245916 0.15382998538018455 -0.1984163449276366
0.4083990510081321 0.0069135048077981764 -0.18400370954361733
0.6146042866740515 0.0916027222111353 -0.17461787490384495
0.7055058082682422 0.17238213150766057 -0.1920370436406813
0.6516298044956983 0.5252976623942942 0.20292431202537387
0.5391293663941923 0.11766493902644015 -0.13417841229056648
0.4901603071095195 0.1447948080507615 -0.13415267962733424
0.5711319845222391 0.1443566345426035 -0.12446675508942917
0.5991233461103747 0.10551966469300567 -0.17414882561263312
0.5299245106218677 0.08723355058401694 -0.1644311648255723
0.5991727440362382 0.13532778506014154 -0.13194048420356808
0.4074201116410876 0.11944357175387665 -0.1507334995052645
0.5698862405267278 0.14519879677888525 -0.14427821024241894
0.6121565790916179 0.2000123938707219 -0.08534028583036957
0.5789271118041626 0.1416168404833087 -0.1471112065619593
0.705433458644336 0.20339533225882178 -0.11858740934709999
0.5873552908903577 0.15389612285299847 -0.146304256088996
0.6523649282826369 0.11498011332295732 -0.23389708211007587
0.435278970419688 -0.2849038330939919 -0.056251897939546325
0.6411876801384722 0.24986869669672274 -0.08767760429009286
0.6664457941179478 0.12959987842216947 -0.2038176319529157
0.6080032257783046 0.18583299143230647 -0.12354033867185876
0.5991600615729027 0.22357325927036698 -0.06636607253784632
0.5035750778045838 0.14453639985111977 -0.23313379199259998
0.5947258296602058 0.2110319103014433 -0.09374137540896754
0.6128352307679705 0.19067420115477773 -0.09361216777509185
0.5815866412904285 0.1448104708608895 -0.15011237227435004
0.5610540881055783 0.15285479671233304 -0.1368231448215056
0.6004011692639892 0.06688801643100817 -0.18333156312669985
0.633620584227657 0.0924278514849135 -0.2106459568507546
0.5753026153086296 0.08565997059398 -0.186088000317028
0.5624156261171294 0.1374948467666428 -0.15335026385298534
0.532025858896219 0.1171430491045129 -0.1587426597600654
0.5774593320719816 0.1577984555263754 -0.14289750534612722
0.5992423366785005 0.18396814629157632 -0.16954234546645353
0.6651763226468574 0.18215041116816622 -0.15372034575781868
0.48320216177137354 -0.011536518032642107 -0.2325153504946229
0.5924344031504063 0.1390540350566596 -0.16110016966194962
0.6898485289820968 0.17033772101133593 -0.24199242173466473
0.5795792317591548 0.14693661949451098 -0.1582253705537653
0.5372332297518625 0.17181386109126606 -0.11792444447519301
0.6622650949749413 0.14334365497066415 -0.17391560425713237
0.5873016101674153 0.16640037872657842 -0.1345534668456594
0.5350563880405161 0.13962133278879207 -0.1252716888109262
0.5844038504167628 0.13013796518505671 -0.1558993928297241
0.5588837009034933 0.1294017726799126 -0.11411655988959524
0.617423755301715 0.15111796680329803 -0.07653650473955054
0.5677243111547909 0.18400906006056061 -0.08960221012330294
0.6382636656979912 0.2209137923454989 -0.12803973438752791
0.6631066465327393 0.21489900954917118 -0.11423691089612475
0.5945981050913218 0.12337307940077835 -0.16666801512266716
0.5509257250332666 0.1495966253288259 -0.14852592188447034
0.5506627928090921 0.16705196586551097 -0.06588788329645467
0.5225180212772358 0.1406637284936494 -0.10485904306929683
0.6115598642201263 0.14442648048905937 -0.16684469833018056
0.5412985303347568 0.16833941459891832 -0.12814019396043363
0.5980875490605655 0.16641312843020728 -0.13379461892512268
0.606258859314309 0.2739216464838137 0.011245945621084275
0.603665868112472 0.19114392997637708 -0.14121241968686604
0.5409270085138189 0.12978290660548453 -0.15266155113550894
0.6518087427837287 0.2730762159577864 -0.04200855444597096
0.6047844435794616 0.16801131236844924 -0.12979448013970796
0.5978307407801822 0.10448218592642888 -0.2055027447588884
0.618502920188746 0.15358808923407707 -0.15556282299482405
0.6221231511536587 0.13333260067794583 -0.17548738505368533
0.650375049975267 0.1369066188473198 -0.11226279302832154
0.5645742814690919 0.13500382897426277 -0.1691690117413316
0.6117286165781479 0.14228381082142505 -0.14015080396615076
0.5057486010273919 0.19986243504985168 -0.09515226650268005
0.6221279336320862 0.1472411260619424 -0.19054170852831476
0.569981469247935 0.1087801346988897 -0.15645755224463187
0.6243921285607854 0.262573817316067 -0.11749127758008626
0.45527754975398693 0.12043899388459067 -0.0696536188075072
0.41138712412670486 0.16781945994024738 -0.18554247888297937
0.6071885428592907 0.09888506008526576 -0.22451743586114503
0.24608049020551448 0.3554036781938805 -0.47213829200754276
0.5039787172734549 0.06698576606322604 -0.16536813967704234
0.5966174780492963 0.17000837557147008 -0.09643685514544131
0.5252964792745587 0.15469273624916013 -0.06994324330483437
0.6472706306745408 0.17458636328888133 -0.19270879142354147
0.7293940116399824 0.2032468725246872 -0.1527453524892337
0.6010460188369535 0.16143989617243903 -0.16292388226915477
0.16872832365436352 0.12967453323309996 -0.13372803529341581
