# .PCD v0.7 - Point Cloud Data file format
VERSION .7
FIELDS x y z
SIZE 4 4 4 
TYPE F F F 
COUNT 1 1 1 
WIDTH 805
HEIGHT 1 
VIEWPOINT 0 0 0 1 0 0 0 
POINTS 805
DATA ascii 
0.570441111942074 0.13235386074870803 -0.15899953318799476
0.5602215372900474 0.1530013026953867 -0.15578191575175993
0.5764393836483777 0.14708511105342836 -0.13185281160863838
0.5860169179451447 0.14736885943933942 -0.15795303212456702
0.5957607785256442 0.12116251950844514 -0.19165455161322598
0.6058391114098356 0.24198013196016177 -0.16055086512102434
0.5965889417202277 0.22248942376312186 -0.08244863766969956
0.36445411109343695 0.05126972488800163 -0.18290469231413908
0.5350041976311246 0.15424796983977274 -0.1333257248635107
0.5219304909889502 0.14356087861105493 -0.1111349486882034
0.5369166374253069 0.056004477711937284 -0.21780154649994188
0.5742340613697081 0.1499223203686313 -0.13242250704058733
0.5504170126824448 0.10719456404206085 -0.17294855941219112
0.3604698982930188 0.09739053019799826 -0.017449116686321986
0.6032265199997511 0.10218381470387783 -0.18109638254392735
0.59565907348275 0.1547353541684231 -0.14805876754775227
0.5760838728184154 0.14663628170804088 -0.1552496472186533
0.584885928306818 0.15998438004983484 -0.13326327269297167
0.6255948285117228 0.19864120294116105 -0.18668064241117577
0.38515393005293674 -0.021095451705591017 -0.25996356858775016
0.6424848802893024 0.24408554268956095 -0.07382756571715277
0.5790892911067971 0.11487296040853323 -0.1771808927181553
0.6457676193130482 0.1320716409637157 -0.19505498215139028
0.604576185686085 0.10147564919357421 -0.22579794730751246
0.564357149443282 0.10856141816518061 -0.1668249380094835
0.599325907426902 0.15483491979594532 -0.26994059239919466
0.5611889656282472 0.1706761184575356 -0.12732037606880908
0.6121539664541729 0.16413926454276861 -0.16891747655978406
0.7053900030920488 0.15819932337471698 -0.21433120780815784
0.5548212838708793 0.13590920494549152 -0.15829288743603342
0.6061033095750332 0.06107732272727162 -0.17245266672838966
0.4890997011523126 0.08691878941766618 -0.12491074798813884
0.7440645759449325 0.05717137889666901 -0.16517105506889607
0.5006562113335491 0.17323456515825342 -0.10416659445735377
0.6619449259174246 0.09624764020102816 -0.2330812296041529
0.6254484201220265 0.15761828974353875 -0.15092334848617384
0.5326322070580858 0.07999484371036658 -0.20288297181647863
0.6228006614194044 0.20119491954950774 -0.11052377465088625
0.5834876381088492 0.1464148493342492 -0.14789863793694735
0.45468512527881444 0.09292005565743011 -0.08609411759451291
0.5060388586901183 0.07285414557692604 -0.16458538602100248
0.6184770715019567 0.1161755494515262 -0.18078786013174408
0.5557363820068275 0.0877716316736894 -0.15361408342991467
0.5758201738789808 0.13973985838146064 -0.14997526319652366
0.6342679888358873 0.16411244016387627 -0.17300444945732352
0.6018346309763984 0.1616025998417996 -0.15870468499963408
0.6612230001722708 0.13780138935018726 -0.16048498167950243
0.6164810191901751 0.1711131177341656 -0.1314266198437224
0.545380939505506 0.09371898975157933 -0.19314859555478847
0.6206834307120914 0.15749331925056254 -0.17949143318807614
0.5476825081938586 0.17085390057825123 -0.04391351385450548
0.6221558743496161 0.19116906296781622 -0.12225099286291652
0.5887661914942868 0.13562768855430818 -0.16507858395942776
0.6188547497937122 0.14146547314906854 -0.150401685202894
0.5901300794509865 0.07736291399706374 -0.21648599458725926
0.5907633246043815 0.1503460473260816 -0.1592603544725648
0.5166891770069526 0.19704182863746666 -0.05677473688257351
0.6974402176921615 0.1386904745700832 -0.18301748207954915
0.5132089460877864 0.04914287404710649 -0.17549987736268235
0.5180105609916268 0.1809279734835343 -0.09142405907678608
0.47556237501321164 0.12476024379745354 0.05033479844428257
0.5857625542023328 0.14804101664557834 -0.1194044720531906
0.5607764450703883 0.17972918512244007 -0.10843010652817497
0.5997195586967337 0.20482250379417621 -0.19911793683561996
0.5394262346546412 0.12308820427348621 -0.16530243086725704
0.5751702070792959 0.15581693986254663 -0.15750161294960208
0.5172650846830038 0.14694361716088622 -0.14770749619469825
0.5267677667159205 0.15780890873310227 -0.12373001670999884
0.640566931972856 0.13359062935120392 -0.058826223570889624
0.4697117489001812 0.17866218765755093 -0.10890898009509442
0.5634991029092475 0.21521930279905632 -0.13102397764268403
0.5413830835896078 0.1458992622486619 -0.12615300466589474
0.6485194196202713 0.19794753351445138 -0.10148311688340073
0.615965632261819 0.12322532679590381 -0.17331532033458075
0.5504273925770349 0.09234327423664013 -0.19665833415697875
0.5448195319395239 0.2796777124901695 -0.08852445660880903
0.5939538225671726 0.2104673661271761 -0.12508234084822334
0.6101882797960911 0.21575694772786846 -0.003109938454173289
0.5895087095526179 0.21931374796169223 -0.10968295114938087
0.47535423476583105 0.05696764737722049 -0.17531336615076043
0.6772545935758529 0.24672420512941073 -0.061077697712477175
0.6017966910589507 0.13376854507149005 -0.16867571737253684
0.63319570038108 0.1710948889591748 -0.15144595362696123
0.5991915243167938 0.18244902043453237 -0.13542628295684267
0.6427356848783461 0.1681793064628181 -0.1467655133977246
0.5793459411669772 0.1765934969261025 -0.1474599533156038
0.5670708328637346 0.1580238040052251 -0.12626448555678849
0.7297973136962099 0.23743788902723395 -0.0650645772192604
0.6553674061366337 0.13861540043109244 -0.18146055511553527
0.5883139099329355 0.1887315196047865 -0.10007501522932216
0.5923408354803428 0.16146772018029765 -0.12082735560886704
0.5824526723927477 0.10900312514803545 -0.20355695137760677
0.5348306810035695 0.10623727825418428 -0.16520420298849103
0.5750355757012784 0.07927572159512408 -0.15444860897130752
0.5768981111123139 0.15577112757679856 -0.14287726478099216
0.5644187844463744 0.16309418352339833 -0.11237601113643336
0.5747839159730574 0.11653519429046355 -0.1779380399930517
0.5355058038060321 0.09537713911156231 -0.17708141052867177
0.6116254080158683 0.12012448024883327 -0.15480280131828295
0.6013909628395027 0.20410745690958265 -0.11029467659687953
0.6673088089458616 0.17170033651063932 -0.1499911616176064
0.6132801967073505 0.10631200222815096 -0.20514538693441864
0.6580271321668931 0.1759801826440821 -0.12344436743271103
0.6103182526883018 0.09217466292176368 -0.16865368240823386
0.6594421420484764 0.1268191032085184 -0.1817003923373477
0.4726000001287929 0.08891508265602965 -0.12993488443805745
0.603473707920898 0.16189405172819704 -0.14642196203587332
0.5568536308129381 0.15633737496484912 -0.11285557110230116
0.5675662892466136 0.1654018327234752 -0.13926390211790363
0.6030731955923585 0.20208183721182138 -0.09607326129125227
0.6154362265092601 0.1825386640344533 -0.11827584842532701
0.6408613947015311 0.164143066986 -0.12606283882044522
0.6471953915466315 0.15200830592945636 -0.14966204394161764
0.5659471833557035 0.135549091003341 -0.13857504456242964
0.5839553615208644 0.05148080592411475 -0.2164862291880354
0.5703280592537254 0.14900122510478297 -0.10344550490520987
0.5563523497000773 0.12460327901558799 -0.13607376124957682
0.6538047659094559 0.17357316363197128 -0.0760775274184482
0.5919415160605723 0.0998412784861813 -0.1938874622715332
0.5814387562038945 0.15382448033365392 -0.11956403237900304
0.5789473741482709 0.05670009295459977 -0.27160683649719886
0.5716530081874254 0.1096941199850221 -0.1461246272253902
0.5573146477448461 0.1313815246741683 -0.1725691451860314
0.662854055174023 0.1499218389617596 -0.16091282929681938
0.5677675723702293 0.1933110751645586 -0.11328713130941992
0.49715596409454577 0.13385568572395812 -0.09495558024420347
0.5946766409666253 0.07703554983658023 -0.2334234601026992
0.626603410099861 0.16076568178451112 -0.1294653287598635
0.6116017044295461 0.17098933850999742 -0.13545319742974016
0.6000551872052853 0.1150900494936451 -0.20405562834244506
0.6027203189606496 0.15126388644281974 -0.15581225121127318
0.45817843747001064 0.12336750324620027 -0.11382498350417336
0.6673391499080594 0.15391007132572554 -0.19970689982807244
0.5760413264876831 0.12803678646540106 -0.14450706139717795
0.6970749477529239 0.20418549960764665 -0.18027655668387865
0.6374804378084775 0.15339167310118285 -0.1917626274810118
0.5085090639709762 0.08712891463953554 -0.13653495959991346
0.5222960877638911 0.18415202799808128 -0.1722267816814167
0.5803891810113697 0.11836825251981509 -0.16108086325203885
0.5678652772501067 0.17521313040322184 -0.12548352469559632
0.5785868236226861 0.17354104847551355 -0.11346107592271437
0.5445471432712878 0.12493808318293986 -0.15445144103583175
0.5848392434551357 0.16950121017075048 -0.1242868880785295
0.5965211617483703 0.1014526484475482 -0.16884507749637123
0.5505259723164073 0.12725396026564795 -0.16464997166818307
0.5616405681987118 0.18392269434897912 -0.09494950232735277
0.607413714011912 0.11938817646607447 -0.1916107113056853
0.6917241391521429 0.14998921141855703 -0.23368307574651226
-0.37990399922561835 0.22354205441743602 -0.7998636331896591
0.6258742970571234 0.17021673162524564 -0.1493332166429866
0.6272777184591121 0.1500959157904873 -0.15098476223974444
0.598283972036441 0.13255169910432585 -0.1639556359449159
0.5148538435581003 0.06447380690433135 -0.15938744472592248
0.5942505798772117 0.15497568974669207 -0.1432267555561566
0.5803591046208254 0.12652987027601625 -0.1748669180624347
0.5539331421193339 0.19682176301114396 -0.04775722031445184
0.5421954926269308 0.008475020127661992 -0.14349582920800685
0.5215279013771266 0.07519236811920393 -0.18423025219541955
0.7283706121799725 0.30187456424947356 -0.1488652051710062
0.602452975208152 0.17918560496025293 -0.14757705860847636
0.5944077791711067 0.16426898256351308 -0.035054473402311714
0.5452579826184802 0.24138768086378093 -0.04041964905948703
0.6887967922744878 0.1805841438027329 -0.09861187701230278
0.6187997730459642 0.1344270327437158 -0.17646747306704924
0.6867843711394528 0.15330378542908818 -0.15196202150784188
0.5710840223374589 0.2781075956160777 -0.12869778704785517
0.6255381146430778 0.13691959771774975 -0.0911225772570674
0.5463810350396159 0.11755752110448725 -0.1283327412986921
-0.6066429597985348 0.6899404949903953 -0.40754052397798546
0.6008966176502071 0.1475420979742097 -0.12967951087409801
0.6097058077021984 0.1598002470494322 -0.16582330961750813
0.5612665120579834 0.11818483001469815 -0.11733207473321272
0.5713160250464142 0.14032903624148219 -0.15713173107343437
0.6154475108856445 0.16966025209511315 -0.0844428225262277
0.5415360107834744 0.21923256461194285 -0.05892083784308966
0.5438912034040015 0.14510639592083407 -0.11931949658574581
0.5694167888521093 0.1421620964565733 -0.15059583159367662
0.6152693540722822 0.16573845507576834 -0.1350136105718036
0.5733106897840372 0.16685367624388903 -0.11255546845217168
0.5463077031696599 0.09225714433480903 -0.1799024996436458
0.45147505395785004 0.13414122629048109 -0.0354960127540096
0.5850962662622976 0.14242751002318244 -0.11269598165415573
0.5385945422488021 0.1531900523280143 -0.10839714504217568
0.5553531894206856 0.1504313868662166 -0.11788552628740945
0.6087274333524988 0.1522427883375599 -0.19117854152673885
0.5650428856135079 0.13956247471597294 -0.14492210044613785
0.632130206207961 0.17185473319692335 -0.074995444524518
0.35436895681405645 0.22509991422636233 0.3060677932855924
0.5612734894003495 0.1335953784421804 -0.14480011001177218
0.6906609633903713 0.16519424778299197 -0.11603377325766928
0.6136423811995684 0.08056270187749703 -0.2350543144933681
0.5256267248666688 0.17948466493142234 -0.1090893702121889
0.5319697551539946 0.08517490156765462 -0.19096885496148275
0.536413223570122 0.13778450714680446 -0.12986191519414092
0.5238915858392943 0.14524114865631077 -0.14926871965988653
0.5537229355087305 0.1712603364994294 -0.09928969596134607
0.5890532522358143 0.17158143948644522 -0.1350649993473496
0.5292479887266808 0.11707654128126421 -0.15133284441668593
0.71522850625297 0.1571266089544281 -0.2239918360563138
0.6385815236575496 0.11086947920475154 -0.1724360434452592
0.5871800126412126 0.1641756631618847 -0.15320893481478493
0.5423839806107793 0.15572204549098956 -0.12006887936172461
0.5321942134447255 0.11219488714812087 -0.15521888675596074
0.4871598007608924 0.18476256159992488 -0.07945031492920407
0.5848648035894541 0.12638180322375092 -0.16675791047757116
0.6025894320965648 0.1195362084652487 -0.16471054764792825
0.5777679344655269 0.11249608551874246 -0.1605512469891437
0.5988933860061962 0.1496806562589228 -0.15307315095364515
0.5929012220136656 0.14936205998355945 -0.16167040112446784
0.562479017416706 0.17230444768452458 -0.08891862225465275
0.5207316362255057 0.13598482712959026 -0.14826141997664877
0.5830639863890781 0.13402907321210478 -0.19246262634584355
0.6017745169814219 0.195176857397513 -0.07088056114099572
0.7074594483664782 0.26830115191474135 -0.16955079384698024
0.5713356219861652 0.13578749662679002 -0.14575230503410808
0.6415363203753515 0.22024248403798197 0.028999340358723202
0.5687026404751947 0.1898474988788763 -0.0867612743517725
0.5785780898758048 0.14901010146458304 -0.14226819516244404
0.5934465082969211 0.09815807971921231 -0.08604257773649238
0.48313887727942983 0.05773085482516649 -0.2109394007491403
0.515671876591 0.13848433006771188 -0.2001327268123987
0.6381884469124088 0.1516175640924331 -0.1834994968044441
0.7987395190205149 0.21573639769594877 -0.19829521877107936
0.48921490262611655 0.059027755548626715 -0.1921262563142534
0.5690977720507107 0.1592446756098127 -0.12855086509327407
0.5778524257298301 0.1428649576065908 -0.13534295352602044
0.5898050532100427 0.1410677537540721 -0.12702263857127605
0.5884645450761639 0.1702051249506411 -0.12879818571963142
0.6330066005359924 0.17769295305892285 -0.18135608773948775
0.5175232446971592 0.17506292125253253 -0.10708918519833333
0.5894617548035228 0.11352886325806821 -0.16826185345740896
0.6009106927885597 0.1919183093987158 -0.1523074892990337
0.5477918302795786 0.10809320146744028 -0.13679248001182032
0.6025848928915707 0.15412027795269978 -0.1630657508364095
0.6317375169903983 0.20546365550862333 -0.08234035365217096
0.6171794035546014 0.13469541934497897 -0.173641067601352
0.5542941178605503 0.13711974064655408 -0.1742608572179165
0.572946249098166 0.1369401330779425 -0.10072347321690245
0.5855038593754074 0.18555376783842803 -0.11406802498115098
0.5168153193722702 0.09812724118488347 -0.16312917994284248
0.5666627493480547 0.13967852349594523 -0.1269839126940724
0.6364730960196425 0.21182569523347183 -0.1639616351656059
0.6522589055246328 0.18877417838244526 -0.20069805722513934
0.6070018849089962 0.1406214938877639 -0.1814938651165221
0.5876256596202296 0.14767973859262895 -0.1586993400515837
0.5733068217412693 0.1737892957486622 -0.10203435212267209
0.5772630387717612 0.09564513169335953 -0.2222626404123389
0.5850798456730502 0.1556212579045706 -0.14353673315650894
0.4689063154183515 0.566452720372439 0.19388534415409708
0.5357974853838385 0.1503723826181158 -0.12954757472840583
0.5733317881772564 0.14473940821054043 -0.15771754021614015
0.614135396349937 0.13914181194633102 -0.14291209506160385
0.5614607641015823 0.21548146085932274 -0.1165115977663902
0.5516640722129438 0.14824462261330495 -0.11093030567170103
0.5904809707678425 0.11191194497700963 -0.17195475738583355
0.6741520737325288 0.14811393537866024 -0.15662954385513217
0.5863283629968095 0.14525023372647183 -0.16144934976421155
0.5567968047576386 0.07874469838736786 -0.1920400373172697
0.5745284723110728 0.17658462738394576 -0.14361878631376612
0.5106103392462984 0.15880226724900126 -0.10988066891914627
0.5688365795282522 0.1298751740628319 -0.1262678899010723
0.5826049051812987 0.21269066396203584 -0.08908560044585556
0.656284350577323 0.3121954346177631 -0.02976429823718263
0.5928048848334271 0.08750972614923569 -0.251824872336158
0.5005432256866982 0.09482371177372784 -0.19612125828294324
0.6242217725409205 0.1412450813820243 -0.17663869216266903
0.6402099167267892 0.19007371847408194 -0.152791936247894
0.7023815702365539 0.2975210563805888 -0.00811817711340268
0.6175434557665511 0.16057522115748668 -0.06357246049611831
0.5399601001062706 0.02340463793940728 -0.18303714026248485
0.524844451552184 0.08704173285680383 -0.18403059947488032
0.6891531393929995 0.13496202310541605 -0.22968990042963355
0.04066939442743944 0.40461130838249915 0.4258789378666563
0.63860910760053 0.15869020648966625 -0.16474322893046178
0.6571048405405548 0.13719675361151928 -0.12913789307594925
0.563460302672965 0.19651308140306867 -0.0713150097799371
0.5869697872784485 0.1611665151724253 -0.13440575396037957
0.4553843207927173 0.09586471812794173 -0.19761168593936418
0.6057783383293582 0.16687617416253886 -0.1354102323215045
0.6013459288825516 0.18250987826934306 -0.09786063460853711
0.6185375998486791 0.22828636175869121 -0.08021959298153547
0.6173557550613964 0.19280128710828137 -0.11707605097623741
0.599877108054315 0.1420735826829116 -0.10153800280949099
0.6170867613984115 0.14122362059808324 -0.1958116793832403
0.5446258412846134 0.171741066328579 -0.12551059976368606
0.6094844935462618 0.07458712897184228 -0.25145635785452214
0.5819600779274197 0.1283537859478372 -0.15873679824991882
0.5722818763811404 0.19395780557654518 -0.1483889484977965
0.46791913867457424 0.21351416738389162 -0.11684073133574202
0.651527385467702 0.09312207177821108 -0.24998584749076258
0.6246899837724129 0.12907138194749734 -0.15850273320791075
0.6049224846520787 0.11270143094523632 -0.18057558532905205
0.6022883696301307 0.1417565836293022 -0.18041943117142978
0.5727721226653983 0.15651694662450666 -0.1554104985414142
0.5791739588694895 0.0870037694129735 -0.21726508511474663
0.6390488646583918 0.16141382092925483 -0.14786053588414916
0.5943039366333664 0.1865984557909428 -0.1565422738984239
0.5964493974366718 0.15957504934792155 -0.13806373279868467
0.4749709096232664 0.10392566457701946 -0.09837104940800145
0.5982162870904659 0.14062348683506798 -0.19703727866610166
0.517797982790384 0.1443571370461143 -0.1060181835028402
0.5724336559564875 0.1313003163872679 -0.21526720374677666
0.5848539385939802 0.11567549321350157 -0.1625420421385968
0.9054977617687001 0.1704297692782717 -0.1488627732162513
0.554329172819962 0.16671042744276576 -0.15335872906584314
0.5923183053818235 0.14037674014893753 -0.16678592334258724
0.6128269346919808 0.08658407884723829 -0.16546922225958838
0.5813579205857167 0.1525237463247322 -0.12746952154947166
0.5732418750400825 0.1420730552753895 -0.15897454365369867
0.7133820400111119 -0.001695508281812863 -0.407813172600072
0.5769673172946739 0.19173984574615588 -0.15060458513494268
0.7702926429781769 0.1680442057920004 -0.20501065118588713
0.6033547588038033 0.1497400994083904 -0.1560608797599059
0.5889282751028446 0.08133133890828503 -0.206783783285033
0.5780636620343955 0.1908825338226876 -0.08084160122058393
0.5758520119647557 0.06839134856114981 -0.18488650048118416
0.6291587051235439 0.18481546451650388 -0.17857920758385148
0.5814059561623424 0.17735460236372091 -0.1788378058705291
0.6362864369509253 0.2198252979681996 -0.09091435079801613
0.5641636229112947 0.16061839437443837 -0.10438281432519148
0.5917221515690159 0.17282561753354742 -0.11544774979870454
0.5688410500069807 0.09944562992380668 -0.12058197813641414
0.5564542831991588 0.047432591409958036 -0.20481264038002678
0.537962497303397 0.19502271259153758 -0.07821109760894274
0.6056999516544295 0.11231659783017278 -0.19395336037536026
0.6670219645004352 0.1336196466427566 -0.161593410012415
0.47971503790707004 -0.005723325271944191 -0.18551226408669663
0.606075025226616 0.17522126949874917 -0.10881477829227038
0.701205914829572 0.2916223676921703 -0.09136005746557885
0.5033170213485363 0.2655347612396213 -0.09501000112447855
0.6518725737081752 0.18946082347797244 -0.15755388079875843
0.550017846947199 0.12241965557488754 -0.1459498948360647
0.657439139729135 0.11737477261938523 -0.16613313298904586
0.5491632556849311 0.1628223407849987 -0.12714094989681257
0.5463731919212051 0.2206043019831867 -0.06736874746542298
0.5602143713049088 0.18401375137159448 -0.10207813829211432
0.5648439026563921 0.08817218773862123 -0.22798366219674904
0.6639332048538193 0.16045048394805406 -0.1724648486992919
0.6403112171620648 0.14952877135122833 -0.17522084957701622
0.5614862061623569 0.09146806165796306 -0.187792256702636
0.7811407912983128 0.23920168022155508 -0.12407120020947104
0.5542964781370898 0.11449860871432804 -0.15969507749554168
0.5726366472719349 0.10868395629888994 -0.15660187522891533
0.5581816625977183 0.13375458811125895 -0.17268514594849194
0.5662315977629646 0.1133219704113202 -0.16635857285396582
0.4506941117764285 -0.005991435337435291 -0.17634353554836935
0.5829665932709389 0.09828675944436327 -0.1906564982636496
0.6306605922143262 0.15299084881945646 -0.18454440207307243
0.6286814072825422 0.14083073846673244 -0.10666820350434136
0.5019546852098244 0.10449475224994842 -0.2049853650636635
0.6077410508553243 0.15465887188967997 -0.14259709628817063
0.5415682434148152 0.14391224196303654 -0.1719217446309642
0.5611610924713375 0.121466033064479 -0.1452842597394408
0.5163085540529835 0.05709840005934552 -0.18159446728350304
0.6139140211123646 0.14149583406590693 -0.1627486399142981
0.6593864004682359 0.18540928104141585 -0.16637508558801528
0.6154679794657056 0.15875087888377948 -0.14813000048505387
0.6800031120995271 0.18578441172248006 -0.1339447176691806
0.618556488353704 0.1349712561703882 -0.146791973001541
0.15896176458305433 1.1086829979196438 0.6226199852422383
0.5388697626067085 0.1363525727963264 -0.14754197812550274
0.5829641014127276 0.1443888514179008 -0.14760482077866754
0.4977615108700775 0.1542556048278385 -0.09913317143042377
0.5047827755914085 0.14956667471737717 -0.10074344167568938
0.5696773071924071 0.14020232002587818 -0.1625725442172552
0.6260021452005589 0.09458560475339084 -0.1900489777993073
0.5394996452912153 0.10887350421613462 -0.15300291938777377
0.5309092519140677 0.14180488032452843 -0.06436405743571072
0.5647525688640513 0.1269832979124601 -0.15119901543729952
0.5882912329871601 0.12319809685207872 -0.16926309962880737
0.6415191204678194 0.17394154375500648 -0.14959230264497592
0.5544678558882623 0.13824417280865475 -0.1798506109998641
0.44907177450286895 0.36346895264590273 -0.25402749151470516
0.5345670379388139 0.13421244968870383 -0.12691979941638465
0.5399937288951833 0.15211912385416326 -0.1334834054824796
0.5732979763605783 0.13598088405393582 -0.14644617707958218
0.5687596450923849 0.20164536428185897 -0.10829863970650422
0.674438002747209 0.11627856921690238 -0.20121420891661046
0.5909792823327962 0.11786597010754463 -0.181111398308758
0.6247690370118875 0.1717895306919246 -0.13400458935706183
0.5852420039729793 0.14858534857363281 -0.18237453722335317
0.5277183966474581 0.13279611388664136 -0.1507380678502841
0.573513521753398 0.11064420517988083 -0.18250478002343584
0.5108906062999523 0.1317072597371549 -0.10639059725201605
0.7310534886184143 0.18323219968638682 -0.24526586518470594
0.5171277233160936 0.11819252858821017 -0.10352293153570713
0.5474472788879723 0.05308731892581875 -0.19044687466410437
0.6257660067535369 0.08866566864860204 -0.24891110325359023
0.657227888247121 -0.023802746511421446 -0.5542636275396831
0.5644321189215873 0.1437653299266941 -0.1600797458918919
0.5765071108734077 0.14817877863147544 -0.1838312542361109
0.556944519524734 0.18969632337854136 -0.1404637153111139
0.5719685673076071 0.1439614031883707 -0.11794099022495175
0.5138716172907465 0.15896021113915992 -0.15084375005679362
0.48953466737943074 0.13908851693858537 -0.16484456080183918
0.5153909296190022 0.12710612453695092 -0.16130860185566576
0.3756916556854577 0.05484869716438823 -0.13935313834409158
0.5028690801380691 0.09363675224953738 -0.17985462257971108
0.5789860999969392 0.18306264483416612 -0.1019828238803484
0.36790466567401836 0.21388066133738448 -0.030523618534573416
0.4534156344350464 0.08149507610851003 -0.1104550987001005
0.5760332819685487 0.1582074872081165 -0.15292728945354384
0.5740110935455078 0.08184903456377413 -0.18331963796384798
0.6472954962898712 0.13335097984024458 0.009138347144130421
0.5033109792135377 0.10690664523527005 -0.06712495577320965
0.6576438560673523 0.1729790545512344 -0.1549962561470295
0.5981454785692222 0.14999804173875475 -0.14963105012617461
0.530733807128712 0.15409239047997403 -0.12556916852358313
0.6446259441438684 0.31576375153521496 -0.07847998494273156
0.6749400378515844 0.06808066464041929 -0.21147510015018156
0.556459556912472 0.1455162711286988 -0.1262359015797756
0.56696142633119 0.20557004304926352 -0.11899152337804253
0.6104003726719185 0.06837358793995918 -0.14968913130832107
0.5751656689807874 0.18377901159820453 -0.11726453598683406
0.5876779665859146 0.16736933383187136 -0.1318233365186643
0.5881770524267154 0.15425630406542723 -0.16396841520173666
0.690434589026026 0.1671792327285715 -0.19030325178940188
0.558334099240156 0.1905855419239515 -0.08406309218563024
0.5667591520859787 0.17502205448792552 -0.10823765118763617
0.5625677562718181 0.15692812055786476 -0.09805029041351077
0.4778011255707497 0.1529928016651212 -0.18380100893915596
0.5051649121462134 0.15082803113580212 -0.1353504528439089
0.5655453993179975 0.06167807889912069 -0.18899145975473175
0.6380742880321719 0.1375444263246095 -0.17635853623144726
0.6578981836817093 0.1527401996659279 -0.16545068694216525
0.5987992450204729 0.19248955995331585 -0.1305084473984266
0.672206058217995 0.08506265289665293 -0.1753773138453596
0.6367476018072153 0.21182631655074147 -0.10565454518965112
0.5961115382215354 0.13356644430734832 -0.14532566317083706
0.6608629560381019 0.41243028980332497 -0.1303048339377142
0.6648648218430964 0.08959177367523807 -0.23668306872320954
0.5834476237889419 0.17405586591719668 -0.13244083284456565
0.5682757586662888 0.11968650120384439 -0.1794598461786734
0.5704063800511534 0.16149671366595442 -0.11964610101864537
0.6180574610219765 0.15318627643243587 -0.1457840885165922
0.6215197685944389 0.14191438056838024 -0.18567319034590923
0.5916040095900286 0.1807489502989057 -0.11909518276507924
0.6728354467956166 0.11696772097998576 -0.07427081796987522
0.5641007481700342 0.1152585963617554 -0.11165826359965081
0.5727504012319997 0.10745251575691839 -0.17947828865356996
0.6078364688298876 0.10245298097846955 -0.21284768714528468
0.5960287903300809 0.148036909113074 -0.14163617217533897
0.6011746607373425 0.15116897301632548 -0.14864996853509638
0.5518453159728551 0.19445237949435068 -0.1898514022235247
0.5087184556707314 0.256700866362479 -0.05457708192798805
0.5975782978448194 0.19588660942616798 -0.06904980762809032
0.5789525172120449 0.11089621683633766 -0.24231105790090623
0.5210375099525493 0.18092698176070598 -0.03886110141633026
0.5086056376712662 0.16892678101190484 -0.14010031299872594
0.5541263943104582 0.14693148370909626 -0.11628577707588761
0.7152280963414768 0.34176955413200005 -0.07465944910299527
0.5614588046368425 0.14722757805742503 -0.13774896990256025
0.597788518201753 0.13768747878647503 -0.15793024265201439
0.5493750225897998 0.12601578880340014 -0.08798044876297695
0.5999275656509724 0.14625014673418946 -0.19439841675898606
0.5249739464458969 0.14280066114037027 -0.10613112491935794
0.5964986226955773 0.10412936644017634 -0.18624262314293105
0.9912172109018513 0.24357079494541267 -0.4220899996445837
0.5589616796668935 0.11669010789988477 -0.12274243268231544
0.5970935522804552 0.15672143687589823 -0.20054052579703807
0.6588348498137719 0.07921405418585437 -0.2764242893481139
0.6019015156981453 0.1474540273116247 -0.16268821154548618
0.5964115064019779 0.19263838530486055 -0.04326987293049456
0.6179198753017516 0.11727194585928657 -0.1818764217370017
0.5636606477590789 0.13506886524888273 -0.13490458733755872
0.6635067646935369 0.19961928962538877 -0.14111881671712467
0.5348172636527408 0.19762895962489324 -0.04240812327051913
0.5729606420707825 0.10279621834415309 -0.192228603486285
0.5233577161246075 0.11108664281501035 -0.1544381949126432
0.6189484537666345 0.12385743821192818 -0.1948016697535877
0.6057593804577408 0.14554290255902913 -0.18661486785200054
0.5812849469506176 0.12843931630376915 -0.16753532959310746
0.5957616902061318 0.0954574547152589 -0.15459337642229798
0.5701012540805692 0.0875240182383834 -0.20891544574831755
0.6349332626913622 0.19372653938253848 -0.12822036187378671
0.6505996667395522 0.17599486073522996 -0.12547968937835208
0.48935154288925276 0.13118540810276613 -0.1124936230225444
0.6836043953829289 0.12632829315474225 -0.18727130472760223
0.6309520400569824 0.1855906516880168 -0.13334462763864963
0.5186521653913871 0.17305823118981323 -0.11604333142028622
0.5700675530288635 0.13710446151176825 -0.21297509614896626
0.516058259619868 0.22742297396715117 -0.008327774858514658
0.6126220139526879 0.1544124620618419 -0.18888010471641792
0.5747489447970793 0.21767208331000631 -0.34918002590384845
0.6307177989772299 0.13464596549482621 -0.12253401203744829
0.6666111846712823 0.14911469056033866 -0.16609618850989705
0.6267239079851663 0.20050862189367535 -0.08997600301617581
0.5801677875214892 0.1433017034551085 -0.13796930966785226
0.5414964190471352 0.14385494956796663 0.08190483628806078
0.46854031637238336 0.1569351192028705 -0.0837433852570939
0.5086403003578681 0.06096362363601315 -0.22172125125862863
0.5150208399962537 0.1324808510261306 -0.050847672275665445
0.6092706793867961 0.09471339170897863 -0.19021749551200173
0.5605297344327909 0.21856446306412636 -0.03640407153147862
0.572081871753781 0.14095622686302534 -0.1029077763279247
0.509517766359096 0.14628450316757835 -0.1407465234217682
0.508715314528331 0.1606396632871565 -0.09495457591913237
0.5262385902780551 0.18090073130055373 -0.1385698280081158
0.6096836702729149 0.12176375646544102 -0.18445193694847717
0.5481109050409998 0.1434182547234002 -0.11916047370593219
0.6596839497821207 0.1745944915321047 -0.2260654972760392
0.5762090748182231 0.17335279674358617 -0.1243005597445972
0.5410312699855524 0.15610998795710884 -0.1141500846946144
0.6651326281447894 0.18832700582746043 -0.17822979328275323
0.5731428906282474 0.18679918814794405 -0.07192203895706939
0.5259170161975675 0.1343121404134422 -0.09632266552949886
0.597898165376364 0.16062798105963338 -0.1297134451502302
0.6328959577050597 0.16675408573117068 -0.19772337605900248
0.6706513975460524 0.06074990145553727 -0.2068108607820136
0.4465075470927218 0.0440152157572129 -0.2669981701526183
0.5576891798960588 0.1486539659740913 -0.13120160912609435
0.5745226383292135 0.15469077847278356 -0.14744016724552012
0.6032955999388889 0.18169779817972653 -0.11543283302580676
0.5839152147752316 0.12754961867000247 -0.1319477871151662
0.5995483201812988 0.16571518366288274 -0.13496185527952775
0.551122358220411 0.12717069451215934 -0.19338951813270455
0.6472781652447992 0.18660694022426583 -0.11503200064203156
0.541971021956769 0.13033206954922605 -0.1531027087071095
0.7057973465991552 0.11362677573342239 -0.22249872558916195
0.5958788371357571 0.0838703175053297 -0.18668563244784764
0.47924541785857855 0.14038655342993422 -0.1351805373483046
0.5838918784733806 0.13310785246120815 -0.19395526998673063
0.5433523600557066 0.15942373493044215 -0.10907169107980508
0.5642544913702494 0.12359189919634161 -0.14873850060038762
0.5992148462397182 0.14883572455482863 -0.13319544351460877
0.5731749522218763 0.13700141695886714 -0.13856445806175088
0.5485772339627744 0.09009174539473008 -0.190083606500707
0.4803339422044104 0.0805917764209596 -0.14987829764382354
0.6611562887047029 0.18226040249666653 -0.13288432553159168
0.5817276516453518 0.21618496570411594 -0.1425841082059094
0.6138247005250719 0.15993955905207713 -0.1677595964125942
0.5777792186955679 0.1318137544968323 -0.15460943135806815
0.5451207069402955 0.17365340597891077 -0.1465685913074708
0.5725345061817393 0.12666993936311144 -0.12768821126744
0.5394111470684209 0.14518146692707035 -0.11495275203509436
0.551414570067223 0.14977022489033232 -0.13100374713982887
0.5762936937563552 0.16831040630896155 -0.14656766306941904
0.6443704296651873 0.13931684989563564 -0.20208635804013397
0.6364850121594685 0.055449588697200625 -0.25862747257926344
0.6849180637529741 0.20443540051776665 -0.09154897518257599
0.5892547204989143 0.11937072090421452 -0.1965634633370712
0.5681689158016212 0.17448625688213326 -0.12606006206101483
0.5641159504731803 0.16475824245486592 -0.10444401469311515
0.63560935387315 0.21053386966001142 -0.13351549463183687
0.5606411310764514 0.1354977931860759 -0.1478352835157466
0.5735372059456978 0.1669197655855328 -0.12843795024920723
0.544916585706261 0.19798396026121168 -0.10419820619378584
0.5203122295949498 0.1345836925977153 -0.13139166816822012
0.5716899714383175 0.13630680100033032 -0.14324756065485644
0.5552156335434972 0.1413208143595881 -0.10005388335062548
0.5582300079960447 0.1555471325364124 -0.14938471306859924
0.5757034123848115 0.16473926617959478 -0.14411336236088346
0.5611663471654964 0.1302943566801389 -0.14047336521224452
0.6232226694248055 0.1631328066279707 -0.13287427563969345
0.5197361632112489 0.13541444495450605 -0.1208089169485902
0.5570714340859126 0.13282533446241018 -0.13106847713584102
0.5703108679619646 0.15043515870712554 -0.14651556228741924
0.6819608523618541 0.15020578154020825 -0.2018714739375298
0.5736215399438009 0.1171944963424636 -0.1623656089001031
0.5928773853499649 0.10101590855116171 -0.1549131994919435
0.5677185650515213 0.1388898732229933 -0.144449111005855
0.5716756863972847 0.12036769761007804 -0.14914973572967938
0.5879949996171376 0.1433609807126146 -0.1425841250282076
0.5773873494074167 0.17852487410614515 -0.11126354913082537
0.5657065717176124 0.15667456647767608 -0.12318983696124519
0.5791288739025049 0.15246324112715115 -0.13395895564786997
0.5803031963541514 0.1553287582055134 -0.1387298938518029
0.608220504694529 0.2243523317049636 -0.08539229398385828
0.6490629764754914 0.09830898028673118 -0.20865677830099116
0.631476580465332 0.10483655680101833 -0.19849846829174567
0.5299294775180812 -0.1224119426140362 -0.13589926506912775
0.5422648046271092 0.1120747695127875 -0.14124506330941244
0.5774185952642341 0.09715414408374556 -0.14515659526682612
0.5344972776656078 0.10024166622403641 -0.24485829896778455
0.5391491540627413 0.08810891372296226 -0.19023350850409315
0.5913326598831219 0.19346874061588437 -0.10728447525139018
0.40751628355170055 0.08271479415671479 -0.15802591102973906
0.5632008640003932 0.20926317845942322 -0.047336481920751794
0.515654794927741 0.1098522848640755 -0.18157351694642898
0.5733583804675249 0.16245477927439822 -0.11261298924927132
0.5908086656009601 0.14703212878656302 -0.1471542781649191
0.6530370848478384 0.21259414902398532 -0.13965834909595287
0.5664921272032473 0.12942807936400413 -0.1466980534067659
0.5614152908319738 0.2165242558776157 -0.10373345080810736
0.5503327643797462 0.177009367819835 -0.10033477647422728
0.6522357608422737 0.17685406984257668 -0.12329836927511906
0.5570419848384631 0.1776314730808508 -0.13040363571278135
0.4963109205925349 -0.01501071555721012 -0.20632611319066996
0.5735794799856109 0.13875179738823817 -0.16960594180892485
0.602373266316917 0.18656588924635287 -0.07662594487499064
0.6445950482070373 0.15955755874507815 -0.16298202880463464
0.5857409529292852 0.11270281763661671 -0.20744266987671267
0.6502150323569253 0.22268928757172546 0.011435812368517873
0.6250542034070179 0.12803864366756557 -0.20242681693650866
0.571562373421628 0.15673179325476383 -0.13136130953029124
0.6644677214005128 0.17379104402179735 -0.17846718370228132
0.5787842947846684 0.13406244954589397 -0.16325468038678537
0.5240503241254402 0.052274948911716024 -0.1839161018712332
0.5660335990300638 0.138868451078352 -0.13844245716387604
0.6018821833512362 0.1568936391641813 -0.15573839808229195
0.5599359235408201 0.22641557502599596 -0.008223060485619271
0.664243320751865 -0.014326104260064199 0.09426414806455341
0.6274969549121607 0.1247553312626053 -0.22098130547325923
0.59469127697011 0.18451419700279814 -0.13748120443392509
0.8042884554130723 0.2458525878512745 -0.07260484117028909
0.5465004002676608 0.1701110933873622 -0.08626181813318112
0.8323134530996015 0.23162793244097202 -0.08286276176281149
0.5324139206234406 0.18656746902324528 -0.06011897825268875
0.6976836047071089 0.19719139741445701 -0.15189738196880853
0.07494152294466971 0.4411837782879786 0.026498114084319013
0.6126485463522613 0.11099382224064414 -0.1732354653082382
0.5488345713268501 0.0898720925521701 -0.18348654597258474
0.5582948030724992 0.13920897418273626 -0.15705875118482027
0.656140973859749 0.1341603309888626 -0.1771117145779897
0.5662544979528406 0.16532187645596252 -0.1239510483167976
0.5151582054011641 0.11847774934565791 -0.11854387999267146
0.5783511139998581 0.11511489631919858 -0.1586693690299228
0.645393246633887 0.2037506816034096 -0.11524449929268599
0.5865035727985202 0.06413775945317468 -0.23481909206267915
0.51735812494789 0.09317158174346218 -0.14169526854453807
0.552092969462862 0.13054298573312906 -0.2036297634327866
0.6440068849658047 0.16057792606342502 -0.1429688895048571
0.4706528581785818 0.1037588533318683 -0.12241459306332558
0.47711123203096406 0.13103644385012103 -0.4962485727591286
0.7034150040757225 0.13342816195728346 -0.2127198384860094
0.5726082493763869 0.02646288826433363 -0.20668392566605576
-0.47083737251546154 -0.5252137649225261 -0.5767133198680767
0.6266466164763074 0.08913512495558962 -0.23025036120159825
0.6614619206253849 0.2607920780794899 -0.15525799637856608
0.47953921004015854 0.15325510964967748 -0.026495303010932503
0.6159224634326961 0.1545352907744757 -0.12685094487744664
0.5699339812383499 0.17621538494299216 -0.13037334223500352
0.5590670074525264 0.1836436122227525 -0.10844741220373066
0.6413217230250865 0.13335355404851157 -0.16169319212943378
0.5596474395066906 0.08825966132117458 -0.18873189194502515
0.599768340036448 0.13912045029276499 -0.13407695542139209
0.6057012883469923 0.16503285504506948 -0.12850759021398517
0.5688679202340552 0.15898758336305718 -0.14174761341044473
0.6168013298442361 0.11952157911765937 -0.14894390141986946
0.5238201807310219 0.09601182249920726 -0.15495328791109841
0.5163302079909045 0.10284866793026026 -0.14647110870532742
0.4853083444184563 0.1586932899289195 -0.07783063811189095
0.5788764859513833 0.17336185485298472 -0.1362775827662972
0.5838860358007594 0.09139500149366597 -0.19466718472287425
0.6056153013065995 0.1307849483713852 -0.15679828399333928
0.5620909015533186 0.07418271810611543 -0.1698212311790428
0.5691723428754187 0.15561861468017923 -0.14043028411705905
0.5458886614233478 0.0815034163084789 -0.1768786681081167
0.603092076781806 0.19235235025136888 -0.1058403193470383
0.5252948238047281 0.13358203027007676 -0.22277866315602068
0.5934890964198729 0.0775331211774386 -0.20112510497176572
0.5217714266606919 0.1333327111412359 -0.10241805850097307
0.5137934339764882 -0.4099332282030872 -0.7597739362158507
0.5235018176966406 0.12002667387911004 -0.11503888933569328
0.5749859038507736 0.1725680253394586 -0.12710314644502319
0.5517343825995482 0.07467983753650742 -0.20310482955699172
0.5592788992948954 0.13322826993670844 -0.09581348694050007
0.6446411413664919 0.14630396998164485 -0.17451673616190533
0.46525879385964686 0.11187136615252768 -0.18229823181178517
0.6451185630095893 0.18888821368153685 -0.08226605930158826
0.5168928937756334 0.1448083392740216 -0.13690601040116235
0.5399112864685094 0.09602707119078957 -0.176459908067244
0.5901181140641683 0.12697026952228896 -0.1737209640687638
0.5800200061744505 0.15047496096774182 -0.1376958383757767
0.5600692437192549 0.11460754583166022 -0.16883588988031306
0.6572608756757461 0.15362189660285708 -0.12252755093297196
0.5888738765561357 0.17088991394652453 -0.07788347010509256
0.5731095556791672 0.15172189481688747 -0.14564336718160575
0.6696890942528739 0.1830962698299743 -0.16139842123223502
0.500945139716535 0.12595770508998783 -0.2239670246665355
0.623390483268679 0.09774234342846455 -0.18986561463114526
0.6236881318077536 0.17928762708581303 -0.0983225400454728
0.6096964994231797 0.10340557606468792 -0.14641918052490155
0.6053631603515441 0.14568814187209966 -0.13959572407841847
0.5304546400974459 0.08782411405685764 -0.08929928410071852
0.5303132324170434 0.14442982471808818 -0.13868674398230496
0.49148390751956583 0.1804210263451438 -0.18344110747983677
0.603264982896718 0.1379175587138235 -0.17102182269076138
0.6406247917684169 0.13362415910860648 -0.17490134358300224
0.6337521043503358 0.21412072650666403 -0.1770167114027572
0.6462946087884234 0.11648382951705116 -0.16360174232565328
0.6192643241207065 0.18234006846061845 -0.10111192131410007
0.5194214805975719 0.1488459558723605 -0.12330497975389676
0.5751884711381337 0.1109286256923383 -0.0748566439336571
0.5563250454942761 0.14497139705133577 -0.10195100554321357
0.575752719382919 0.16167691786529303 -0.11294511904515048
0.5140796846568492 0.15252810342155954 -0.3308623901867236
0.6500385558443895 0.1788209074714473 -0.16738204611428387
0.5598775496927146 0.13237897642635232 -0.18278307296975527
0.5525504024353438 0.11830655604384788 -0.11665760289946547
0.5692996127147438 0.13399247791133462 -0.19333257145194693
0.6395052084113217 0.13735777883873368 -0.14648062832785058
0.5045472618249249 0.06527492205199792 -0.1360042075097283
0.5402540678188785 0.11200439215413382 -0.15047680462768653
0.6541487063702078 0.16086610744447682 -0.17297820542879094
0.6382833878117395 0.12379079817138461 -0.16246512408744707
0.611382927516928 0.19396427835836505 -0.17741840629102512
0.6357757430008064 0.1877277075328152 -0.16440513963874537
0.5148546420258953 0.15122274667641022 -0.14117288354003676
0.6521492454230469 0.18096710724235265 -0.1612250905064343
0.5850351574256081 0.12527238158224918 -0.14142289231463678
0.6216424014503303 0.22519228553899495 -0.11021141748057062
0.6007201277929681 0.1750283009166509 -0.11887288255258
0.5878402430199117 0.1377876537244731 -0.13994268181889424
0.5265388295711659 0.21093675804407042 -0.09863019612632229
0.608276999305744 0.14056786390789 -0.170524318341279
0.5407349750165906 0.2156384874746209 -0.061004089139004236
0.5664594188242091 0.135560501566502 -0.162131355199989
0.5810641964861389 0.130091937460179 -0.1572074429811039
0.6570470544466502 0.11275258670904975 -0.2015383603589953
0.5630132516938033 0.13288159267926858 -0.15515693409619757
0.5887263982800164 0.17234097428351447 -0.13654640050114608
0.612883598599737 0.12990048257346132 -0.21611686915139217
0.7004268438971479 0.12220037497992564 -0.10031272304033223
0.640093356727661 0.161739673520799 -0.14352293039129904
0.6302025950160015 0.2202916175907461 -0.1678674395318751
0.6283447312988528 0.10605069716064008 -0.186269131600028
0.5372692396380359 0.13930529560347793 -0.10006779551622458
0.5236125455548546 0.11422782712699586 -0.1044039187684973
0.6452446171278865 0.24199105795592857 -0.07260174081332593
0.6187267754028483 0.103049820184836 -0.17524822873863855
0.5522167802026843 0.16734808668473988 -0.12389295408129897
0.5797083024177425 0.19995200953690073 -0.06705404498433154
0.5882441229363451 0.17757787355903076 -0.18656884718970446
0.5272852820449714 0.1714282761680863 -0.13026793017988325
0.592566739073277 0.13618789291820121 -0.2370221247566633
0.6300553372054907 0.1490859228797632 -0.18007034158731017
0.6247542904148702 0.12019333221671502 -0.19668302770747914
0.6278041173708004 0.01496289588453692 -0.2939022834247851
0.5744422650746941 0.31405337213202245 -0.14302983523819535
0.5538033557240709 0.1537269592630537 -0.12369471111321673
0.5422492327387687 0.1474037354283979 -0.1447531537262421
0.5400332009710382 0.041966964853770605 -0.19517109112410935
0.5753502847598497 0.18545634105477404 -0.04081478723156806
0.6075667382075949 0.17579737237514337 -0.12251496397857409
0.6097678403159961 0.17280772502692798 -0.13403120598886176
0.5823186909102134 0.10954988368359864 -0.13227242313004695
0.5715544006664715 0.029482954410781304 -0.2821187507932166
0.5640515835898583 0.11724976105280405 -0.15274296523270436
0.5013517080920735 0.14419598660347788 -0.15468015874094476
0.6033612059275129 0.09999690826370511 -0.23596638370221967
0.5274423866152915 0.1331978773009581 -0.06376421867111048
0.6513939108566831 0.37902429169044183 -0.13822537791881473
0.5923111008349622 0.14740946443711778 -0.17640636448663827
0.5834038716116936 0.20088901234275625 -0.09234982768376199
0.5302394572274522 0.11409313073666283 -0.11493611421778382
0.6132726709278842 0.11352902595365322 -0.08924877941507248
0.5630974351507945 0.18023637244559154 -0.12417106618079288
0.5206383682653666 0.13846171346125402 -0.11331857676674417
0.5613090708963995 0.16880218979301276 -0.11684556391423939
0.5812970150258678 0.1511382673429864 -0.11832885745573662
0.5966170344611612 0.15024727814599714 -0.19063720429761588
0.6138417287990166 0.13619345955311246 -0.24207908708282844
0.33502877562452227 0.10221501224032181 -0.18346958570589322
0.5705581611311885 0.1392352352480941 -0.15309883722460427
0.5478708210855814 0.10349879332413536 -0.18867028803671815
0.5239970698144134 0.016732545096090234 -0.23352774503015894
0.5933943296880955 0.13610560212643463 -0.1724919597075143
0.5737258183579712 0.1493163080528035 -0.14618383785290234
0.5208398643253531 0.09556046752953762 -0.15882246916072518
0.5703534034004036 0.17351907251332932 -0.12967842309319622
0.5615869079964 0.16760214798374307 -0.11416978439336845
0.46112727450110924 0.11974256348892709 -0.15902782025310103
0.551756771664742 0.14457297916888479 -0.1326851230389252
0.6531541842813908 0.19254061013285195 -0.09213567294267477
0.6489110743639088 0.1301597766788518 -0.17544543127908696
0.38905124873370767 0.18026183723820566 -0.06054065872999104
0.45784558473368975 0.8791218510420578 -0.37467148552667595
0.591841069990366 0.16217537600921617 -0.16215968075647424
0.48690396917750434 0.1984651777165709 -0.09591126006600348
0.5677433833300967 0.1327041746670119 -0.15380250602413525
0.6254164265156703 0.006982176377775318 -0.014573962275591157
0.5579277610893598 0.13230456556274817 -0.14301501013204643
0.6479387498157223 0.11683432883842215 -0.2536022535049369
0.5178895399808141 0.096331044839431 -0.13786115670092158
0.618572241123502 0.12583913804296287 -0.15116616841228847
0.7361115019882334 0.14395537299132855 -0.18449252770085423
0.6065795734290589 0.11850706604150218 -0.17542886491250442
0.6081437190465948 0.1716476525977555 -0.14058799935338584
0.6784529481697064 0.24496455068344858 -0.07234419138936232
0.5427361912731214 0.19866075182794418 -0.07863526344647198
0.6260600522467712 0.1211738081924949 -0.1583788411902276
0.5717616515263586 0.13081741218172738 -0.16173969772921737
0.578246890198983 0.10819272616912201 -0.18825293367817153
0.5964179906176383 0.15496405386926426 -0.15953317007651435
0.5770295919240027 0.14448604916469776 -0.15510230693922722
0.6287463558236794 0.15760792058415518 -0.1465201973528849
0.9028051977217046 0.0752287379198151 -0.41367323500526254
0.5431554480153977 0.10016827140876217 -0.13328733961654393
0.6012342122714784 0.17748175455442095 -0.12451352811322636
0.5528930848672928 0.19077864172936643 -0.09729359905040269
0.59908515351745 0.08852268640201544 -0.22149990424662747
0.633798890501879 0.15811106869757907 -0.2045375890125456
0.7040913136706166 0.07150770070064993 -0.02834623404808667
0.5392860239849568 0.15884462114350129 -0.10924503426767274
0.5519679456236588 0.10870035960238056 -0.1568614569464728
0.5569296505770751 0.1526452146683539 -0.18729611561929005
0.4976681398197371 0.18695685003939388 -0.08191677176398571
0.529086303955367 0.16024765534768903 -0.11547244000323076
0.5917638389782383 0.14139191744983748 -0.1401795187752839
0.5157377365092515 0.07801485559303956 -0.11795272186279249
0.6258920479658627 0.15774851669651468 -0.1419121983161915
0.5104801294068011 0.15269789232189623 -0.10354544005414823
0.5873509595877948 0.1256029733938675 -0.13909296534635018
0.6131655370975864 0.0811876133060423 -0.2608565008017081
