# .PCD v0.7 - Point Cloud Data file format
VERSION .7
FIELDS x y z
SIZE 4 4 4 
TYPE F F F 
COUNT 1 1 1 
WIDTH 804
HEIGHT 1 
VIEWPOINT 0 0 0 1 0 0 0 
POINTS 804
DATA ascii 
0.6629890614673997 0.13276960524325432 -0.1768815749976369
0.6269648468171738 0.1547116058986262 -0.131729296904453
0.550354917802764 0.12008552803857242 -0.11727067545970726
0.5887569275554085 0.14140549127768054 -0.19266483058329698
0.5652936806168753 0.27542015843843615 -0.03712666903243189
0.7205820888210042 0.411475856608547 -0.13865389298366892
0.5512447787797043 0.17526851822830736 -0.09205131311203729
0.5812547691459002 0.192882071236113 -0.13431431393183857
0.5759619129226934 0.1886268417204633 -0.1284804353074378
0.5624578248484369 0.12505185065163005 -0.14000179758427578
0.59589424184081 0.16230936401933604 -0.1310452903824597
0.4812555088506514 0.096297064683597 -0.13194428731210905
0.5169852367645404 0.11145076861981806 -0.1338810840839102
0.6786007183230396 0.3076624186742549 -0.080150900589544
0.5133049582504015 0.14634885784596463 -0.08861247282959539
0.578518718592747 0.271993360972715 -0.05948433850427648
0.6153118937606052 0.12491177628470496 -0.22677428874315808
0.5341517214205567 0.15973173622720083 -0.08728207437961544
0.6421688169704538 0.1471105646192541 -0.15240675111458302
0.5513493302730978 0.15422079011020173 -0.1748276806609539
0.5829565379160613 0.17555862984414716 -0.16786355361359995
0.5607257146309621 0.16147487768188284 -0.13371414377959923
0.5585445078249904 0.17448065245642397 -0.1223280342821198
0.6956621751425445 0.12452322566218754 -0.1374456143374374
0.5768623965512063 0.09222554466006727 -0.18636247459200206
0.7028536033390651 0.26177596503916334 -0.14244746260175134
0.5928973218542808 0.11985561627869856 -0.14832173763608125
0.6272229080256722 0.23840999781714345 -0.10860268523511252
0.704962696771247 0.17867446635625583 -0.18641804126370687
0.6368735627327169 0.1913727078510874 -0.10277670910585357
0.5942733781953677 0.1516628977821597 -0.13436986602359013
0.5797823129924922 0.14762342055479394 -0.1574607615847725
0.5038726177747179 -0.089564676999629 -0.3184393250540438
0.599971029221166 0.1497059120841584 -0.15130058785450728
0.6209455707624585 0.1984529061603837 -0.0953414250788569
0.5661468671305698 0.14687170301121455 -0.10853234235510456
0.7709552316311488 0.2553594510311257 -0.28184406363489245
0.5506898242977059 0.028062246203745644 -0.2513942315335953
0.5460333252816554 0.15623382545518893 -0.11887049284345608
0.5385781630817945 0.023739353414242714 -0.20667397014273092
0.6715673532391833 0.14140559953045795 -0.1505177335491652
0.5915803781001472 0.10946467216913902 -0.12579482569651645
0.5030133276148803 0.15209192142469874 -0.10898922693050395
0.49355752869254843 0.15454663808330338 -0.07563810840501617
0.5782283225855878 0.07883853914080419 -0.20773059818441197
0.5689826247608778 0.11743648351438196 -0.19028672896898513
0.5727826824769977 0.1482386074991382 -0.1296247514014368
0.5329307905491021 0.03451610060920984 -0.19117743046061264
0.4744096023330542 0.03931336965624155 -0.20437609661013312
0.6594619982750913 0.15703128919122378 -0.1648328395626777
0.5852032229390574 0.13013458397577438 -0.13901385842679304
0.5380898562185195 0.11355460681051 -0.145256997307726
0.6557777460610339 0.17445789237606846 -0.1379366131070583
0.7658132275058449 0.10736599050997597 -0.27856506597632347
0.5956724828353543 0.14765900268724863 -0.12526284995691128
0.5729038237439283 0.14391860394201217 -0.12231945383462062
0.4935242253501002 0.10681949431719318 -0.22959586455505132
0.5621781836598245 0.1261922459803202 -0.11903793942326502
0.5829049961800763 0.14630590084453843 -0.15133361812094392
0.573580047196188 0.14505136020312648 -0.14559657476605992
0.6278541182371526 0.1510734715913884 -0.15104392654214394
0.7786102625638875 0.21692695698067155 -0.22565177837172712
0.56899589128858 0.147133994476917 -0.14591831668857935
0.5628796815814923 0.16605567497566653 -0.12970480511705773
0.6162871875012002 0.13447278130351492 -0.1967276303328589
0.5824128111719205 0.20484720105824294 -0.09219775027848698
0.6042115193732229 0.17837503013831224 -0.13596028180907638
0.5670615771602883 0.20683351211712875 -0.09045444922992374
0.8040672410866705 0.2460566752296245 -0.06529978357575317
0.571068121341824 0.1709307761206844 -0.0821724643899131
0.5736674107374142 0.15745698442879075 -0.13948073613974543
0.6290787464487977 0.16242047890190747 -0.11733690677266395
0.5162203139693702 0.0854752380932382 -0.18031495981441026
0.5988650430118696 0.12309657683198338 -0.19364031062461606
0.5814340463524417 0.13663099014755176 -0.136505386447638
0.5957791646769977 0.09780178933428374 -0.21035791100706547
0.4830563079171668 0.1661263248263083 -0.05979978532677421
0.5505645488500619 0.13148431771335822 -0.1398368301532713
0.6557603360602116 0.1401099858312591 -0.18031797404833583
0.555444631734133 0.17529686876719097 -0.13606265972508425
0.6828301716493002 0.028376287083574425 -0.18606207437130706
0.5544839269654744 0.1647247443870583 -0.1585314858874085
0.5511919860051648 0.1289250194161582 -0.11919450736186832
0.4681843035618698 0.05519437790474058 -0.18700690956303845
0.5762515780963184 0.08707975156642078 -0.18449293871404393
0.6390522733400132 0.19974296980197437 -0.1268194695507816
0.6415738000411864 0.37819982935121743 -0.014034026169824187
0.4925013700437404 0.1799096685655286 -0.16934642369790254
0.5827668512103941 0.1467934896539873 -0.13170079268954282
0.6304343141359396 0.20289148253226585 -0.11054054757718745
0.5430794277391584 0.12850396318896173 -0.1489756540097602
0.511341917935809 0.05504308600248464 -0.2266967662611563
0.5709996418524526 0.13797783645037498 -0.1363743937152293
0.5641913375566219 0.16231336703566512 -0.11823036586665125
0.2581262531203805 0.10239459477517698 -0.17883220577697045
0.5772785087529542 0.11137989712460694 -0.16337965068488813
0.6058364681398132 0.19273831482485093 -0.12528631308593674
0.5842387024430309 0.18157312596704855 -0.15547209123488415
0.6245870508278557 0.15108629773993698 -0.1390145383849557
0.5549955711452412 0.12652600625776245 -0.17598614732254703
0.583928575601135 0.16509586397532416 -0.1373509797639656
0.5589042814051908 0.16897462197928803 -0.0978571620953943
0.5611074756579058 0.12750118337322647 -0.15388971035631016
0.6066845939932932 0.12200833758726048 -0.19236558846080243
0.43615993328913305 0.16842746929364694 -0.14489636143966322
0.6457536278261102 0.2026248138774065 -0.13449740623174478
0.5862503514370303 0.14441748856486925 -0.18999663941163192
0.6193915396903833 0.21980602736559263 -0.12639691722510804
0.6435227795247869 0.13842573921846224 -0.17252440239850841
0.6938439553132696 0.14211385544928135 -0.14970393585811337
0.5080156480815674 0.14215496381478943 -0.1649881880869657
0.4921674597933645 0.16173805442022626 -0.09491384782202772
0.5908120501733976 0.15616186100902496 -0.1553870563416524
0.5483363121460343 0.13936704526940957 -0.13562312395892206
0.6007048177402083 0.17136052352455522 -0.14857581488035976
0.6281342556492717 0.1678740397005356 -0.09720621055647882
0.5588549183174933 0.11850035451266194 -0.1689406057090963
0.5631985155264232 0.1333619829474344 -0.14589359733190577
0.6019685711082445 0.05141172039250819 -0.19460171764505674
0.5652891911616535 0.10695443692137019 -0.1747754347181001
0.5704591968397921 0.13913805679959523 -0.1360547764072777
0.718392260427521 0.1218647146757803 -0.15730228205697472
0.6191869525485885 0.08671903839081097 -0.19797059026853958
0.5979418229062645 0.22400901291825903 -0.12331796668790673
0.5684905829645857 0.1532627015511423 -0.16935173304904083
0.46405410907827616 0.11984643363661007 -0.10997945724334102
0.5935398199252546 0.11688365872632289 -0.16315619082924115
0.5896132639106355 0.21405046613818968 -0.12757059615807975
0.6232532680816547 0.07977930411934153 -0.3491086742665601
0.5206426754615592 0.09880135586070082 -0.19021582920601077
0.5497461391168343 0.16866588533011395 -0.11435546013245812
0.5170335373982482 0.14762944658966148 -0.10106065623520522
0.49526219899172474 0.10272946442941588 -0.20543339059000232
0.5864819138151489 0.10947100888930095 -0.14600178067182412
0.586438748971986 0.09357281007132201 -0.16658114549466063
0.5985553173722451 0.07898478929610064 -0.2307630213532832
0.5806709903568361 0.14300221201952468 -0.13217701792926562
0.5690331509226922 0.09657460182768318 -0.15619910304583584
0.5423678073543385 0.11852406849044428 -0.14289296979170274
0.6185446623607476 0.14849699273452188 -0.1747059079769855
0.5722548564547765 0.058191409993412435 -0.2568495546067311
0.5298049407829524 0.08841935556489489 -0.1400267053787303
0.5649301268183535 0.16045300415527208 -0.09293566123628239
0.43459634558833216 0.11678377017869934 -0.09323343696404152
0.5246857194447756 0.15025955528773238 -0.12363735416164445
0.49679347081168146 0.14981387426036008 -0.10153176963085286
0.5698572056729176 0.10324145065686707 -0.1900491278416041
0.6650892523278742 0.19527212748928946 -0.19250188214827801
0.4968102917522259 0.13165751588095986 -0.11326425846637278
0.6082560432011945 0.18001288359624823 -0.08969103088540464
0.4812601385231119 0.13914837351578058 -0.1125435171838376
0.5305423687437241 0.1270589673332836 -0.13392596981921656
0.5783064778165112 0.11313404185332843 -0.1716053327479301
0.5672615851709821 0.14280396737757428 -0.12355316953373574
0.5651233524361885 0.14435897393619257 -0.15110063495110637
0.4957189300677953 0.0010416076362389504 -0.23923758769605286
0.6855636165265651 0.26829625644109 -0.06359604942065289
0.5783488121064693 0.1296071543856101 -0.16596307136074984
0.5559666696836842 0.15104412187145044 -0.13144246330668352
0.6185959684797666 0.1317396628837173 -0.2598590858516019
0.6051999993317168 0.11560692580206933 -0.17396991065426448
0.7108256311581158 0.1521055295048086 -0.20701884500236645
0.5628343809375025 0.14835510616109104 -0.17207378018531472
0.5713596961142713 0.11015120810574786 -0.1832940768496485
0.5465510893825183 0.2365483417356984 -0.19085447218586182
0.5305524082995134 0.16981140431281005 -0.07926131739539244
0.2787606912422689 0.11874590033676213 -0.24373775485170768
0.5036050082397168 0.07814818576360949 -0.16710060493203116
0.9902783167775198 0.3965423237722234 -0.37884738658905803
0.5151583179656853 0.20107321486202068 -0.10728858567682664
0.5205291287716562 0.15752317516168546 -0.106605833744851
0.5683113450815824 0.17043676096025706 -0.1275994472843962
0.6514966359273444 0.11610693457254229 -0.22440001168673973
0.5405671846827147 0.13332504448408145 -0.15038533370244522
0.5719434039096427 0.15176675483039048 -0.1297709747873057
0.6304918019114467 0.10976715069938336 -0.2013153366026188
0.4592916225188759 0.1419550318616416 -0.12844962498799362
0.69197035627802 0.17510601970118955 -0.19601628450573116
0.5738650511186449 0.16008247998917113 -0.12221769229853408
0.5075077009634015 -0.0029770391533929796 -0.1819343593610938
0.59424543150962 0.1542920850559426 -0.14521548283559582
0.5884897502615729 0.17524619935124974 -0.11125619794620434
0.6010894647783118 0.189690745519016 -0.1182135214450426
0.6322709362418948 0.12438432462596438 -0.16133298590159484
0.5417486582158091 0.1338238550110873 -0.1477900362707345
0.562415171693246 0.181768090474975 -0.15661612404520042
0.6526964117741727 0.18243256228277005 -0.1005684780967897
0.5990977406314926 0.15356163543620482 -0.1422263671195907
0.6206521829964657 0.21027029403151687 -0.13739930793981614
0.5946947301014802 0.16364371283742685 -0.1965981658457423
0.6208271501859599 0.17634698742435262 -0.16382751692950137
0.5369523832177947 0.13195315141169317 -0.15102087565973932
0.522567239043525 -0.4358033753119912 -0.3188423375191576
0.5700124833668099 0.09847740250376091 -0.17382859283181062
0.5539084223210153 0.09625913604151037 -0.1843471034945452
0.6686438915541402 0.10589435876690345 -0.15007195997301892
0.6399126713243817 0.14951902135581463 -0.05320541608823248
0.6280306488456375 0.03466891640789527 -0.24356773389996533
0.6079984177230813 0.1735138367748732 -0.1524712917962745
0.5425806302120151 0.11357246811465416 -0.17272336804248312
0.6197890723143473 0.14806658984977616 -0.1512887580397546
0.5641307970862499 0.17027476870120495 -0.09172764284370771
0.5488721119516953 0.09415026237036273 -0.1328735814582842
0.5687136543751166 0.12168575323613595 -0.1849206870296456
0.573897704185427 0.21560460492915468 -0.059309978376575145
0.5630728524467372 0.14892390868502048 -0.1770309258397873
0.5542377768090461 0.1515174940839472 -0.11944498631378053
0.19428870031147483 0.678285748788312 0.23786375620572642
0.5286227257809344 0.16753473518622286 -0.19509915725187454
0.5521997345565097 0.16043800437168443 -0.1579460703446358
0.7263697771460755 0.10394015993287553 -0.22475378084098452
0.6240928636677694 0.15341840719091238 -0.14676113063366358
0.5215011995467052 0.11748508500036792 -0.11176383816891189
0.5520117225076433 0.4091083860084552 -0.37742092784444026
0.6037179875204117 0.1130321918177799 -0.20512383624291886
0.5427016613803772 0.21416453319983475 -0.123949056920722
0.5670034029984095 0.12361510627110306 -0.15072627911945347
0.6186729324414557 0.14886335866276568 -0.1507654918710415
0.5560398023888666 0.14934104042384888 -0.14460387672966135
0.6402408698693165 0.14708417677709917 -0.16529287203296406
0.5997818138736761 0.17376318459167805 -0.14739713835757584
0.5853081494948782 0.17591859954868028 -0.09972089520634597
0.6127967089591948 0.13359190045892433 -0.1979325591174046
0.6496087790265079 0.1888857201433609 -0.12775602748520498
0.551900608883173 0.07701661980377139 -0.20675428946145757
0.6391586789748942 0.1310974720638569 -0.19567951420548013
0.5746607133292514 0.13836044780848056 -0.1325037168203096
0.5895344374770843 0.14707086529233493 -0.18915273752507744
0.5269776245394553 0.10275742400153831 -0.14602838915421046
0.5267176701151897 0.1327928056198573 -0.17981885929049213
0.5389049268452197 0.15166950557309633 -0.11159466575993804
0.5506879896593233 -0.02277305847576372 -0.29589672210985896
0.6991278588424166 0.18679412872350554 -0.12316786663029688
0.6273510214834062 0.1106930326846225 -0.16962497133025067
0.6024076599219939 0.20288056560016798 -0.06259807496807923
0.5426871782573386 0.2936955886081307 -0.07868126500065387
0.5966820865567968 0.22734009746395145 -0.1197013714709243
0.6284440798461475 0.2053726310242041 -0.10046583234571926
0.5525314088987727 0.1487232057924075 0.02648069623408844
0.6422162732258982 0.1602600086663699 -0.1027461724505514
0.5681836206746738 0.12675275290786203 -0.14801739532418878
0.5820048048370268 0.13837607820434528 -0.1395659662415767
0.5233500345233324 0.15896710473037956 -0.10903626329660199
0.6462992793588285 0.11796953850972614 -0.13481815252602303
0.6890901242678495 0.14700222066070978 -0.20352574569210446
0.5958325932561053 0.1705029943688885 -0.1127284599095475
0.6122320676995798 0.1215015745848973 -0.18190478379966635
0.6551302208630432 0.0721136619142726 -0.269774890309904
0.5660092896938522 0.1750835746579753 -0.0900061445772451
0.5331195104962916 0.05985753575558306 -0.18955270449593797
0.6036626009211545 0.15600621187834918 -0.1259097307216166
0.5932372903982781 0.17589320193820868 -0.11632262264242854
0.602358830489166 0.10101357208978357 -0.20952981500784063
0.6242285265055472 0.12898043752281296 -0.17580074572278193
0.5799632445973799 0.1326715526492137 -0.15308469263253244
0.3985967763414493 0.1534095718720323 -0.0507279417311679
0.6017060215173586 0.14052230493695106 -0.14445833208340275
0.46885545798895123 0.11876228453053272 -0.11275398354106869
0.4703560326910008 0.1937439061861994 -0.1558385229443786
0.5952091215375361 0.2009832721404905 -0.20318412899744942
0.5504519122769835 0.015697051949047136 -0.2151919436657863
0.6212373329513383 0.14568960207276405 -0.19486475263522607
0.5417029845506676 0.10923725089810432 -0.12909870086912179
0.46045822942988934 0.11307500416066318 -0.06890952561020924
0.540639352660861 0.21963045881491894 -0.056351931822035795
0.5741016219000983 0.16432766639556462 -0.07679060202850962
0.6311821238573572 0.10443661243630231 -0.16900737278606925
0.6020770468520453 0.07643467279388005 -0.19660690561137528
0.7400220596789922 0.28272115277709986 0.0033907233341352594
0.4119345677810031 0.11095313667868822 -0.03204317001051038
0.578783606206585 0.12421562493705096 -0.13830668313143235
0.6272364539881607 0.12373472380662065 -0.17965657133984791
0.6680746757099456 0.18994181988946934 -0.13340173329935112
0.6801658605508578 0.16432691202527394 -0.21817618066108935
0.5286958489136282 0.2086555136835102 0.012025798213500138
0.5879539827720919 0.110692943673115 -0.22468019852098564
0.45854755692370475 0.05257955183560625 -0.025590300978279856
0.5640490351007088 0.09954706033167326 -0.18806924105425082
0.5335936504897631 0.14519217099973503 -0.11869758844643741
0.5176204257250134 0.2921151899911649 0.026632667795638554
0.6145753028338419 0.13481291808506057 -0.20181511785229134
0.5458759723030653 0.11409288909371185 -0.15300492929628717
0.4879615532581738 0.1357111573217935 -0.07079912219833773
0.6367977717063127 0.18842120428990938 -0.11957964741613125
0.8767009410473179 0.07519672665208077 -0.2771469720345152
0.48865665657123714 0.059911840928833726 -0.28539147277223265
0.5500226489502609 0.14120252047172244 -0.1517602729702645
0.5462171440575645 0.13327506808866474 -0.12318149042305038
0.6279701540173477 0.18440141699471724 -0.14799071199252012
0.55889882402235 0.12443738864399734 -0.15278095620840304
0.584594431524323 0.16070407402401088 -0.14243070269832003
0.42045755800648976 0.1314812086449706 -0.1464660559789479
0.6276385373900979 0.13053899476958009 -0.19061158238937992
0.5663735235720679 0.1400677944316442 -0.1816254792629053
0.5349152367750634 0.12088448451157774 -0.14726347409099105
0.5457388549129831 0.1130905646616327 -0.12689706571825354
0.5367083995636506 0.11938359526800468 -0.10060116974548805
0.6771716919561896 0.07697912546507268 -0.2232226176527803
0.5744107890601811 0.1393370548587427 -0.20179573146619134
0.6269212115439444 0.27846669728452866 -0.21218931469363156
0.5547933538171748 0.11937090110336612 -0.13457155075442984
0.6747893546894232 0.17162601535505928 -0.14762784117070282
0.632747423276399 0.1685271734004914 -0.1583467319476881
0.5697445418296496 0.16217946618050405 -0.12985871396203663
0.5669099979895833 0.17790654640452885 -0.16890192384191494
0.6995564672166097 0.16576224230357184 -0.1956953609480081
0.6035297901016321 0.11918601455298017 -0.17278046146535075
0.6548048505260624 0.21814522368816824 -0.1952008540258987
0.30091692396912606 0.5618313224701126 0.5985300007485534
0.6314072922412208 0.048978483245093685 -0.22729928029031043
0.5176770036748053 0.08938673544270159 -0.10780139906705699
0.5892010382306836 0.20110551864979698 -0.12189556307528449
0.5357224064132851 0.09092380523603083 -0.1329115573859383
0.5992604468244735 0.10810182842348581 -0.143537002353753
0.4865139283926112 0.043832504139516004 -0.09723730939029451
0.6340080431049415 0.20251951995490458 -0.24947282383884328
0.4685102972584616 0.1549797868016185 -0.16093232324192286
0.45252520176386213 0.13082394902536976 -0.21344977974885637
0.5995928133987576 0.11803459669712879 -0.18525265445217087
0.566165191757591 0.1446122786063313 -0.13388124908711063
0.5424353137082392 0.14299302530096725 -0.10928142175261257
0.4913574952017399 0.09341577159230496 -0.13225210489981976
0.6392076921299861 0.15864973864856324 -0.17418941900210427
0.5376243722242009 0.1917044230554268 -0.23802131315389374
0.6122126396099645 0.1396342261660095 -0.14522118084654778
0.5077669804690288 0.18893868108051493 -0.08468275040735307
0.48470712689486106 0.050916579841214116 -0.21481690167512113
0.5310949146797554 0.1473263929550228 -0.12478384351589966
0.5814583747258126 0.16709228621343186 -0.16532628833439844
0.5876452817086175 0.2175591709158482 -0.25501443869124785
0.47089203866180185 0.21810680321607379 -0.0053557517785804976
0.5843790958006565 0.12948332399935225 -0.13274980003285464
0.664247517462158 0.2764418249529399 -0.059507433343398475
0.7784719864309295 0.39670347639975034 -0.7969699428982153
0.4918104431889958 0.08621238693848454 -0.16308748403442053
0.5435810824039322 0.0949725690971377 -0.18284082886498254
0.596077619217354 0.1589922696356325 -0.13828900834225522
0.5812505723708483 0.21458628316148065 -0.17182743767821762
0.5808345750980095 0.12123361011893508 -0.19702178758383582
0.5002538885351555 0.0964717866388014 -0.18153647609233303
0.47104172025873936 0.09244979214537352 -0.13586102481782802
0.5538020752345574 0.11234986660900859 -0.14684102481929528
0.57089551522904 0.18435366591552338 -0.14323540399779233
0.520982826924552 0.1254588803526815 -0.18237864046673735
0.5528811218619865 0.12352287031259834 -0.12286281021910384
0.6167264321099566 0.20218524461336074 -0.07929696629246052
0.5347673561081194 0.09102102895434427 -0.1603095085581998
0.5419875785557622 0.09432567975520101 -0.17602306352362973
0.4865442567249687 0.0895180288831341 -0.23961613325548115
0.4392328439190152 0.1281377450146408 -0.06332624598942971
0.9306975999708413 0.20001961745057883 -0.263434642801883
0.5837906772795947 0.1767241853517021 -0.12034272238523158
0.5577627718162006 0.09186474738251604 -0.2106341187239309
0.6210102624583413 0.09432568480221448 -0.20898009491855873
0.6090665289135728 0.026116878688355882 -0.25458944247650095
0.5648454168932062 0.11827772397998615 -0.11535459418929861
0.6165677591435923 0.15274620495060276 -0.15018124167417568
0.6670599468539962 0.19408554892834218 -0.15741892088023235
0.5233046345325931 0.2003033712427964 -0.11603538689776371
0.5563147834270268 0.08819884225363239 -0.10343080214252609
0.5089676087359862 0.17631464458449386 -0.16406811048649672
0.701143753895991 0.22120772843618397 -0.00599300534007341
0.5910701020744966 0.12738398040303878 -0.16258949162519798
0.5985924981082889 0.12925386092339863 -0.10147024971126939
0.5887406011144947 0.1448449672952279 -0.1704870370610223
0.5757730044104221 0.12867575392044728 -0.13292060012290108
0.45734840995777404 0.06453536843690699 -0.167560093026637
0.5751559857570498 0.06416123189509904 -0.24420646242610644
0.5534139339093542 0.12749619730831796 -0.16761482394453253
0.6190678126106945 0.1683989741848393 -0.11742377678764626
0.5832912819322615 0.18732541835882444 -0.1032647999741414
0.5958271304106972 0.14006048426591633 -0.1460067652462982
0.5826117246800777 0.14612638697681746 -0.13778774249621506
0.4558869753677328 0.15776065339838397 -0.022591787513206896
0.5242628692219569 0.10981693131276415 -0.15610706929587082
0.5487298167614796 0.13186424834685795 -0.11982292038071307
0.4968144075444485 0.04227676843837003 -0.12957379827490456
0.5500882351815051 0.09973825046748175 -0.16660280974811315
0.7352457872797231 0.18749912877328256 -0.20957958540304844
0.8248054399299463 0.12485379004658625 -0.21769870323061014
0.5950040061005524 0.1789353574654058 -0.1063404636454095
0.5784316796967062 0.20480605372301852 -0.08675211085545698
0.48540035132582204 0.04679350856304154 -0.22692750019167818
0.7756092054402046 0.14410324693474763 -0.09709470096477446
0.5975859487869712 0.18288318340501064 -0.14444026210495053
0.5258540010395194 0.13448077476783737 -0.17551897461552812
0.5721186697022205 0.11806956658293188 -0.18496868161831514
0.5778719668299175 0.08871733306750684 -0.22856996536015117
0.3820076524174141 0.06833457325220138 -0.05833672586419425
0.5662539213975748 0.13720752543810022 -0.11504330050343015
0.540797105999161 0.18156731155039552 -0.10681521081778556
0.5775333846297883 0.12793654015743527 -0.18603941234650279
0.5221216375336297 0.1973333970019837 -0.12345126759977632
0.5671664675522692 0.16670347970975286 -0.15497621218362667
0.5653128211598784 0.15297277781934326 -0.11676715010979422
0.4913540540243986 0.18995882551050158 -0.24788744250233208
0.5130498254979159 0.19594521233608475 -0.17194431732541204
0.549260444437266 0.14710883197469116 -0.1242791641473815
0.5920634814360852 0.15247173994293917 -0.1428636218291075
0.5590556328249789 0.12632803794792835 -0.21563149519462854
0.5992815657647128 0.13102346428470923 -0.10143073899321564
0.4465022167215551 0.11801248499810413 -0.11606254635933055
0.6046735266619692 0.21851506778367025 -0.08903269729586327
0.5303842798914644 0.12204772135734743 -0.19463865500824795
0.4704534535854634 0.31254616406957325 -0.1338991218780734
0.576292730285715 0.16094019408444638 -0.13051992120300326
0.6698868149147614 0.12316853153694751 -0.18111295257484983
0.5954210487030167 0.15295184813851392 -0.14063591927693153
0.6266844899120656 0.21084237013610618 -0.09516968439463369
0.6073980686122837 0.15640258244019378 -0.12927970419259793
0.5960468718750889 0.06109797873105549 -0.18939787723617485
0.6592096448798941 0.15251617161067088 -0.14361885303539168
0.5161157311154057 0.11885789867395147 -0.11546343464979714
0.5290934326122851 0.10646963240503737 -0.11324991953902952
0.621237444321352 0.19664729527369218 -0.040923372692432736
0.5672591213306504 0.16921574472843304 -0.09942907025221359
0.5556325623356457 0.11171047663023614 -0.17047073483303166
0.6901834151481978 -0.07311760132739664 -0.1834320910165843
0.6074158292205567 0.12577483123340016 -0.1880432069111606
0.7137502464951666 0.16885907064937555 -0.18503051511986257
0.5777154850663493 0.14053005945550012 -0.1453289749727844
0.5547178127077927 0.12275904347828259 -0.1574531757651556
0.6436910203717474 0.14707824922388113 -0.16897488187366605
0.6278072162063637 0.14146544129994254 -0.17449036989970068
0.6636739727149035 0.11029769136507639 -0.1921640545916432
0.5606654183308848 0.1677286428562752 -0.10230972724941978
0.554361339692889 0.15355858041232295 -0.10224637829000471
0.55406754707235 0.1358688891353097 -0.16991718040500814
0.613952512674814 0.12441616860044746 -0.14258864743086974
0.6305133594678267 0.19792411611973648 -0.1375277170639606
0.6575659349727374 0.12341417050726022 -0.2399703654580776
0.5792155724660404 0.12674404167597686 -0.13920139403022347
0.6085166302964922 0.12151786529997821 -0.14036629312541038
0.6073996743837711 0.14640543553662155 -0.15017845775686567
0.714598477075711 0.08150033279463287 -0.2271377523138085
0.6101812980825798 0.20873196834992314 -0.07376403805372433
0.6310233935887481 0.16142788587649193 -0.15690348484827155
0.5382313870246946 0.0400608030646481 -0.22248756344545484
-3.75918749637313 -1.9697556378504544 -1.6723708005508797
0.5903527768762444 0.13972712427019474 -0.1198618431101579
0.5864191741448792 0.14540555094328056 -0.14077999728196744
0.580078963462185 0.15800710154459807 -0.12922851997618068
0.6132816672845962 0.16987851454024394 -0.10660572030320736
0.5602409322445396 0.10134769726226978 -0.16061841414288835
0.5409052373597092 0.17332191847916079 -0.11349185542371742
0.6159470957361748 0.13678132857677383 -0.16160044917977245
0.5857546339038748 0.13866427850979335 -0.16820332879362354
0.5662451569377822 0.13636026698347337 -0.14819297383264995
0.5746288115473277 0.17607312507723805 -0.11652261577918921
0.5047813868173137 0.07796214602180385 -0.18556978268851765
0.5523653707458323 0.07502122224119034 -0.2399038557404083
0.5332109217207233 0.1901475743560752 -0.07061000331302125
0.6068131124424525 0.17536611691332382 -0.1409573160738944
0.4676100426396772 0.07900605611195033 -0.14697336216347878
0.6114384633383594 0.09287674059621054 -0.16970250943174392
0.5841964183245949 0.17463940547617085 -0.1283143309326107
0.574667153848722 0.1779323958051009 -0.1404652460014404
0.550701885455581 0.1181923094659112 -0.13126311550345804
0.5560575147041362 0.2529913104892785 -0.017578794495804573
0.5836964443460602 0.13857273204985177 -0.1565242743964177
0.5800384810444541 0.16936479364639467 -0.12839950063806782
0.5671706703945745 0.0868106012368628 -0.19564990867375798
0.5238409443205683 0.1388355091700646 -0.13058526538014803
0.606701208504262 0.11754328765132982 -0.18078441968515335
0.652439212915823 0.16412221652004177 -0.18375817806800399
0.5747532110088258 0.21322992980995537 -0.0768199184744418
0.5978531194646877 0.19136544814494982 -0.09372820999766418
0.6501309451741122 0.08781990323277 -0.2065341734723205
0.6070977084534519 0.14813228783586396 -0.17145391526072729
0.5661676178641812 0.0850782422745624 -0.206441374680864
0.4580182077890669 0.03560641046459523 -0.20768645733602398
0.5404450083936752 0.15083382098333686 -0.1528747801981325
0.575776346672896 0.09555380881121778 -0.16960268141511392
0.6150345599574933 0.16929103760045905 -0.13666860170251027
0.5607073263168729 0.1341579118392815 -0.15043277308802772
0.6826198443278031 0.20983812513765088 -0.14651299050999
0.6180269209919658 0.12621028910595555 -0.15699430955399407
0.6072616470055294 0.11548971483489368 -0.1883112608830686
0.5876141472258922 0.1265125083249643 -0.14794882722843283
0.5278415992031711 0.12757733400476923 -0.10729753062508962
0.5376249977069847 0.09533252239197054 -0.1893217593468961
0.5406566518120712 0.09772855814281911 -0.20157173391484662
0.5813974436685925 0.16153054259109467 -0.09919666364120872
0.6329488496526352 0.1460821049457195 -0.19587852249438242
0.5320126256245459 0.0990395172558749 -0.17441886045071442
0.5538810070377735 0.09380276813905652 -0.1663559630618181
0.532989732569078 0.11588354592333872 -0.23149467083260333
0.6827032663574357 0.17432220474722726 -0.13268635487438019
0.9563917945956177 0.09012368094357726 -0.4868457935295538
0.5500239145816721 0.148967535129799 -0.12450735699344762
0.5400559902833635 0.14671968330901564 -0.1097167483201531
0.5370830902863588 0.1576285238784294 -0.10698591446495698
0.5620927311555732 0.15526924352988658 -0.11171970286807209
0.5685087327673983 0.14394350354299945 -0.11853622008015918
0.566986164628716 0.13585751213236108 -0.11720205036488096
0.6259881250240085 0.23698670224393936 -0.14566658181708192
0.5956215194979109 0.22824710348828603 -0.09754311276540761
0.6035445075018373 0.18550224109424107 -0.14061295360475867
0.5280896387704814 0.10895653213728451 -0.14897870529847523
0.6306448921159529 0.19959784195432917 -0.13197082640544977
0.5750026489513829 0.22022906864998504 -0.05840511059449227
0.6297672809010635 0.0442952948764912 -0.19096937195459418
0.49012060944916414 0.1661840900800371 -0.1125778102650088
0.58509087752185 0.13325997145852853 -0.12639894643977811
0.5769335756097007 0.170061734892073 -0.11387448309309889
0.6288361545932588 0.17761274318712594 -0.1172316600910932
0.5757225245723845 0.13703175978278637 -0.17746090774977574
0.5561236725219487 0.17952006255683273 -0.12096599910790928
0.6278119976349075 0.2983542007406754 -0.13890733242267572
0.5216630826947153 0.1274631819341323 -0.08931900923853675
0.5719628104372418 0.1256917610796222 -0.15372863682152627
0.5698737711219763 0.15295883854611247 -0.1556440627520317
0.5763300687454631 0.0728188767712652 -0.2023604623489632
0.609290038206936 0.08864860794861329 -0.21556017384557435
0.5904410636366464 0.12822106067019945 -0.15711378107663165
0.6013637019377001 0.15471496845987076 -0.13175554908315235
0.730833324618871 0.07831753898733496 -0.3191332074313067
0.5860431008076148 0.12133624453716152 -0.21323236448350258
0.5599064922079577 0.12407685222041209 -0.16584604491316668
0.6586347919884759 0.15624257624250504 -0.15801259591449934
0.5205204604260416 0.05570541927656336 -0.10831762297418379
0.5923644111448567 0.208737572353499 -0.08304822063406903
0.6611389730574189 0.140907364227985 -0.1918835728052528
0.5784444593456755 0.12703208776574115 -0.12823801408580948
0.5088775603784654 0.0877672967101546 -0.19637861970733184
0.628945821433831 0.15153184105921014 -0.15770652149942066
0.5677024964359987 0.041437841383043406 -0.24341297652418348
0.5451142504267636 0.15856622242344542 -0.138831087523954
0.5210213868829356 0.14014939323610065 -0.11659620960141126
0.6617279712121871 0.1321049604105724 -0.19777687119587029
0.5564355529643592 0.05838303941970935 -0.24751629119303686
0.6209285572740981 0.17653910213050494 -0.15089428640789038
0.45512788520480285 0.08171921996986953 -0.2231224338666351
0.5824845206063856 0.1629883013699498 -0.1453104059931718
0.5832311925926206 0.13828172024139462 -0.15779591814798266
0.5513559215850279 -0.021773400476718052 -0.22594760472686914
0.5948297758983472 0.13868632323573138 -0.16497305532193707
0.5197894414508824 0.14423330386213706 -0.10817216305929378
0.5590098967354606 0.14058183436279137 -0.1378408454875455
0.4757904710004368 0.12159621989130187 -0.11028670741177393
0.5925487493281736 0.14602615949937103 -0.12489502850041845
0.5061974306627661 0.18399197711272564 -0.09202772859175923
0.593988397953396 0.18459845399851815 -0.13256717769259296
0.5257083453541611 0.0921141055831356 -0.1543151162212837
0.6408836077233104 0.10105861557357798 -0.19685004476559698
0.5521047010473552 0.13902883044988812 -0.10410715067735055
0.6520087640512742 0.1478151498870659 -0.14150314465349823
0.49622228914961397 0.08598789879070523 -0.1421755373312692
0.5751321424191786 0.10169025571241264 -0.1779419831346445
0.3837231933315053 0.10675075590535243 -0.12522724768430749
0.555015848204647 0.09685989320189492 -0.19461338379443305
0.5700594400778556 0.09014080790726098 -0.1764592521170556
0.5852427148257391 0.15150973786910527 -0.11228070095647524
0.5371272807001759 0.17628646582801366 -0.09711979976697194
0.5642799048164164 0.15015756642870315 -0.12710758624020002
0.5718935792404523 0.17521654393368635 -0.09064762591472686
0.578066389483709 0.13825567475080902 -0.1655734539453988
0.4049966489323964 0.023162614198554365 -0.07789361021208663
0.5107834746212916 0.15200868610438079 -0.08782614268415045
0.6655723013423653 0.09549897546912689 -0.20572661709555007
0.6391883513536243 0.1771597808726142 -0.1782802508816843
0.5513261034577539 0.12397229328971093 -0.1698427452167408
0.5879976184784681 0.15630869612064657 -0.1257870298859416
0.6099706802295088 0.1779140584027914 -0.12165784994637363
0.7480895459591324 0.32925034162025213 -0.600986085393103
0.5664754963032976 0.14135227158294583 -0.1444852952538156
0.5391382498260384 0.13632821367616543 -0.12191645767842374
0.6303686984951753 0.15032509102672975 -0.16150719103134747
0.6113145418930941 0.11660944697214859 -0.19580282191411413
0.5501963276460486 0.11268728906870251 -0.1665187589736945
0.5304731967081295 0.1027039745083016 -0.1743309035197882
0.583322197549478 0.1777070431720631 -0.10692500724364606
0.599078297223798 0.12039379526629546 -0.19502939331708546
0.5270835890741097 0.1534982330914545 -0.08479835009345038
0.5291464094217844 0.17100244730443137 -0.09742115491553704
0.6578132408817652 0.13281797383640992 -0.17579004022948652
0.5006353162857238 0.14815554947057308 -0.10465917145286596
0.5467427253729369 0.15516452714265938 -0.13707187472535054
0.5455079963437299 0.11390159444476922 -0.1848897565697456
0.5711715647261144 0.18838828216624393 -0.07489517738363816
0.6516833430302569 0.20345252187610186 -0.12711780400732664
0.5271911706614958 0.10564860997862979 -0.16628036390447676
0.5570376480069115 0.13600941384842713 -0.1606333080996194
0.5715965788071458 0.15241520649155404 -0.13494643902146208
0.6687200386415526 0.2364488546950554 -0.18051865754289054
0.5264685460956287 0.13214496238620654 -0.13965075446172648
0.6818596343018442 0.1673274773445712 -0.1823626246387846
0.6223244709642302 0.12759116876483745 -0.19026648943967928
0.5507872780158323 0.15527832299565603 -0.1105066019027845
0.5187828927913785 0.13133450596927787 -0.13545582443572357
0.4782194589605382 0.2212253482774713 -0.14644623241518673
0.711783198808476 0.097310883999711 -0.28491634099866303
0.5808380070397732 0.13625102859930394 -0.1643381783871405
0.7038827693946814 0.26266106469518036 -0.4789782432775098
0.5873776041626115 0.12759379056222997 -0.15618899755649807
0.6225103629098783 0.20318101535406186 -0.11087888002279556
0.5844302331794182 0.13488597938922453 -0.1723930141886285
0.6175846646801233 0.10918490144908333 -0.17478957920428684
0.5469640518837906 0.17071716253900604 -0.0973843411001809
0.6097591790619816 0.11390437374333828 -0.18062287078279837
0.6534820718355263 0.14690977342658584 -0.13358307568607586
0.5564019696388414 0.07597486802012554 -0.17187617308503889
0.5292325674653284 0.1693896622465445 -0.12964715496055135
0.4930613148981138 0.1505834792102121 -0.08188991789324973
0.6983082465334292 0.14113853620233385 -0.2793592902396256
0.5428404568410912 0.20565363146647542 -0.035575425007436934
0.543614767254553 0.11026116488503135 -0.15262053139014142
0.6171607079697878 0.18491997350960787 -0.124475587044941
0.534049086886597 0.10636446740724637 -0.1598320880683275
0.5175016362932183 0.13906590472268476 -0.11826082116395753
0.6402609466093168 0.13540677933877987 -0.18539103027669057
0.5860246589981131 0.1001493825611135 -0.1457388080712434
0.4678661898689711 0.13384418608856663 -0.1307426299674006
0.5769929192029508 0.1567647596891959 -0.12361407391358625
0.6133737211924597 0.15342649633680594 -0.14619923684648484
0.5831343129563891 0.12863664399529284 -0.11855372509505457
0.5281907721829242 0.13579665066779967 -0.10231878879849887
0.4865625073403663 0.11192905622399962 -0.07857432449270618
0.6186119859073642 0.12692028157809432 -0.2085886353307984
0.5450562144028055 0.12401479958072059 -0.1343428142379679
0.547142958391774 0.12982192073829424 -0.1716701337177824
0.6799375058321857 0.24647914381600344 -0.19062101277528143
0.603246292498369 0.10462643959385787 -0.11488220720418951
0.5141478350397364 0.16495019875549133 -0.13602021908994288
0.5381986985348988 0.10925489369637376 -0.1446845804589998
0.5061399038367256 0.11842531455212679 -0.10095816546026981
0.655258597279385 0.30069594671934397 -0.034870293404907216
0.645040583738222 0.12404829636628278 -0.22586713663849878
0.6399494028037225 0.0933008937091131 -0.20065087803442339
0.5649469073098601 0.12952319238141285 -0.141800886271227
0.5799687709192511 0.15391613341583366 -0.1409972246833462
0.49725571824221504 0.13554940902503176 -0.1418969633274969
0.4817424451973693 0.14720921320139269 -0.022623414150118037
0.7281903879232914 0.10258982501997593 -0.30176444166251315
0.5771932043337955 0.18406198541165963 -0.11524404919495623
0.5520674602950635 0.1482732619789715 -0.09073769874251525
0.5876539419854367 0.14848693207665065 -0.1431907481509711
0.668467108773342 0.1634405243596575 -0.1482744235977549
0.5571773535212117 0.1586194813196471 -0.1379632179743453
0.49752570608796987 0.17045573032305583 -0.10379133434227583
0.5668746837949215 0.08201146247483848 -0.19515261256600525
0.5834027326234974 0.1470054447028133 -0.14857368686064376
0.5483927201506447 0.11376899452636735 -0.11625886182287104
0.5780223055099896 0.13485324087315576 -0.16334138948458587
0.6157116560020341 0.1598105006106607 -0.13121966734127
0.6117594776831794 0.21001972534963897 -0.11095304606523371
0.5036289270626213 0.12292804144735214 -0.1217434102959487
0.5277019193705001 0.13545955289191625 -0.10741405338197296
0.6268546972292199 0.18522157289405072 -0.15313416985557637
0.5839316355223758 0.18219481595059506 -0.13255572165809326
0.6176679967900611 0.15975691667230763 -0.1264557246584559
0.5573192497353006 0.1515604610055732 -0.09422345332744442
0.5782158196524705 0.16834583990578267 -0.13566668240595448
0.5638372710663333 0.124034854244087 -0.15274425849312934
0.5965883071020812 0.15085279709492738 -0.15126441125215706
0.5701083224530237 0.13238563107174173 -0.14407004504346332
0.747804565955974 0.20528062354563303 -0.21502777743968693
0.5873286367824306 0.08317330810939438 -0.0008060487630956459
0.6496428813608901 0.23704884708328677 -0.09922235298435567
0.5494892189126404 0.1213274266749238 -0.15940383746412579
0.504041820801632 0.12277128447641417 -0.14079562755881625
0.5113869200544201 0.061391961803479944 -0.2006180047021644
0.6113297548154861 0.14391266085007715 -0.12735475455349388
0.5683086582249359 0.13051945199657666 -0.1380604724163419
0.5850473709024868 0.13853110913979094 -0.1395096031080385
0.5216478786439751 0.14113976196225053 -0.10231376531191927
0.6194954561133841 0.14327954130280318 -0.16387280538312154
0.5684702273391764 0.17336131796903942 -0.135966932739791
0.5959103806338248 0.16165148307666755 -0.13491414752681408
0.619804609642344 0.1560932919933009 -0.15452026336288327
0.627118758805878 0.14474093459514847 -0.20081053389979786
0.5164953522310753 0.1223710742110029 -0.31502213813864444
0.6006061375384917 0.12954205280939846 -0.16904077613718016
0.6349830764702205 0.14861550094522613 -0.17961231548035528
0.5462164289906042 0.039970663065730605 -0.253585432429432
0.5104838538323406 0.12368174352729966 -0.11919927313100231
0.6858363674000003 0.16564761609683387 -0.1549420186846362
0.6442059999878182 0.15039856441555344 -0.21307196787110172
0.5869377983622144 0.15244858273715067 -0.11924561489637142
0.48464949073404284 0.07687382312172986 -0.16524105135388822
0.629030795367612 0.11115537625877892 -0.2159958543943219
0.5886304205299666 0.1386746184439005 -0.16759200516015937
0.5984503600010669 0.11994030486971496 -0.15308937897953
0.6372082712823186 0.1897321227562827 -0.14712495884532473
0.6362659773214858 0.14352030273977334 -0.13749516201431788
0.5754557015693251 0.14743528039502962 -0.1475510197463592
0.5305113468303233 0.1323140395442124 -0.08203932607159459
0.5424505493824228 0.11151231623824742 -0.1596520949479867
0.5630729261944651 0.12069749664581764 -0.18869876999751511
0.5907384030682152 0.12439842704156945 -0.16681645020938163
0.6535685506748621 0.12274307255893291 -0.18156910166671025
0.5567778696391343 0.09152744862586815 -0.17754803345631842
0.6344859917253132 0.1899609664697266 -0.10997766469533587
0.5692963466010923 0.1376130804331126 -0.1601774046395974
0.5174650018833233 -0.05028079829230592 -0.3226526769961282
0.7463852196145808 0.267329548605602 -0.04069440935133173
0.5450757919868892 0.13762359422560166 -0.1346708392831033
0.6613085754706418 0.15249374022965867 -0.12625138021898863
0.5312907935987994 0.16981146124433621 -0.11254313672600347
0.4639110818961143 0.12978801293351694 -0.17355950070688664
0.6155882702322657 0.16419248233566464 -0.11195764646491568
0.5185648595259096 0.10325715681261727 -0.18852335481000182
0.6343002608498978 0.14068318034955496 -0.16896143389372753
0.6376496137104368 0.13944792507450643 -0.20833712845542607
0.4736448002500566 0.0730524446303491 -0.18145541662403275
0.6287104576420433 0.21703626948664123 -0.13361061492508952
0.510868696625522 0.13074856303620663 -0.12764649571924735
0.6321609699767663 0.1019816187213678 -0.21609818818213
0.5772661383904847 0.14918827733879425 -0.15534999753201362
0.6275165947395038 0.23808170159557562 -0.12120891537581713
0.6929895038443163 0.18379643009959068 -0.07351587736130227
0.5989424791347773 0.12072893857700251 -0.1732894978008659
0.5812484506562896 0.2035386077017165 -0.1353002987734584
0.5662410276715946 0.06887093770967567 -0.18272808806035812
0.5461295519091323 0.144583253808662 -0.14229262539609522
0.49018047790858077 0.14198806069580883 -0.08993012763970398
0.5323026665728321 0.183252471654356 -0.09724428844333488
0.6606688552814148 0.15121223028609165 -0.1483662473631142
0.6020533461908855 0.15950938201393683 -0.1261781306083236
0.4890957591837264 0.1324178894368231 -0.07247941816380887
0.5968400088962937 0.0865877322162305 0.020002066319889877
0.4821330950434515 0.26005020515748356 -0.03441745271703667
0.6248058163577497 0.13429785752120438 -0.1872208802093951
0.5705558218601254 0.1401721318641478 -0.14757204502937782
0.5043114342719406 0.053441057361368394 -0.19240027579455443
0.5923505936012816 0.1532503240376002 -0.14115253509665138
0.7868379459361563 0.00827564528836433 -0.5463240134907466
0.5930304001709032 0.14397741081336335 -0.16439629736176187
0.6126601463317627 0.1738736853089904 -0.13672735260496438
0.5489125989451509 0.07274908459550034 -0.20560396636332712
0.4930009376310238 0.09126970983828642 -0.1371019638148141
0.45305667930227855 0.33640526922513914 0.29987107015128345
0.541897320978137 0.13550196043095752 -0.20353113490770625
0.6180986585101493 0.16517946743965695 -0.15005773074818762
0.4904979333113886 0.07700925332443376 -0.15886002699443225
0.6209236849039002 0.16017928963179884 -0.17890490478610843
0.6674244427221367 0.15804721920218867 -0.13929730518430006
1.085032593207103 0.5628649953854392 0.22343920674397566
0.6549317319990706 0.1503498927318958 -0.20226755615759373
0.624352404887901 0.14992872390985212 -0.1550869190006665
0.6198659169693883 0.13727924014244763 -0.16765400123301788
0.563892605869512 0.14119595043700883 -0.14038016539559806
0.5169007981288729 0.14046245288221826 -0.11995087547764172
0.5785882533636055 0.13875852911488096 -0.14006013787852112
0.5854704206243326 0.13857072811688909 -0.14791872956176633
0.7122070446669255 0.3315649246564192 -0.11021155505214608
0.5797170989066274 0.10635778298382093 -0.13489418546001275
0.5615220521388125 0.14587662009918745 -0.1371152223897525
0.7067813649056092 0.21858367074509033 -0.13672202299021308
0.6363480112001838 0.17733915584588544 -0.13381486513104335
0.6229323079731586 0.05974283326136742 -0.280406837600907
0.5589025934363576 0.10276661010442467 -0.13029086535260603
0.5818441323991408 0.15111373379417614 -0.14052553042760962
0.5443640768674953 0.17766826132529445 -0.14116322408069948
0.46666081804283976 0.05303298251666888 -0.2155623779478617
0.5409921103373136 0.06778837910732705 -0.1338598816200829
0.6465687628891459 0.2009701084566018 -0.1240311560481615
0.47764683675700326 0.08442826566894723 -0.16940132880193914
0.632552785619211 0.14454608143344672 -0.16743000196024127
0.49332529982949325 0.09792917447987293 -0.14796787166129377
0.5892568992813665 0.15337497281254286 -0.13822493178605555
0.6017897485917985 0.13514130844470174 -0.17184054872811316
0.5223300171704892 0.11453215908562697 -0.13859432592177257
0.572689626973002 0.14917614246030553 -0.18059103369992613
0.5784969300020038 0.16775461453269713 -0.09726035002955769
0.7568067937478276 0.17983243302046503 -0.09292936969015386
0.5355559624587727 0.10611426298675042 -0.17309964903284936
0.5392612404399699 0.1428637525565648 -0.11972201174295094
0.5675875431878552 0.13619123653205634 -0.11806354131999797
0.5232642384840176 0.14163484591890096 -0.11540397654886192
-1.076827164964115 -1.2367680534905787 -1.1595743467189408
0.5677966311580604 0.10473176063788969 -0.1928246582133113
0.5508845591731131 0.17550508798419173 -0.0677230152590198
0.6520961502139926 0.1330514918867607 -0.15870988995892787
0.5559612367196536 0.1439909428102908 -0.12060908846227392
0.5846206784293884 0.08999192734154349 -0.21975586342379927
0.4858869220874027 0.1706405735008616 -0.09321647693867874
0.4930920986043077 0.1153928044177519 -0.16257265360590623
0.5129454685371826 0.15314860772619454 -0.07230553393019079
0.5088117211678451 0.06718842425360094 -0.17646854742226026
0.6357405080166814 0.1432464422854025 -0.18605543843651162
0.5159594861998471 0.08398499829274897 -0.19357252408707382
0.4898606792596496 0.14981028010407726 -0.09433252158819982
0.5826634441750116 0.0985580771117327 -0.18778562274791
0.5350127465744805 0.13253551481221848 -0.11810139530894048
0.4406718628392241 0.10802619299303728 -0.1504057503781695
0.6075677402744191 0.10613218495362275 -0.18175609713010488
0.6213514442093526 0.14476157832189074 -0.04538015850657473
0.5799409292916948 0.1378345442423381 -0.15424300016721304
0.6182783179204847 0.07514443380469515 -0.18363353901396806
0.6483229534842252 0.22967293942079436 -0.08130492367583031
0.5060789349930133 0.07335686938839103 -0.17416604610718878
0.6018960942222549 0.22017112166003017 -0.08554715674819136
0.6397916309267089 0.19641445546736236 -0.09918974612547515
0.5477159672778811 0.10704589063178105 -0.2019010019309775
0.5987020220451313 0.22263016775400502 0.13183632052049177
0.5884963389084703 0.12716711368273081 -0.19612070101287316
0.5184695873236933 0.006545859688458222 -0.06803078408536578
0.5142629693623775 0.11509187492330852 -0.153032093852417
0.6129836475152644 0.20340227443557524 -0.13055554924939372
0.5983413878085173 0.21356573849325855 -0.11036734713030683
0.5689980263879448 0.20055024575560765 -0.10495477700408173
0.2946586399448847 0.16482781182907047 -0.176121848764339
0.5642517646879384 0.11798177730796056 -0.11738356195743904
