# .PCD v0.7 - Point Cloud Data file format
VERSION .7
FIELDS x y z
SIZE 4 4 4 
TYPE F F F 
COUNT 1 1 1 
WIDTH 812
HEIGHT 1 
VIEWPOINT 0 0 0 1 0 0 0 
POINTS 812
DATA ascii 
0.5014545364599883 0.4116886024009432 0.1969677845434603
0.46280495439290803 0.25920122925742817 0.03114124485742309
0.3273013684322166 0.23453938366083094 0.11452374700999712
0.2819706361075589 0.33300612955230235 0.22542379391190082
0.3473846571798589 0.2859389783299946 0.13810421205575096
0.3382924375001721 0.28182304158731597 0.15013591809581328
0.17436070698296646 0.3261125465098189 0.2037833348238962
0.4496827701068895 0.25089989235820553 0.06447801869350656
0.3001265030903113 0.2687069413891834 0.1891821642862226
0.3009177338050222 0.3837251217230033 0.5196457736710727
0.28901696302195035 0.2522342578437531 0.15553453454757005
0.33477435759840546 0.35780168273842605 0.23458178964142462
0.08480187154003715 0.3174882382822233 0.26821442253095995
0.34984051434062735 0.06535347444008721 0.27421923484115496
0.38561860528652403 0.27167237952474466 0.08142809013746444
0.28318055830672506 0.3052012737167189 0.10924882176615824
0.25644718863834726 0.3273621399616218 0.20657737580474134
0.04455900252015965 0.34083662954668625 0.2862173383425386
0.341815374223728 0.27215843643848814 0.19483771091077529
0.033110764300801065 0.3432497278880078 0.31350699625745904
0.3749286261560769 0.30432302639150066 0.1696128054391579
-0.15379170605802983 0.3439204219936016 0.4167255364798308
0.33924502755341734 0.20475637859294693 0.18527898177134716
0.17105372083034354 0.3975962756053377 0.1605163126696425
0.3162378093681042 0.2805145623108558 0.18145821126110206
-0.059819347844808135 0.24748480090589453 0.16786233697067132
0.28585976992340534 0.3134441133083783 0.15699023511845667
0.2888405593107848 0.30603769928026736 0.21138522954269945
0.1930279750515922 0.40702307112781 0.23746492642932537
0.06870886355437733 0.31547616606150086 0.34251478457542817
0.35016086933538304 0.23853241931207947 0.10775742045400705
0.36386444027732523 0.11536027897174961 -0.06872883451094935
0.1683166143513688 0.2919781415649112 0.2946080911921882
0.3035538150874828 0.21908289552519022 0.1340752002041512
0.3071721975616697 0.30773090421772054 0.18089172466977743
0.3280742490913724 0.27329452594808856 0.16331798687215837
0.2825445546853018 0.26889066924982785 0.20538916808420993
0.07043911477074971 0.36418613302019764 0.2983299951069398
0.3250698042338911 0.3054208854106264 0.22269842011517937
0.03861127730493763 0.32211408428588584 0.32207572000422147
0.3140362633055247 0.27035767355981477 0.1434372426191004
0.27495052868530934 0.3537822833305313 0.2289602704142908
0.27769052904959324 0.31673020598023527 0.22237355694875305
0.33401319503872173 0.2852482632134752 0.26378762751230056
0.30882514779420944 0.32191244614378434 0.3401559936479259
0.12169183195180722 0.38378091914083257 0.2805001021405644
0.30282839942626083 0.3278087622196324 0.17166084319535457
0.35752025213061245 0.24628363061339087 0.16598426025930735
0.2973515361250634 0.3531108871786586 0.1592196732962634
0.35374789328803047 0.25006766776326117 0.20001140926473227
0.26316534012761394 0.13717574039141311 -0.03159979864608431
0.37041260081642235 0.2724669397942989 0.025679266413547452
-0.41757977969575677 0.21996051550405582 0.5790454116674795
0.3267719799376465 0.23490188545659407 0.16882091583906345
-0.394249446040277 0.1891821853225366 0.4933238556702406
0.3640471372583818 0.17532985895593356 0.08397637262075364
0.42420064588949913 0.052766939595699114 0.10644549627969013
-0.07254381101861895 0.3643356351733189 0.25763359948813047
0.341219277463793 0.361427896388534 0.31524322103709324
0.2573640012844578 0.3274716692752122 0.1396638604302325
0.31209924287320234 0.308939781563069 0.20183330431345325
0.34489768998230375 0.23966142130760204 0.10519030170206634
0.3485777529402867 0.3074807958195862 0.22983156379734737
0.8506107702297925 -0.15439856649265948 -0.454858977822056
0.3035652876149584 0.2265760777393666 0.1503344819880681
0.3184834119896607 0.3397940618224453 0.14068515659586467
0.33681295758832164 0.29895580031576685 0.19990236227729952
0.2894704160587338 0.32347768301102064 0.22758080650953616
0.5546293613292335 0.015565767750260306 -0.1420058565089164
0.38644126954321223 0.22026955513457835 0.06299311560619003
0.33310235723172354 0.3249459533662673 0.2207014544971173
-0.2151226095305958 0.23498328568345528 0.4248253927732435
0.3005045803405295 0.2725438622896661 0.13421605956574467
-0.019107996577005792 0.3566480280658624 0.3211052913266883
0.35274192634146573 0.3132595069645845 0.28909357297938243
0.2954658642102572 0.2916050275434543 0.13755387264781405
0.11015147951739834 0.3738702078744609 0.21481280011565218
1.0515468212155383 -0.43089384980892476 0.6018918838011587
0.2839751411026725 0.20049872651271983 0.053971103626935246
0.2544729287432119 0.31451580110993405 0.1652024435726105
0.24713862697336708 0.38561949332986956 0.269047037674909
0.23538752320104095 0.2473956228326557 0.27358828439923855
0.2958154113022431 0.28113084047139125 0.15608902024234794
0.973858175419565 -0.47994379769505713 0.662491498098035
0.11837005877146112 0.342606034700367 0.23957979305936306
0.19308532465703365 0.29808623510787413 0.284013375774407
0.3297256327728064 0.2865531337077982 0.18332353274951174
0.08543566008802372 0.35661028090262903 0.2843347328792447
0.3648623464277705 0.2507149295527995 0.12993107237321055
0.3207988975854903 0.19074287088966457 0.23480387656348967
0.05244741437584821 0.32965112597887014 0.2529115838715086
0.3424950551348047 0.2461802008982943 0.15306892242620052
0.3541126167942821 0.333497083820987 0.24745925851075867
0.31149576214951935 0.3067568155576055 0.19648130899579996
0.3586364610181221 0.2499743427418366 0.08232952841596841
1.1025484572548123 -0.41691927698700226 0.5259957393803347
0.027352953154007764 0.34234273786134395 0.3055311831975587
0.11033720134929581 0.35339378475666194 0.24589617917192186
0.32441142898761655 0.236004936340521 0.13252773529436013
0.05227370727996572 0.3219326746818041 0.3828125851795505
0.3722588221414753 0.2531697661182051 0.15993181653756494
-0.4083415521129865 0.15161964222473046 0.7299192728142572
0.35703248133926024 0.26446459257380184 0.1452961567346165
0.44969004977350835 0.21122702851133113 0.30804626583056915
0.3143412938988206 0.25378157724441053 0.09811788418483047
0.13171718643606312 0.31397923702667185 0.3027734667922459
0.1694619461397764 0.2425501676133024 0.2509012310110137
0.31446650753184713 0.2784741055839106 0.18490808720940777
0.02895761399528851 0.3045630102998871 0.31541808529088655
0.12068940086535918 0.22689940204008963 0.14770257867871806
0.39105673485974535 0.21462625697242288 0.10924655924841886
-0.09855422341247788 0.35065314313845874 0.26340968865379466
0.27156196830964063 0.28872397944425643 0.22975938118828765
0.14275094386729847 0.364915110237348 0.2672229348019073
0.13111604798979215 0.23082340863864204 0.25525292913874864
0.32444904076710657 0.2817705312944838 0.1977014140212674
0.05785015281138328 0.32959589162157954 0.2983526099094149
-0.05838521161280141 0.18997970910284323 0.5020139714685854
0.3506260540671349 0.2651418053639816 0.14179010523440638
0.37244837633292605 0.23741807949194538 0.05803778379797109
0.29573695570441316 0.3257367209279636 0.22723599531505556
0.03458921400860504 0.36352908658267324 0.2488733210977614
0.31232516719938985 0.2605280036581519 0.16870344490210698
0.31331562899973164 0.2914251597021149 0.2125110109063968
0.3121693089803159 0.3075396372511676 0.21260967242979234
0.33351615426821013 0.32064512602067907 0.16516404963492448
0.31632574746038244 0.27823145735190735 0.17273211110645548
0.3892394137442068 0.2599478962660271 0.1754503310615263
0.37722799066003176 0.3041764879097286 0.3640964407421734
0.33467950318566864 0.2695592729138667 0.18820882003454642
0.24168216139722176 0.2782202000046823 0.2339725572275455
-0.10005313474383115 0.332606749584869 0.5087225379160429
0.29724934101668055 0.29853897795138096 0.20480070025541863
0.36706262625328634 0.21416276726019134 0.08164153212376846
0.322524212910281 0.22181028416380855 0.13153075123980784
-0.024030950638120885 0.3308742897614536 0.3547673864136698
0.011141138936864081 0.3290613304101271 0.27547335428906194
0.3042242733862963 0.28090423068826453 0.1707746348917425
0.04987148509991357 0.2950895342980857 0.28888826063092665
0.2769772529062635 0.24709223300426686 0.09231196710304346
0.2596278918696271 0.2696081686888476 0.18518375830478817
0.36317584275957415 0.2764289880873321 0.16572008636123314
0.33000280432355567 0.3010420305063519 0.2128589929500322
-0.05961539489868528 0.32130369738521836 0.31945569024978226
-0.04244832284089739 0.4089546180337891 0.1527983667597823
0.3192976661608071 0.3091030290668755 0.27053758648233384
0.30360164433440673 0.3036343208654273 0.18331790959356908
0.24156453319517368 0.2766370099797939 0.1800308863175104
0.29971183082210473 0.2816595967804574 0.2164834865969567
0.0041526247026553165 0.2362711022972519 0.32159294489019885
0.3159631578427593 0.2760213496763697 0.16995707180274167
-0.1212391477699839 0.33326572637085405 0.34952204427449374
0.2907702141961863 0.27316716779225203 0.10976161474575008
0.2827289265216564 0.32147027509169845 0.17464651371581397
0.21302777472533307 0.21180513150024183 0.29832846625214415
0.2992473221385126 0.29926197661144727 0.20431027286025483
0.2861385260208493 0.2952205621245412 0.2028693206825949
0.33861760898841453 0.25720492768107306 0.04722198286427215
0.11326599014803662 0.2937108920484377 0.26961422427359594
0.3213906184614075 0.2710021327563936 0.17092224889468355
-0.052809375440602935 0.210398810284687 0.44654871702431365
0.3196067719049722 0.2809160047086152 0.250584896713022
0.30845790170027954 0.3150962435595943 0.1863165229295447
0.10328456008184617 0.3037951598333706 0.24864341105585197
0.2825824665560077 0.2532262554963154 0.12456498426251983
0.3768513347101816 0.29811833398105136 0.11748101233774833
-0.016722922435462806 0.3287355604444713 0.3443118297774248
0.34989024631795473 0.34349067451279325 0.3161399664301143
-0.097952711193102 0.29370035976045017 0.5925375278110607
0.013438796637927908 0.3638799268973685 0.30019296931811823
0.6325135110252091 0.5079557885882622 0.3058436075550901
0.14357595449723703 0.27217982839850663 0.11446125384549077
0.32226978243085114 0.24595666954041917 0.14004329880339128
0.2908199414951582 0.28074451339495 0.18021448827309428
0.2703008346559841 0.34316976282332234 0.31085809102563644
-0.18165810498740598 0.38474834890794796 0.235200906600312
0.18915441288659451 0.3317157308212586 0.2248487612076815
0.09918540614161486 0.4056874119927585 0.24659411244644502
0.1066428804001589 0.3250540301916658 0.28206403396637825
-0.10679695811813872 0.2505520754685051 0.4852646060696344
0.34918109950776 0.21425088745448306 0.124568761586346
0.31263511783996023 0.2715344256313301 0.17915834408178455
0.2709155357501629 0.34380801167608865 0.23708453664916362
0.04058680602034315 0.32628343151284867 0.3186777984704747
0.30441833278536023 0.2562014306085132 0.18046484513236294
0.8396324370310424 0.9015236433824896 0.09971370219682285
0.11816921486976639 0.3370412151964217 0.24604557092115442
0.2659658907243454 0.3296708593231017 0.19305032415915946
0.44088038816761355 0.23934216557574928 0.1146154394301675
0.27939783017677655 0.27184428234272673 0.028012855740627174
0.31349474172625946 0.30657298949591905 0.2986718042528054
0.3775518204824806 0.259855405396209 0.19856182526758914
0.021588091404368015 0.36674870376484137 0.21658009309255988
0.030056036004594944 0.31170145395452664 0.2764430406249119
0.3191133719012953 0.28959734047691654 0.18655416982485917
0.4254518831260299 0.14355940111158816 0.11292851269715243
0.2383765711524859 0.30401116680835116 0.20745756049491604
-0.1036274976763849 0.35600728064687814 0.34300819873648436
0.3415205778819512 0.25895376627531164 0.15093161765216223
0.33173852651520974 0.24232891067526907 0.2159404688507891
0.33101889804787277 0.257387706254093 0.14392054509943364
0.23966849919713695 0.2961211878743484 0.2580599528594121
0.3205787653662924 0.28345814175797557 0.18272806505964923
0.30280071737949754 0.28574743859408613 0.18310524188305521
0.29769703705669315 0.3680168530638497 0.22274825215291116
0.6695247427710171 0.5028257708084425 0.10739576994753008
0.015286858889481891 0.32192408304106834 0.2926436526221323
0.26627569292750763 0.1830807820476963 0.020494040002475344
0.3679506556181593 0.2623326058632358 0.1436464118790326
0.23852008466730013 0.3137881775199105 0.18001302337555103
0.31425723245504855 0.28027237746610467 0.15642140014669792
0.28758832521292277 0.28912862525734795 0.1818673895232905
0.06362045605207811 0.29701739031766294 0.29071935525045944
0.38379117864350576 0.20512738978460732 0.12232880398326529
0.6662691157915219 -0.37817428696641286 -0.1879883095742514
0.08635582500829742 0.3476724398228299 0.24407460465761233
0.05959696998726827 0.3358998554748496 0.3279917098360272
0.00817112042517465 0.30437563906846776 0.2659680623041396
-0.08548623222992546 0.16025872343686842 0.12583189727541821
0.3108119631525881 0.35874893651774187 0.19291092159269851
0.2987843392128866 0.49924724571476986 -0.27656091217724565
0.44744991390231803 0.18590097885096668 0.21192082407635837
0.3034772595856623 0.2949025670316985 0.18022422771757363
0.2809080880911665 0.3315398502903122 0.2027993865073654
0.36312585621101334 0.6335157696462659 0.3120545157665475
0.28550779519986236 0.26172857077814626 0.18285316669631868
0.29496304195370726 0.24368310810832838 0.0964956428110213
0.30970162716596406 0.2293667109777573 0.17750174874581148
0.32369916978980484 0.29817370026003687 0.22157751309222817
0.033889506790416135 0.33692257522906743 0.30896691711339486
0.31724423428464377 0.28475433359184876 0.21223895165680062
0.2875001029167237 0.06112641519213469 -0.20241685872335324
0.09768592140429178 0.3330497813716278 0.3164181959631094
0.06944793396874616 0.33750772059740086 0.26972912695194395
0.39221412328582517 0.27423729787119555 0.2091881452161033
-0.1639027112618976 0.3565316499480389 0.3621743304937297
-0.11072298621648713 0.3721383593970131 0.5058967212675896
-0.13893207748897396 0.28572831991940006 0.3024711025727811
0.06058780425267685 0.37688768531768346 0.3286509440690537
0.3163092439759083 0.26698590616990714 0.15509950778329085
0.3132173020093063 0.25302710092822167 0.19070289455299871
0.29160028073599165 0.28068860923174555 0.19026399987853893
0.30011921523377794 0.33968171817659254 0.23644066280874654
1.0244289678623488 -0.38806762371771697 0.5766854953720895
0.3179419436997364 0.243438033528264 0.0394448299496446
0.3481184401761084 0.12580594097286735 -0.033500900995704797
0.34403058515624707 0.1959131631059563 0.09707716361491237
0.14852482296473113 0.056332774546788755 -0.18943559218482164
0.2294605453205918 0.2822760107730886 0.15088165101025197
1.0226059095844704 -0.4560770409880206 0.6049784326474139
1.0344848529769024 -0.4531787305855062 0.6053831613213418
0.2276679514174873 0.36653473334865794 0.25498239017036894
0.30755382732922953 0.2993112253496406 0.2067184963731421
0.0523539407830782 0.4069261460790301 0.20396951138400254
0.2247417463966883 0.257768858328177 0.16945935534941725
0.3177821524972728 0.3707798571647203 0.35649745111979314
0.07140477780896504 0.3404327046422395 0.2931439237804625
0.3605836919651608 0.2864614110386867 0.16079767373911125
0.29156796508635807 0.32781731599436625 0.2715841937417167
0.060732597213771555 0.30875095054435064 0.2676539314261106
0.30295786394731294 0.2667989236150561 0.15418437591358725
0.3006658700047211 0.25971530700863354 0.1383454703855307
0.3053442367696846 0.3086126694498432 0.22752845910217445
0.010112422986182423 0.3414354616983246 0.3366291660445171
-0.35246025706754835 0.2876642282710975 0.6860179430691318
0.03845485405048521 0.35936138542032836 0.3605945172096199
0.29172328602447806 0.26971607444961876 0.155719873782445
0.35387948544087067 0.40061908467534124 0.18813429533862802
0.3462945442599903 0.285541208328425 0.18985623392134698
0.31749211498394914 0.29668404022203276 0.20156229061218767
0.3316858665371285 0.272959821306884 0.17318015486485194
-0.03787443449166972 0.35344256571394794 0.2765690273156167
0.3606198504587468 0.250637299022614 0.12836948805824022
0.330437761758688 0.28426616862438436 0.19178334073203018
0.19838562988658737 0.15774961414550148 0.0930626252330029
0.15202895259865556 0.29732651913995767 0.19678146310735656
-0.17460749909454876 0.31020510429047476 0.6852936371355867
-0.10900228926639954 0.28178400938980985 0.21769856846553637
0.48198994237890247 -0.025593848480014003 -0.07521394018269234
0.281975863670354 0.36396411225572933 0.21260119460767157
0.3806304211248346 0.2604203653886543 0.17157067415192273
0.033258976135385865 0.38596512249338844 0.3065131528849605
0.8156025697468863 -0.19641241944727028 -0.06254802959324479
0.3214175588016701 0.25399492411762026 0.1670360507890365
0.389051796362736 0.2931819055522169 0.10871837708933185
0.30592829297594903 0.30899633958318873 0.20883083899337862
0.06426185331164902 0.32674777118273823 0.32348249583652944
0.3049410513979467 0.2908798883228485 0.20151081645630597
0.315006693364154 0.3005555947260632 0.19447897885869736
0.30958962694737124 0.31325956815015843 0.15339178908224937
0.3375055719775446 0.1768337267536424 0.10503917470096269
0.24953970880247311 0.24273811783307053 -0.03434121844054516
-0.2677020722587855 0.23731323100102486 0.5708973093684051
0.12696382854630883 0.39622492866030257 0.21614742599277292
0.2928762380755927 0.2831424360684025 0.2118246738729681
0.2649694699387055 0.2716119493345275 0.16362137503138285
0.49299750307977774 0.26537064873321015 0.10064521846450702
0.27943226959102674 0.31650520215836764 0.19790608873032056
0.3502755259422372 0.22315971943271506 0.09185882850179894
0.05810306231664697 0.31066779800042355 0.37203265305913646
0.12865580567908808 0.26216747569816334 0.23201764488081267
0.11256000306747183 0.3442367965660367 0.2528581924370883
0.34990368260399407 -0.1157208039727351 -0.2481907818638689
0.10145365807187545 0.30311007264693046 0.33411257189101207
0.11595927150010255 0.32128004319056913 0.2807456989995387
0.07905557717431577 0.3822552541334119 0.19937896241304998
0.2554147796744246 0.050340211481653796 -0.18692738824418598
0.32101034613654633 0.2906198415003871 0.20656371264774975
0.37511736987957534 0.22573682766416425 0.17056630995543287
0.21086907949523948 0.3687883972651207 0.35215629848872254
0.3027892893848616 0.2575141694110954 0.19220846388596158
0.36612620073002233 0.34745170928468383 0.33236189432921037
0.18519527865581153 0.3094461912043158 0.43792874039203866
0.33353076505241575 0.40365682646964274 0.34441993148166716
0.264192124437983 0.3111255157363928 0.22164668734863824
0.07577704575984967 0.33782731839440316 0.29239848119185297
0.27142177195682393 0.19993597397628093 0.020509326050273557
0.3665833777245382 0.25159412987497376 0.14707041806535415
0.3341064178775639 0.2930771159034862 0.2003505163589523
0.25017027426073923 0.33743777566994027 0.27177082858912627
0.0768304453812334 0.3452262572293847 0.35058946115884737
0.07448140995765584 0.35392784298866786 0.2749371382678021
0.06521234276183918 0.32851568529189024 0.30922149628055706
-0.6951005462413775 -0.3439911171303436 0.42914493340862236
0.33307697417288296 0.3784633789704799 0.26525320931557417
-0.0013285546273493765 0.3493898153622865 0.3290574913837929
0.348665753692444 0.3103818964233369 0.2296610771199994
0.3534450877096731 0.2867000588833264 0.21034353438379583
0.1038964462314027 0.3784445978637905 0.29182280823187057
0.36308940669695744 0.3617612928045162 0.07735689295971326
-0.19700829160336752 0.3058680378152019 0.5013212614329916
0.21590686545096105 0.31528318221133134 0.25731080489293845
0.32881826858337604 0.2619818158003113 0.15419845898793483
-0.04747847386707349 0.28262637518554357 0.42901400789715183
0.3463881967183511 0.3080867328240515 0.12302636634200326
0.4729093038135943 -0.14001879557361008 -0.20094544329431585
0.313804045034459 0.2892492637262478 0.2004111494119627
0.3648620459732115 0.26802598998375515 0.24199638267415935
0.035919977911333945 0.3535925569168512 0.3101687850466419
0.830266792038401 -0.30138756635696495 -0.05298053208400688
0.09179651036819791 0.3659344299213245 0.2536019136250047
0.30331168780556084 0.27166819770403094 0.15620808623734206
0.14509832899200603 0.36271803382373946 0.2878051283722698
0.30071359780285434 0.34868426359517457 0.3585622482202382
0.3127110529230066 0.22019111602844532 0.08917247736835066
0.06373788978854122 0.2686680855221226 0.37869387040927904
0.34370297444749554 0.3285866394672894 0.23416784794640932
0.2904237811588075 0.2936554996319529 0.22894833138080628
0.07156170362135583 0.34762408311385684 0.3000746547192392
0.013496190039091971 0.28841447219267025 0.39865090438803463
0.054479406912591344 0.31798900471682146 0.3696393776575633
-0.1032907569397139 0.2743332072281248 0.25406429283275145
0.30295159912790837 0.2839884242094399 0.27234809291212514
0.3579073329527773 0.31995599036106626 0.31058001958862747
0.2955126533756669 0.31387772231823874 0.1899367001088592
0.31107133046637614 0.2606471580429286 0.08542446590558939
0.2633099615523804 0.1891623165365104 -0.013568309748819729
0.3461167753672072 0.2511195205201915 0.10314839724668445
0.2677852947974486 0.2821075721941213 0.1872905692724487
0.46365031089285935 0.18618241312881878 0.09010644449554661
0.3283567631611106 0.29881795316539694 0.24094392500060735
0.32504758897658803 0.3008221349958262 0.16011227275686224
0.2577560564592716 0.29402710132592347 0.1301716957410406
0.13790061764144923 0.3495017113882568 0.24909106145005921
0.3864986851818628 0.2756162476575952 0.13515597708349958
0.289261501012561 0.2526325057711176 0.1691018497978689
0.41356023534257247 0.278074662744757 0.18899609211233326
0.048035053130178085 0.2961244303621555 0.3860087717550016
0.06979293382647711 0.3435533036616789 0.35186007857413415
0.06382772561303796 0.2908168557288917 0.33809151679375304
0.40276731348666317 0.0957611202859141 -0.1173414835290032
0.2851664909778009 0.1747694579699015 0.13875871226426284
0.35640030114964816 0.24006511592114066 0.12223293605042329
0.12727080817109027 0.3098231188834575 0.28577414296381676
0.7716544690627245 -0.21512266404704405 0.33264664270521394
0.06681794539079533 0.38833622727305794 0.27817819310686787
0.31934446338328826 0.32021019894166614 0.2560653030407565
0.0782458268033821 0.32988560683500623 0.3851942268923949
0.36466749899219053 0.23490593124947168 0.04065548834580568
0.23389934461023643 -0.02744233708179422 -0.167146305813489
0.363691436239975 0.23646003904360668 0.0995331338570935
0.22394699196553347 0.24344550649067287 0.32630766978537906
0.32506544646724933 0.2610817992652983 0.22506449272252382
0.14522215334631028 0.30971536712658576 0.262117431092733
0.2992884123367361 0.24862368868923568 0.20712408906905466
0.22064173478685234 0.19884973564103348 0.17764922333758193
0.8954112389423443 -0.2341401940083756 -0.06931868804298347
0.3497322364261777 0.20014062132429444 0.2548507577942729
0.2569622224050647 0.31271690526996565 0.20089697752541724
0.2997530057745479 0.22385919700020906 0.12744791496464813
0.28487016690117173 0.31988961764773194 0.1887339479229695
-0.3113655326191065 0.238854945621938 0.5147975191126193
0.3073775516867556 0.2929538472066042 0.1812220285728472
0.34137828616636057 0.29061340317360873 0.17378116784470876
0.5134586255511238 0.12561883587920875 0.005992183019998265
0.3207578797350834 0.3489669420961832 0.1592829424324691
0.309013027321015 0.16911526070423122 0.07065876221744816
0.2919686553411225 0.28889678246954986 0.23242786984980057
0.2473980680354657 0.32246999920329245 0.1595134865294483
0.09480476287032502 0.34800637327967365 0.17005446817813663
0.2747676060276092 0.33708770542551747 0.2581106636102959
0.10355582487733273 0.30740147924116457 0.19595353669740234
0.3342015427301419 0.19660033152327117 0.09510456610604479
0.3716728708251509 0.29174412688516327 0.23297191555471386
0.3002254487445839 0.2923292268219484 0.1874790100790733
0.33036010058981446 0.3001167619037801 0.21057537660422554
0.312099759704779 0.4029840900796273 0.2428636484322908
0.0666732083815873 0.3492592955032592 0.23560739658651642
0.12203501299049435 0.3741938459399279 0.25737539984228874
0.3971022440473746 0.28673199399634086 0.028132491961969208
-0.034507188933076804 0.3161464218826495 0.3444608923045962
0.28948587288127214 0.1899292934257062 -0.034632718175288346
0.08957891145726649 0.3001490619651861 0.3148366658462578
0.315693801503798 0.2711715483456061 0.19132015103468802
0.013605598892723947 0.2672873396640796 0.31850104467203266
0.23022100517135868 0.194746770767793 0.3398198807615671
0.27451321512859295 0.20093269646007172 0.18586235612228563
0.2782643673320706 0.40070826117532476 0.3370022848127121
0.3082217911088918 0.06697702711014131 -0.1353273441008298
0.2913541822137802 0.24789894137718704 0.15836590781565008
0.08303887645327279 0.3064599636082761 0.3329482126625294
0.28263927686347756 0.32654838330230973 0.24803364865506694
0.3234541896497376 0.24639209808377416 0.129093589188102
0.3133907608319362 0.2919789906719359 0.1202007259237945
-0.02708310202302755 0.28686706926356464 0.3701332839983138
0.32835647630210474 0.27687740795281 0.18402857193109412
0.31377201720582093 0.283449597072007 0.18731690419863867
-0.25568435675080536 0.17890644464708316 0.9844031887374172
0.06459002383024881 0.36647370905515686 0.317581583636553
0.31661256453031683 0.3035007542673611 0.18095360601583366
0.30762954866554537 0.30367886665713684 0.1970484934889214
0.3393963988410178 0.2494116470110015 0.14805941093024444
0.3162056584672257 0.3049394526254048 0.23094387547376982
1.0543731389846869 -0.6275976461709547 0.6148405342464827
0.30428939383912734 0.13281726115783954 0.04443091481115857
0.33968210712066593 0.26086260385073956 0.1809326861819045
0.27812651244525455 0.3004520617212876 0.23939446690263821
-0.1444547545521857 0.16456223281394955 0.30470139679670183
0.3445533258151272 0.29566331419627545 0.2336937673987336
0.2785378044884794 0.3306569357856972 0.2487948108005753
0.06674458380550163 0.309849824547598 0.2780101868162177
0.10087379149373987 0.3596075575257345 0.29378764222855125
0.37543067859829193 0.22240164380934857 0.2568749101174461
0.3226524944950313 0.2354949066376264 0.05636381444782046
0.29413505584037125 0.2825508519658513 0.1881049986363621
0.06875346044459718 0.3074541308760672 0.3620139653954766
0.2854390728470264 0.2046217356361808 0.0903246441495753
0.34929592110924546 0.31452000664108937 0.33144017258950953
-0.08592373133419073 0.34720095019163466 0.2831086141192287
0.2688719015398817 0.2540628905189948 0.13869779847595964
0.2553477726232387 0.1809651216964312 -0.021695138456479413
0.0718079077833238 0.33345535008376714 0.3454557384212791
0.3171432400962715 0.35473049817834124 0.33795927557727623
0.23714362349886642 0.3408295266236223 0.21614876686686557
0.33091382650181345 0.1888135429279174 0.14654974531893572
0.31212966379234786 0.31990427961696355 0.15582568649905681
0.32262867760739766 0.30709124212617667 0.2309019401217398
0.4854415633118805 0.18041499347381773 0.2994783494724089
0.2776062410854365 0.3098280167765495 0.19692949687228634
0.30625014858395616 0.3832680893695084 0.32846260384394554
0.9944783073502492 1.006727366912628 0.00638435851536201
0.27886570656536946 0.32648940225786305 0.241613210488282
0.40669863997899824 0.32093918520834563 0.030727997068140667
0.6805717835214722 -0.3089230537230492 -0.15332699964025664
0.3000398025056512 0.281308292171488 0.20400613373935528
0.26275803043665746 0.16634162169337685 0.18948392148216442
0.33151044885542547 0.31987919383566066 0.3111638427261312
-0.006330465682509612 0.3077665458598773 0.23423942129338116
0.8789207577324021 0.391129057051117 0.8373577902649174
1.7987397553212645 -0.4341414431705175 -0.3526457194885495
0.2528688614904411 0.2375337907913746 0.11245562703113876
0.2836711913156904 0.2724887590914591 0.1275472791326564
0.21139280231355428 0.28325103485244085 0.24291041615904874
0.31171827351499815 0.2898507722854333 0.23767695081474471
0.36058668593126697 0.22485542106727507 0.17177434816986192
0.03747797874861192 0.3265569703873865 0.31662510846817327
0.31092200040403384 0.29783879061494645 0.19075443407642467
0.38883291752924265 0.2952215208328681 0.17683169004197907
0.3289899122343769 0.29826312261761245 0.16009079286388328
0.040779895503533226 0.2984886321547151 0.41325502178796114
0.29665192340738145 0.16354756750695287 0.06344372664928244
-0.4051766589512056 0.16786357861721513 0.7434591969816893
0.33843670553022775 0.22899243207746167 0.1419593386348481
0.3195252966289388 0.254451886671319 0.15612267687745884
0.3812825056953386 0.22623892310841143 0.25268416056451315
0.3650306241915757 0.2187422042213143 0.09405575781218545
0.1169371330688449 0.32414261404287004 0.2943034131932336
0.3623660523415708 0.24302711071638328 0.15064604097440792
0.3208833393825614 0.24197356940214831 0.09918791557932138
-0.04733940215683674 0.19253519289541998 0.44200433592915545
0.2710848409305413 0.16661689965667392 0.00056083416414765
-0.4370009531196928 0.19288554445964223 1.09052975208364
0.30955912416501974 0.2865957391825589 0.21969115959446128
0.20560660879094428 0.21815541221749868 0.2119063843668556
0.3584797224833949 0.24300153681781467 0.17888912020181635
0.30325945446969627 0.38761942091629464 0.15506456765595544
0.3335788614503059 0.21051755551079054 0.13847791533031284
0.5548653111366804 0.19903187117378707 0.0662489635709278
-0.05945968751535702 0.38552585390470995 0.26013459291520746
0.21173487664378854 0.31922731801418536 0.24071065525122037
0.3021907603482248 0.2114479366388764 0.10001066203724918
-0.5297237583832555 0.2568857612927644 0.6196674543401741
0.45910883979874484 0.07772712727825137 -0.14062694709151913
0.30021640518430104 0.28508829581383566 0.18799517147429867
0.29546095075855305 0.37434732769773404 0.2639085978858873
0.323051025123533 0.2814870435434216 0.17017995374231987
0.05130281355928901 0.3305133245620766 0.34383969623834787
0.38683333334560643 0.22242068278816873 0.015682339616418517
0.3068809090306388 0.15212213201836278 -0.021195562984246408
0.6109422571768448 0.8634223433255528 0.6833653471361174
0.06879312810073657 0.26946039375511077 0.3894893500751948
-0.22492271500203742 0.2704580268934791 0.45293871401432284
0.05938396720475225 0.28675945191014307 0.31630168629391164
-0.06532685625290924 0.4946659149306072 0.2554849911352619
0.2873774477583311 0.32354895702499675 0.13898952812520804
0.4106113973659262 0.2208665607877549 0.1712726382486096
0.3793720713015176 0.07037475946373206 -0.14745531150265379
0.2772185198197974 0.32037968108070913 0.15949864173526862
0.44367196039073065 0.14637288522001768 -0.014684891663051758
0.31679774186841314 0.3028903186495313 0.22784468028231686
0.8677566306525364 0.2570986524392538 0.4930344169727334
0.3289275185672409 0.6213923066170821 0.2230778229824466
0.3254160135738857 0.2857609029868229 0.1660875414833356
0.537946377532819 0.5497568444779688 0.020591684390950604
0.2938022193234957 0.30776937063893683 0.1296343831122755
0.2975837433051538 0.28909908423443653 0.21128699956335595
0.06140978022429522 0.3228126878778994 0.3582771513931817
0.554733503071958 0.190290300670938 0.07631465711176588
0.32063531191931816 0.2659417129147812 0.09495322658767691
0.16304244797184708 0.3617246479000755 0.19376336287609774
0.30965326459704556 0.28907716845760945 0.19993198638908893
0.31066831234110737 0.29835329305382174 0.20430045944033282
0.37785433397471024 0.22119890989604585 -0.010032325790646723
0.08738392865284084 0.3325383434099365 0.422853914319262
0.3208070450697562 0.2977639771382883 0.21298104445257593
0.3288075553792993 0.28043376514948193 0.16886021359606218
0.32203207553915547 0.23851688237455448 0.16848851555832312
0.30977820238074116 0.28635371636926266 0.20477628631095968
0.3047964888924355 0.22832976431240581 0.08621101896385142
0.4191437942338183 -0.0057339322474518895 -0.17500086885318922
0.6757049151990344 0.5027669198397859 -0.07178246901185048
0.2084619776372989 0.3527383509695454 0.3537120598229251
0.3130597849768719 0.39898922357028255 0.15739147070954118
0.41662332858538775 0.17018859513558482 0.30817643834305386
0.24953420147735983 0.15660233932638334 -0.04841236385971115
0.10053165973576483 0.36090005765026945 0.5442518247239718
0.3570258466813243 0.2417290913321608 0.33547693801222067
0.3649007601063943 0.2863214925484101 0.004659296488711107
0.23327921849895006 0.29831843605688846 0.11880957741269071
0.325513865891935 0.22911957957636275 0.12385997779426816
0.35729768156352293 0.28987137830543475 0.3048254338231686
0.05275644748637376 0.27518494312496955 0.30435359451273314
0.09587893041363316 0.3756151581383733 0.22857274809366857
0.25692244384822516 0.2809540178963914 0.24377020778561587
0.3620817826001286 0.35037060256675545 0.36517684047878163
0.23547781872338192 0.2697777870701543 0.05206846802937548
0.2986036611403051 0.3089038380707052 0.21019189105635405
0.3414441070405587 0.3057193484879974 0.1583772312517766
0.1203176933047132 0.29822609625391294 0.19819055062518487
0.2878279694402437 0.27453897117044335 0.17426175049226345
0.07039506178249155 0.2674731798709047 0.3358341662286932
0.07653441584142229 0.33914403348939004 0.311001318850316
-0.35413119812326954 0.167380710687695 0.4578359230063711
0.31951837263338234 0.2674204732689702 0.22105689185372057
-0.184730334073123 0.28111030604024734 0.5120583918850912
0.33698559337864253 0.2152698200455916 0.19044840473409863
0.11795929388972581 0.2909940896690131 0.1884399056795445
0.26909983447940533 0.2695113165138139 0.1714627332177372
0.04149262512345331 0.3123638761824168 0.2828099238684558
0.3464220141859755 0.3657228915584767 0.23981564785904652
-0.47594494505133866 0.1857783061920486 1.0340869878934313
0.3629976942030311 0.3166373356197738 0.00038448517767619705
0.33486985549328097 0.28057566672288203 0.1321286993861719
0.24947581363758786 0.26802212540363257 0.11334273625219282
0.32848339731114606 0.20751461080962486 0.14559587819151432
0.045606388383561125 0.33754433841804143 0.33131276198312776
0.30025119762184715 0.2696547272189349 0.19906090558964706
0.06735592088332965 0.3767852627527617 0.597798436997607
0.2999257554830024 0.28175423849683057 0.1712271650903574
-0.019753218584980914 0.3486499528478646 0.3666374724440118
0.38875427199562296 0.3120629750265209 0.3638320958423833
0.12761996459641978 0.3147158246098627 0.18649427194802115
0.2861099989573148 0.3014204922684911 0.2493602902905252
0.008615557677899233 0.314126012144456 0.30931439596632515
0.3093552188008175 0.2569234793530484 0.2097018641462256
1.0695472316735959 -0.07463970431768985 0.14821632511841187
0.6138592425459422 0.9377417635228653 0.7399687283766525
0.06092732762675723 0.3231696980113412 0.32117759868759777
0.27783214690303737 0.39990468501545706 0.3022662855308056
0.512928734832613 0.47830077884606226 0.4296610223462949
0.3668940084045573 0.25990349563294046 0.1963456729612858
0.2630761226789957 0.2778543551566628 0.21271471070936343
-0.008324847924711776 0.335372255696484 0.3227585436467706
0.07665107992679054 0.30060630481204953 0.342982453011075
0.3240974076116174 0.3122153583808256 0.21234211649075974
0.3100487578174267 0.2843653760136817 0.19003052566840495
0.017449765338810153 0.32585905345403887 0.33640706145615695
0.33461290617296413 0.2701797562477566 0.19378155477333792
0.35334514526689986 0.21996027329079482 0.17314019050499496
0.3763493076527169 0.2965170645191222 0.23654018149457556
0.3127832100874173 0.25931066841208406 0.13833519177718756
0.5180861918505002 0.34709921369102403 -0.4534610570890152
0.3276155192096155 0.247547329390585 0.13809408871351536
0.3580218313488217 0.0810993339227366 0.1851068098597466
0.26565551059469783 0.3353811559968847 0.22292655813792805
0.2931246515715884 0.2149671046259698 0.09769874087464814
0.054937849841266484 0.3443693703703161 0.30694473964697977
0.06635340119689204 0.32213219065255316 0.2901688781572602
0.3193053559756578 0.2804314555367853 0.16619844412676343
0.29074895605711504 0.31670301409431545 0.1639314226553097
0.35921423529117646 0.35237154184861197 0.3748735063082904
-0.15068484588887543 0.4420580679407493 0.2959970337112168
-0.061770369484008825 0.275421111584194 0.26474075819071174
-0.38361422772948117 0.2681881326336395 0.868019364752513
0.2834133358744566 0.27264727224768137 0.20573701198856043
0.019597179952384636 0.3138103551511904 0.3103695366131376
0.3433229050381783 0.27487559562129604 0.2068620781203805
0.323595952657854 0.2674362523326437 0.19396810802803088
0.3198701057230693 0.2956991071393986 0.17970875238542305
0.3114317069036048 0.31108957173825047 0.13965181807802196
0.3211264348151701 0.3783926533211712 0.23893640510371483
0.30602144601618875 0.259797661461306 0.16229105757567197
0.31496132425338885 0.4229769505084562 0.26737556980607735
0.4035018080022468 0.33243778954411596 0.23392622821711484
0.43763256655310556 0.2906100707411525 0.018903777679042832
0.3138043514369997 0.2847792200144852 0.16753078649023223
0.33410772900865027 0.27949557459675134 0.18225253325769586
0.3264496142640496 0.2623590431570335 0.19214046672558993
0.06085604444308501 0.3421776984738045 0.3006250598648421
0.3056138114966984 0.30227580461419734 0.15852041089561908
0.30730468444275516 0.281471337513139 0.17987867808261626
0.33084940616376457 0.36416565466353745 0.23329526672611678
0.27052037833126974 0.3117490385377266 0.24842121552865137
0.05841148809122387 0.3528310393205061 0.30230888990558924
0.3420398680088965 0.27226571201603633 0.1730872357659905
0.3599557219185101 0.26626847605885473 0.14879885711275165
0.3245781291208232 0.2515043905252128 0.1820034063071887
0.25391367020903033 0.2602409321588084 0.20867341023134145
0.3119084009203732 0.321065978913154 0.24914766003394107
0.3895193865056683 0.19521412374967895 0.11471149852648921
-0.03128548666052211 0.3629800782481567 0.30811693002510765
0.315789465640151 0.2514913889889101 0.17340754728778052
0.28628121090926584 0.32652977533984995 0.2224045798326273
0.28457800040655457 0.2851967505121138 0.21170179244847986
0.3091778384440005 0.3391495803592477 0.20558822557136125
0.11904570945137039 0.3281353567629992 0.2482083165904072
0.30695620827765424 0.32044043808838296 0.1904549571044356
0.29674772931916493 0.3495484247430767 0.16936189837278448
0.33394493046975526 0.2415975651497888 0.030129727875930712
0.31871646863937997 0.26937644990964316 0.19578282276907544
0.32863682920807946 0.14207654098782996 -0.0979356855233533
0.2324676250051283 0.3631261321802981 0.18514468330521083
-0.15872566402980226 0.24106933315225376 0.4469381960879133
0.3558282535538808 0.10740785777949213 -0.09253887892586476
0.3152798257568463 0.21558326159610885 0.09409983215165596
0.2980083531630271 0.2899243312955946 0.19238893012303038
0.3073039853249213 0.2784287590602901 0.1537565452027252
0.30921342904213134 0.27143967010655956 0.2111136754121219
-0.12460121778840971 0.2754243204343396 0.2603782576195499
0.3421418100573277 0.2157981495283252 0.1604353625142778
0.30635075175814563 0.29296769750959584 0.19677637748814902
0.29913045994804577 0.3143162544848792 0.17488117615441467
0.08430208716389131 0.33037316628389135 0.30708936694716726
0.3377407114334403 0.22679725339781953 0.10373198444753484
0.3210323131532533 0.25716588242545413 0.19461183538308546
0.36500068672702923 0.22727703084527207 0.14821595459333992
0.24477603409661697 0.2979392051394285 0.12028155177418398
0.1999530031472716 0.3159071160360156 0.43218061448351364
0.2641149889204968 0.2852544162214201 0.15334140767728854
0.33829126127768916 -0.002376104116066813 -0.14999840377632268
0.313785225918906 0.247171804465097 0.18933951084925127
0.3799226782760172 0.2086242107641425 0.1383988144431072
0.44181042525184466 0.29032390099888516 0.27861292438073804
0.0436230874061323 0.34456727747291893 0.3869551246516778
0.3159802428420164 0.2082676927646787 0.0820801325529743
0.06863770170836858 0.3361559052551968 0.285032922317086
0.30163320813923633 0.28451695652520925 0.1891524371418143
0.3926649010788026 0.19069776309763142 0.1364297812614268
1.2206449191721873 -0.068489088185828 -0.3602223940871738
0.07100548806539564 0.34257194093541443 0.2986976744366814
0.05288101019999658 0.33711843598521796 0.30956341064162984
0.1642277541073156 -0.08903727578785947 0.267448821055126
0.1580314873907298 0.33197217764856646 0.2631527917702954
0.09862601632809742 0.35455651178241965 0.27175100096593496
0.05948272592817716 0.3152415820824501 0.28431755884002996
0.35384987076307084 0.2517900809041578 0.12725448722659394
0.31766198617769703 0.31545404454234927 0.16139477454393614
0.2856726780286323 0.20744960135196777 0.10567663725697685
0.4195280238798489 0.36058886026134473 0.15504655578072857
0.10649713014659312 0.37870201403535475 0.2767002889706731
0.31898521691960013 0.2524879157404314 0.13939690104746205
-0.16533529783947642 0.5064979475898213 0.07676966602333835
0.29400551389140617 0.2655783628761128 0.1917876212706915
0.43478338312304743 0.08538181801407063 -0.05245989646068949
0.14988580964136133 0.34133624737816604 0.2590088355562301
0.11781838866185979 0.3122399325144727 0.32033945933881114
0.315507565731707 0.2813154167371863 0.17479693317756073
0.3615809319185246 0.2496170832302198 0.16845751247767282
0.31066631158012115 0.31713006147332123 0.28817789078459555
0.27573052439106505 0.21284311561404934 0.1178365043737557
0.3287940408591936 0.2889157588321041 0.22332955573001811
-0.308152766536665 0.04199788095976942 1.1430016933814784
0.31922492252174095 0.25065681740395007 0.14395696132399394
0.24026087882927527 0.23636558724155066 0.11546348284835517
0.08160547222291825 0.3137934933985207 0.320254205583808
0.2990228060101572 0.2973966107993249 0.166855477468971
0.2986102565380122 0.2715617774057364 0.25935983555930875
0.2712541232675676 0.24870338145740334 0.22558048482594018
0.20300683798052432 0.3433699345448815 0.2836341642575917
0.09410428609645294 0.3098119191988644 0.14906508225571713
0.2822082034069666 0.3171918853697804 0.24087836520916994
0.3513283199277595 0.250316461121713 0.18454794324317447
0.2939693611436667 0.29329739983566583 0.19147933415814578
0.09381475467483824 0.39255546951420683 0.260670143402308
0.25913553865800054 0.4004530889433511 0.1711103529371769
-0.025784032340737895 0.29559411802300417 0.3006447077669634
0.6273454363854682 0.45972214996575644 -0.3974461121289323
-0.15811171222880205 0.2799177850509267 0.544540565549454
0.2895975628238432 0.3080340230541907 0.14081842545269296
0.031313517826148995 0.2827019592072588 0.3360649116052059
0.07035868773563436 0.33759865230061337 0.3103710129746844
0.3175643756335802 0.2731372099555358 0.14081060949840207
0.276009321705061 0.3285693405208576 0.19638834218261536
0.24703429206377336 0.3454338527328389 0.21445819682094225
0.07662929888753922 0.2996821686020894 0.3788420462706341
1.2263101290922407 -0.7264728017472919 0.29253930613572265
0.3155725954778461 0.3374440127101366 0.2497362817412352
0.2946458187772123 0.22357137576045716 0.2443285682095535
0.10709259465610899 0.29128314661625154 0.34532008391742863
0.30775284952460424 0.35576201253530826 0.20385524063047455
0.3232230196316692 0.28675348144116697 0.2013473792590048
-0.024295535005393276 0.3058816436786742 0.36689781869023363
-0.22604755093561835 0.28478994995836615 0.6810144450090263
0.3102448231218773 0.29672664339382493 0.18568357534581992
0.34292330351892986 0.25698893075880846 0.07569346414398126
0.8837553023286375 0.7736731741249514 -0.1735122264050517
0.34370724909285855 0.2634994461469944 0.11745875292159269
0.31602961677381813 0.3937717282214237 0.31674526945792536
1.0485100624291732 0.2228024124476775 -0.07053544357535202
0.32663958550132577 0.2769273749132708 0.1920673773145012
0.3524561350668307 0.24562985975083507 0.2131313490405944
0.29393919394340173 0.23951641570948823 0.06656140765920782
0.3876990615156046 0.2607051402747942 0.07464208629441771
0.3200610055182267 0.24982613576335666 0.13582103993572048
0.2725775561950172 0.3657824501130449 0.21334286551189052
0.2552461253552849 0.3356783350666319 0.3791378554817868
-0.09851263676753774 0.3117231594052612 0.2508185775618159
0.34451164345455254 0.22780145581523925 0.03666717983982437
0.33452171316501733 0.25214555775491476 0.22191058437478262
0.3421801257039192 0.28561427251528926 0.19411167127880447
0.35935976677718884 0.27325380341636674 0.148417540001617
0.3143344411897857 0.24011303906345915 0.03632948678608727
0.4651058481515804 0.047189197290123275 -0.05449201013630045
0.24224410360849902 0.152129163414088 0.0010573813650438524
0.24610969737457822 0.29790922028968225 0.2357112360531204
0.30508358523604784 0.2846999959560321 0.12362358266085494
0.3143468378966645 0.27657362267143526 0.18230697261020623
0.33564532322293417 0.29594497964205857 0.2359882742769912
0.2727791779672657 0.33445183882923857 0.2368448745489502
0.11305695393483006 0.2395809493643668 0.43277782582904933
0.3357570288916918 0.26051398137229853 0.19881086625598243
0.28726871879383964 0.29093817186043225 0.1280353497657245
0.49578189348908097 0.2692394668293332 0.3283129111818539
0.34861224275240943 0.2926488214002205 0.15159974783190933
-0.21301436455615885 0.26394517842861376 0.48832382042832023
-0.22150223833973826 0.28323386131796724 0.38672687612961454
-0.8371347264476015 0.22187842066756502 0.8229978296336071
0.2656287125962109 0.31137099272363855 0.20446741351031505
0.31145688723034937 0.32125088168734806 0.18871195270102703
0.30888315271428723 0.37452696494983684 0.2572712060673723
0.3138976984838848 0.288869497093998 0.1807313030489297
0.09910539564648957 0.33757231173842683 0.3085171715528787
0.27764479290536315 0.3319897690028597 0.17051212426787288
0.39018916359432865 0.20269443211233806 0.09753621100722398
0.5145233209977533 0.2053765312343785 0.17725872289884137
0.3323540694837277 0.2653871293163803 0.24897217812861072
0.3993294425888081 0.25055834998512694 0.15762851681067502
0.2781247882242752 0.31941170491791127 0.17218731155612943
0.0027273101967182356 0.24437410186644115 0.19564354364173653
0.387827430712548 0.23321962161082865 0.25142884730826154
0.20086901190205708 0.21137287755573198 0.15246769989069264
0.49755218111698696 0.097639443026182 -0.3647357752424796
0.06446308859770511 0.31705883932950485 0.30545059626265925
0.322565328890164 0.2909836286541889 0.18874903123497688
-0.16691696637582254 0.22061804289472775 0.46515082900626226
0.29990964876316184 0.285289807558712 0.194803013646208
0.33764256636882806 0.35873292366486 0.23861937806101707
0.3427662887397389 0.2801303090567018 0.2056343469401014
0.31595945664648184 0.28831532158669404 0.1852364894094194
0.28839762265471336 0.36973834585351995 0.3109167206812913
0.07473600997121821 0.29558376221505966 0.3639598278165579
0.006736185569536701 0.354382490440301 0.3123796858308623
0.3483245288628041 0.24929333201384907 0.1342869709420853
0.08839879708411047 0.3285115766428248 0.2732207230008612
0.06805582856205206 0.3294632866108316 0.28570580413691005
0.40702624160380196 0.18864130668873713 0.0452761219441129
0.09673915557937107 0.22834414543564208 0.2287849505818258
-0.014329692606736444 0.37594968900327785 0.5720400253118214
0.12137894051980425 0.31403972801373925 0.303905508598433
0.19785671795676762 0.3030894116243985 0.2957757468923319
0.24182846601580366 0.3166365641695563 0.2759421058304241
0.10070935165882133 0.34339154052449317 0.3224364574672052
0.3218913813760764 0.28920313043903434 0.17256362084559385
0.0594200034174861 0.28131672453375245 0.35475399162689314
0.3262010344473367 0.22673868548787368 0.021061288796644817
0.08135047261642114 0.3408205005299436 0.3037278601568687
0.31572599420303504 0.17222426107512945 0.0856121328318693
0.10165034110825388 0.2999922723239763 0.2847487816445664
0.1333837295224214 0.35653198835956346 0.28310154193280823
0.33751211932147385 0.10890744986538436 0.016412248279863206
0.07592327387943953 0.380324335379683 0.308174176984906
0.30806381642571523 0.27939670270981765 0.19018837138514755
