# .PCD v0.7 - Point Cloud Data file format
VERSION .7
FIELDS x y z
SIZE 4 4 4 
TYPE F F F 
COUNT 1 1 1 
WIDTH 814
HEIGHT 1 
VIEWPOINT 0 0 0 1 0 0 0 
POINTS 814
DATA ascii 
0.28077420353537264 0.26372900872910066 0.18589240291750286
0.26965949154080704 0.29580477833225416 0.1736885242742119
0.2834837229997902 0.2912863119470046 0.2501786597617581
0.2688454234040165 0.22450657748260028 0.16628658251732986
0.4327200298524616 0.06900579241643356 -0.47312478171338057
0.2593184133381925 0.2820009513811641 0.20699140036271046
0.26953513422350284 0.28385734655610406 0.1877015384494456
0.1883840621990771 0.2114400795851168 0.05679913817645854
0.22424215265732528 0.27281685368279796 0.06466490776625733
0.25260820922082416 0.31783781933940247 0.18687633316616825
0.29902605861960296 0.3080373073208875 0.19607379430979677
0.30138981411978705 0.31149402519477576 0.3301515906213979
0.27793059546047516 0.3016859311817939 0.19940226851565512
0.21002609161249097 0.3200104079978985 0.20820881031056615
0.2623911021740639 0.2727192689880269 0.2056411216579619
0.18459600470043824 0.25569495557239463 -0.22399719381368755
0.25142147155585803 0.2770568770941537 0.17757650982397877
0.2284810546231597 0.2940689048964771 0.28823374350430697
0.2994789566446343 0.27655279020811463 0.13241735034566204
1.0121796478423732 -0.3285670799927942 -0.085838795541747
2.28214540214384 1.6117739819983683 2.093074760361418
0.3884047072328656 -0.005174984468084176 -0.12441616498341546
0.3258561524770869 0.2897437441553308 0.2299219361049154
0.25060035978447104 0.2866470944279058 0.21947995712011448
0.3227186460276812 0.3308026053269799 0.4216796131153444
0.2168350678134061 0.23540154965401427 0.149692252395198
0.22116228638904545 0.29211225322396217 0.257649226483494
1.2960292819569474 -0.09643231826944998 -0.45217949117096623
0.2861322669933202 0.3992493607795069 0.3686568004060291
0.371110638962449 0.2778220112949583 0.21471844472240775
0.266830071478239 0.26874532836714593 0.15614480048677137
0.27617516768765427 0.18590516926613532 0.11614375255587106
0.27565745572422884 0.28803535299977057 0.2083663443848991
0.28190662063555294 0.2614536535665195 0.22468293502728898
0.2720314819117391 0.2766045386833156 0.19818513771288337
0.326659319785108 0.3309974715862296 0.3617322713560611
0.23743856733548796 0.31402558909729805 0.2066947989809762
0.20039964860738735 0.2883896042679339 0.1447947160628189
0.31321182265790526 0.27813836192717645 0.2500772859473983
0.2500664333925897 0.3055641431506899 0.2245288144523272
0.27087430537929436 0.30112192799445836 0.21880005826210436
0.27315396166324035 0.2887836104629571 0.23306286274824117
0.2616309620277377 0.27471216390696895 0.21409606583389973
0.28861658251369704 0.27550877908301175 0.08243788020386944
0.2574675011276213 0.26408326067220855 0.1860662884230635
0.25497369110222223 0.26493015081413773 0.09950329364831134
0.22577982913514916 0.30893099349516717 0.22533685509277745
0.27408175876786345 0.3318730175438418 0.26673945726503234
0.24758738032920746 0.2847662219841425 0.19925593219238635
0.363172416756683 0.32163775150335994 0.31297692265472676
0.35511186498982283 0.19800250748095038 0.10882445186319956
-0.35214479196859827 0.15903293066531887 0.753054780415809
0.3843064752961425 -0.06528217717027474 -0.15970680809112991
1.2065405980362414 -0.05730919526689604 0.5199253805064643
0.1951173792816121 0.2741684241901794 0.13516695477484575
0.2382040390682505 0.34129940649347645 0.22036238918514073
0.3361983800283497 0.2709277195670552 0.1805267613993351
0.27143721222006434 0.26593626878155874 0.06872657069834531
-0.05239660458778417 0.3056118274435278 0.5059510425213034
0.2610094832051004 0.11213940437099268 0.06341872502864021
-0.08631253148303131 0.30983463499248387 0.3704094809994558
0.2964136123765684 0.28056825458439505 0.2032716040492346
0.2601648333666162 0.2628265367790732 0.24916921591832875
0.2263470518620636 0.325488756865866 0.24814066722788652
0.23027130663048467 0.3235954843698323 0.2442137506434392
0.3278008861636579 0.26291417795856376 0.3485566025542113
0.2873590128448882 0.3004549518888382 0.22132742720128817
0.2732546497605881 0.3003497043394816 0.22166020239643558
0.26114482235519176 0.3204570381049763 0.14734470472214412
0.2942539108037181 0.28625098582804753 0.20041892189789223
0.263731775277094 0.2748016623850589 0.19786097311502715
0.3858583433624858 0.29594656789589635 0.2936942512661176
0.21104038761450283 0.3088402277814737 0.24952238715587782
0.32080477733940427 0.3008009269578622 0.1576941969779
0.2816635897041806 0.2864154823556362 0.2173368276941403
0.22168655900196654 0.32095183061710486 0.3018505974552852
0.26319881179105664 0.3159024851908896 0.194182233489812
0.27088048008880605 0.32984549715575895 0.20636695466878052
0.27130922446289674 0.2768324245720635 0.20554912843661555
0.24236463877242898 0.12357314894622107 -0.09655956301801893
0.277767307441394 0.2684003229819041 0.11115293405953253
0.3646202746048175 0.27212582718789236 0.20652121547088598
0.2493639898673905 0.26921546312144073 0.17052032854579124
0.17725742440413228 0.3143990965242267 0.2388402880980891
0.28876656635482334 0.288691420814601 0.21908393951207472
0.21491139251119762 0.3324358591048906 0.19788004900088652
0.18449101650078603 0.3350047714870925 0.3266967264307823
0.26627480365618794 0.299308836289228 0.18976131985874645
0.3223766890962736 0.26468650137159955 0.21333940693600084
0.4516963016567104 0.2419790240703179 -0.0061415825217778774
0.3209272504386149 0.2849177059914041 0.21438485069508317
0.23144162632220855 0.30614279256326427 0.21188807480038463
0.268881763335969 0.312528861421427 0.23878607107364758
0.4023685046963834 0.2667597907203856 0.28986012268406114
0.2621027020047677 0.2874557855939912 0.19767623380863597
0.23228442651696923 0.313096582840501 0.19364425580357647
0.2938018747796889 0.2578211796891168 -0.016377303712971525
0.28021015090791934 0.2845304063258993 0.1913963491140862
0.8868916092437757 -0.3557910727576399 -0.1428865706657234
0.2092044680776155 0.27713398601068207 0.22032487135368228
0.3005728336994338 0.3100266473538369 0.20498514080694008
0.24815984535206326 0.2542794150427028 0.226680721675109
0.25831329916816514 0.2859061552143203 0.1481477454004505
0.13428565954214378 0.3054342389012845 0.2252576133205082
0.3543805738159165 0.34167247309736126 0.2850462153173936
0.3317370138857285 0.27900519139259927 0.19630389711797136
0.23823856810707866 0.2586538244342478 0.13881825129769254
0.33591664035228064 0.3028926313722593 0.2866774648252317
0.3497215419169777 0.27422008405184783 0.19036673969840479
0.33928649343877737 0.23631317716575495 0.181880472168217
0.22098907011135793 0.3383771401171458 0.27608153846102823
0.14525319802294234 0.3889438194950685 0.22056112686615847
0.26689094635072763 0.3010560717122104 0.07711206112404057
0.2577446479706964 0.29512822585542153 0.2605788506181739
0.5423234395232441 -0.17313064882870322 -0.262156816765696
0.31385549608205565 0.26420889199742703 0.14710504966112126
0.20960167088020398 0.298025704151911 0.24142086351147896
-0.03812390137719035 0.3671327885804203 0.2888298567797989
0.26255111665285824 0.29538069800290145 0.26303566602545914
0.23746813466048877 0.2096657667070474 0.17450009530051602
0.26581816362060806 0.2787167278030438 0.20197635896316513
0.24384871523150764 0.28895226254374506 0.144701161091092
0.33554608724234924 0.3037010055893745 0.406935532495865
0.24175546270717518 0.2330970560401937 0.11352187985661999
0.2965443943844548 0.28377043678699465 0.1316895496542969
0.5198562849574415 0.2468277118812523 0.1027756332923957
0.33437927981552207 0.2598045714531736 0.18205274402748728
0.2666196731356223 0.3271397084167518 0.25237620812944783
0.15272850146574513 0.32945141628675856 0.2202891054841416
0.28494503640195035 0.2404680375698547 0.11193850323383003
0.21315868042921693 0.2720991305437508 0.29098051795426727
0.37820460661231436 0.22809027807210214 0.1628393723671877
0.3113382446896651 0.29366904680131256 0.1940460599663254
0.12297960177400569 0.30923192516885933 0.13718900344318286
0.26302104217351996 0.30802642865737084 0.2082026065708078
0.16609533022725032 0.33809494383098126 0.26861351734282835
0.23846816788639558 0.26711442266042695 0.2187884287307611
0.29834174685117887 0.23457372645333407 0.14020559128222487
0.24942603942227493 0.27911572187434786 0.3144088244649197
0.25694203592911435 0.24141621865848606 0.03406040082026607
0.2706260607785538 0.2986471956632215 0.3254251581700487
-0.09182879410970202 0.3080064451024782 0.3680299721773963
0.11087124154997241 0.30888363542277375 0.2639556605134885
0.19537521998881857 0.29609963632486824 0.32638847994752496
0.18308602576269095 0.34373496834570005 0.2615019377684291
0.2518627651645602 0.21866969724223395 0.1467351229829461
0.2483711989217312 0.3442156534923697 0.21005898838248527
0.2681532743400936 0.28751182694404065 0.21017079089830304
0.3071409023745275 0.31788400473250533 0.2784262721905577
0.13463489084352886 0.3411319875293941 0.31984804181257687
0.26634272757127064 0.28335821990975774 0.24111498778989926
0.26595612621269993 0.2994594380253659 0.18982604958762295
0.24830637961977686 0.36871790949581396 0.5199178657790071
0.26598664569687 0.2736423312421863 0.2226704478379702
0.2673532022004963 0.2781192982868248 0.14489403292485292
0.28283768439700907 0.2445471914927282 0.1122587738600771
0.2653854081873135 0.2722795574275665 0.19241353787948867
0.23898517382383488 0.30861401528652266 0.24760585195269869
0.2595422204713316 0.25824419900817475 0.15255048315604824
0.26180349695255245 0.2795272168591225 0.26553494807592415
0.25678327626769715 0.2708314457445056 0.16552474071374945
0.26847922999655793 0.2841643783171577 0.19092292809861533
0.30373055700580665 0.24588129328937214 0.15435337918522407
0.26419122837282316 0.2565061007614986 0.10986487776310128
0.2750589574293656 0.2713366459460218 0.16026584534404265
0.27508949822545503 0.3391250471460694 0.2584139306694908
0.3411249676728687 0.21387265531959088 0.13284627651628966
0.22255529048133837 0.4056426554097641 0.3646109447158068
0.2954671074635371 0.302591008540702 0.26150891996411474
0.25373405105045777 0.30273792680529255 0.22141868775830176
0.2641763341437837 0.26762100398661914 0.20282331931358044
0.27074429798516064 0.29634386741459195 0.2686339251790173
0.2906597454111619 0.287093046590158 0.23243730291463294
0.2832541046953736 0.38672786647569524 0.375804493014698
0.2735801564174949 0.2611811069914438 0.13742243985659286
0.27800682262585497 0.2834207147205916 0.19657154347741823
0.181402933011924 0.2856972016179924 0.22974553537672193
0.3243506155120741 0.27375221406570915 0.38822575570931406
0.2554115508818029 0.2833059228763801 0.22199775010051326
0.4451649126588393 0.2630475207375014 -0.0156950714876416
0.37376892924388017 0.19527049618839953 0.03653466306994346
0.3746105568460223 -0.18264448308185877 -0.36211579179197884
0.26743911799081843 0.36816939546866934 0.23024429309515426
0.2685518447965194 0.27917031408159687 0.1726030102021241
0.2671822571568896 0.26441035640908694 0.18994412128614613
0.27391860384636857 0.18675988962611711 0.33190056673343804
0.2663566057071023 0.3344511500627476 0.2482270803884461
0.3155370914335833 0.27869062496449715 0.22189661074658318
0.22993642738225617 0.3257685769762446 0.26543364070221287
0.25855801313629456 0.28716932983869015 0.21435834309852453
0.2551401381727061 0.31505801938362765 0.22385196178930755
0.27696446955059173 0.2979083960880189 0.16824905352625308
0.3792148934257824 0.17693447589337552 0.11238066399818081
0.1715102703007858 0.3115786508701177 0.29045322658399186
0.3713356627725375 0.20724800184879655 0.1388491630297608
0.2678832360005856 0.3043188728412076 0.20758342049006728
0.18355682839012388 0.37443624455953284 0.2052811925658773
0.2081886819589016 0.22695761487764798 0.1985669344659584
0.3665200883210389 0.30316131293575665 0.20919809506941078
0.2681270797538957 0.3080245163432096 0.20155016695500194
1.1258477578407735 -0.2917572762026879 0.04035919892305628
0.28043370255753075 0.27317157291582816 0.20388922067660076
0.2582762249897286 0.26261718756671826 0.13732019456369926
0.1647585089336161 0.44041177977587154 0.330579087370495
0.21783988391435116 0.25217704790425444 0.10779365033647537
0.31181983283761383 0.2937624442282356 0.23696578827848214
0.23089505402188593 0.39294683209470804 0.39034710581010756
0.2086692788258233 0.3622181659628154 0.26097119642116695
0.3105997199703836 0.2508037715944482 0.13748541848241302
0.31745664611895563 0.37835945588561515 0.28690998218833386
0.2404896183457339 0.30150269958697606 0.22875520599062327
0.12904997374050708 0.4046051898712477 0.23765939103411426
0.27078091444938934 0.2727628376571687 0.19736159598181757
0.2918150826935175 0.3262919905893824 0.14581051516597654
-0.3018442617427439 0.2450084688592966 0.640838606714496
0.2856801290683677 0.2871151298370478 0.19779592260806567
1.1589331007640027 -0.3827514276755011 0.683111487948338
0.2922176943922352 0.1998056472585148 0.1225285430125922
0.27375663476030354 0.27614429590678924 0.21002919491709804
0.2717639012761879 0.24891694163041223 0.16462373289296295
0.1930837873448894 0.3047105392846845 0.22932130000846485
0.17032506882199527 0.3990896675391582 0.37357833408049146
0.2675689199282374 0.24654285995092096 0.1432771304273217
0.2588518721155282 0.31008777862325587 0.17956664348713502
0.2680831782887765 0.3191272392252813 0.24184091854237977
0.2657697978095115 0.2983783708918111 0.183134890329967
0.652007678090655 0.09221318952423019 0.06196001426602038
0.25436890666867384 0.2507160248066498 0.26010759135459693
0.2533742505249279 0.33340243889904286 0.24005502728218175
0.24392749294838723 0.277597469698037 0.11679911237581564
0.29670264732996543 0.2595817171296062 0.22811865256755937
0.2638063492696858 0.24013735422342108 0.16990541658390157
0.4454309153191218 0.2932083645481498 0.05152647994773929
0.26776299934351755 0.3001386180853558 0.18148561660238727
0.23685702266922704 0.23143683882766197 0.027771298677407685
0.21901362082081732 0.34954608123740627 0.3259018238593967
0.2948565578066251 0.29203428852211744 0.21286283193023792
0.22799966342549283 0.3177954769336395 0.2499472108355576
0.22295874278798067 0.33095253170162664 0.11920856121338375
0.24919329950108704 0.31742557735026367 0.2185051391634687
0.1527644769047356 -0.22490880266965974 -0.39618486918047324
0.2838638568966019 0.311938079395631 0.2126672799654301
0.23232046491230562 0.29246822622735635 0.3093283581949322
0.27299995090379525 0.31409069784071164 0.20290513773676366
0.32845247197391814 0.18748563134511187 0.10435251758934783
0.5877108227887504 0.1746413955396804 0.15047144901782872
-0.49664514910068647 0.1976407244359848 0.9132865730663866
1.1795994036403243 -0.3878112715077293 0.6275246468250657
0.23527541040471078 0.21270782049157333 0.062243024158689764
0.4565490812799453 0.27480907420644485 0.0014526266839993696
0.33172422664088685 0.22434494571578512 0.07781307223277167
0.24971329954243515 0.2973786312584821 0.27735222761994294
0.22037218687898985 0.3122980531122721 0.31591394173275944
0.20293353694736993 0.377458915431788 0.3736043930410631
0.2816554948256851 0.20794806878987515 0.13002554895541607
0.26374304440670926 0.24546120684598804 0.14297013964605298
0.32178536735024466 0.2594417061574461 0.18540036822099637
0.2671133612277288 0.27360254701883946 0.14564254006835142
0.2513980555896467 0.28108371238968743 0.10408378814619823
0.2831197820322586 -0.18725294814706217 -0.07205255805232014
0.1810559800457554 0.2393837748707739 0.28688753458115457
0.1344741324093377 0.27621142781690367 0.27775259711924605
0.22872233251207774 0.15151117518999513 -0.09422438469832173
0.2980206168015087 0.28800309473490415 0.22518307772999435
0.3270047335539772 0.30436479010148787 0.16915785113536685
0.25990890482768236 0.29653382417390617 0.22148244115669513
0.23697912564898616 0.28208185038799627 0.12527157342904616
0.41856916186330295 0.2765416078973999 0.10937611536044756
0.2542613683821173 0.33168522373043174 0.29012720362915445
-0.4147602325120374 0.238785041636433 0.39317577035673423
0.26921133356916016 0.2886625302599981 0.11419722665885956
0.23548044898936382 0.32926186683128833 0.2656061429133274
0.20144273191783668 0.27119061505146647 0.22836150135714206
0.35128045085967585 0.1449805510750366 0.1682777779708431
0.47117453864585457 0.23977482483473977 0.20670220291043506
0.2527997383217553 0.2998107314403029 0.19011594418266498
0.23180874537379736 0.254003047228025 0.1402008829898307
0.6952004966706227 -0.1599705941632692 0.20201320626394192
0.16900195683940922 0.35667617881628644 0.2288411614715642
0.3193070276052623 0.27020337144767836 0.24345151434556556
0.2673693332024385 0.2916917076681358 0.25781452879462563
0.24611918709499037 0.40214245514455627 0.24523341855126546
0.2526107451806041 0.29313800860833794 0.24871514306097708
0.2422163396876158 0.3321734933356595 0.1842144189494661
0.22834894042000542 0.2320363943015309 0.10715992063261126
0.32935594389850564 0.22642825616114237 0.1321029358636281
0.280302510086301 0.29197162182309455 0.21390025828060288
0.1344554232580606 0.3791665088006084 0.2782467282515029
0.49016813310218765 0.23109275258028106 0.3123802239900897
0.23934027146130177 0.30619252449807277 0.20159642555228174
0.2733356475854123 0.19137367578814235 0.10783529070161535
0.24769458442710857 0.30091451854301 0.17555942266197633
0.1686483138765027 0.3897657458054198 0.24258589971175581
0.2717992955726629 0.2682017737490412 0.2408050363088563
0.3172640179531214 0.2175813389263226 0.14264571235429457
0.2779417168031273 0.26024119147115243 0.24604890514129352
0.2501704884554101 0.2872046852608321 0.18902349224970294
0.22529189889644385 0.4021762091713015 0.212734083104408
0.22402560669905824 0.2783806103268205 0.2113834452354979
0.3327086240421693 0.27146969663616005 0.20162845470626678
0.2460634931192942 0.22620590234410543 0.1820793512120389
0.21722633033070338 0.30865424545905285 0.22982588321589503
0.3408187786032073 0.23702461662853125 0.12583333334535496
0.2777308397546392 0.28241012390071774 0.19275309255456818
0.2706942254174294 0.2874803509924817 0.19963916317277608
0.27391360551446553 0.2635218335144742 0.006981336980928177
0.24549337602248045 0.35557787928658513 0.223479932975593
0.26501722948910356 0.2220571630626722 0.09822716140936905
-0.15017245486764352 0.2488431503106483 0.3829258021440296
0.026795592303272997 0.39699806089430467 0.27378039199388127
0.27050267075748025 0.2937815457261763 0.19124515072793713
0.540832525351675 0.19678084151783537 0.08158881691636566
0.22361155734796512 0.3134719666077075 0.3086657982995291
0.08867913984106224 0.36444597961188663 0.22873804772987683
0.27160208893754145 0.1445195946892852 0.00625382134882102
0.30000469443740485 0.3040241554878378 0.18737473131484705
0.25162093970726573 0.34256357100510115 0.2606094185750578
0.2829719115261753 0.2479193946894327 0.13368312415769878
0.21126142792613223 0.31119213683297176 0.16671648924014448
0.5157701453842094 0.09886738551304575 0.08671428682488624
0.27406223906315574 0.3207721572484843 0.2071674981682463
0.12156016415980275 0.3000515473212033 0.2952851743815472
0.2833942862068426 0.34637403250171417 0.2574688158055807
0.16876736257508185 0.3209844054362776 0.29250812842113305
0.24726849665694317 0.34180970350085715 0.23360349674518943
0.31280725299370715 0.30382078521255096 0.19080363473119633
0.25040832726126894 0.31990248123307197 0.22873513718738536
0.274845854188456 0.2791424345218445 0.19567981973364112
0.2221103067365675 0.33930419769308173 0.26574663186067937
0.3214626597079189 0.23152716722135835 0.08559570070823952
0.18577736746581763 0.36409134569473167 0.3125125838354137
0.25796732643397036 0.3831909851141688 0.32836198350719314
0.24380165949486354 0.27642510216541893 0.16429311100040422
1.150067565063054 0.04637715919164975 0.2719572705771327
0.23186273465947238 0.26523053541339436 0.09609368318290024
0.14742542704743755 0.23819129864411082 0.2981844045757214
0.2710975891534986 0.267565095148413 0.19297819931674098
0.2735549524736314 0.2701367877903067 0.19374834593946844
0.1646466451650781 0.31211439493026205 0.2756884196622593
0.23848401548603704 0.31675086668690255 0.2302344278920998
0.29620506213831277 0.30883759479665684 0.22181612890084068
0.2625852419317454 0.3170260985439768 0.18187397407402273
1.2417430727529393 0.30752472441577083 0.14847441408289797
0.2217006034548632 0.3421503853581669 0.1964423611200914
0.274771518757305 0.31172530900451534 0.19283896286478353
0.37245769962009945 0.2533728836870779 0.25682513447270594
0.09737146611848857 0.3465449276910135 0.33238558415436614
0.27578002153964576 0.25049972099458273 0.14159987666366192
0.2723583496628521 0.2613978350781281 0.1671726749097786
0.2141798708566114 0.2208857437886138 0.23177023186045176
0.12378977267863434 0.27930550120211706 0.25074551646997634
0.2636999059260603 0.278983234044631 0.21254269394499659
0.36714503378399854 0.23895259022097548 0.1300451114329917
0.3859858862553267 0.25538731647262125 0.1797343711890278
0.3058265767895847 0.33921382774641984 0.23557495953626528
-0.05342299962866548 0.30988110622820386 0.436513336661875
0.17720262243506113 0.3059161886107944 0.1018108700469611
0.2158953163472006 0.2303365709501577 0.31352178994779933
0.20432740224178758 0.3216349597128527 0.278962685110713
0.260488890289281 0.3106609714450457 0.18673660306561146
0.2831839114043646 0.2487927332024924 0.09983970377899709
0.25467576811126946 0.13540881695976736 -0.13370707487561617
0.29078764182233385 0.3073103443874743 0.23255917295637119
0.27540424502498695 -0.2422533644678424 -0.40646143355915854
0.22444711212494894 0.2896567787035309 0.09369449189586021
0.24872097010123184 0.2857667679315341 0.20808381358685324
1.1710156578060946 -0.27907616900979804 0.06259262023621659
0.9236110489556495 -0.45843425218353673 -0.17153893114337393
0.2737009780002495 0.29411633348213684 0.2231203111989828
0.21336746168144316 0.2946052620899877 0.23537761468737983
0.24894855040433583 0.29424642397415823 0.12059088420704711
0.29739350809346377 0.3512583911721947 0.18683671295491422
0.0001435064703940725 1.017004519018144 0.23309765528979653
-0.14308106177077207 0.24106380911672431 0.3768039211554708
0.41015861315688085 0.4725440136271857 0.21998750028268432
0.2852698157190332 0.23855030847087733 0.11228570273577532
0.362276128766581 0.25546116947901965 0.15693957661883928
0.25038293138234735 0.29878576825640835 0.28641474666225974
0.2757690011592615 0.2896681641316974 0.27357400424702405
0.2719899984013807 0.31055586056325524 0.19486353662492206
0.27225084930051935 0.35042980361986054 0.2675238637330466
0.006659979922673642 0.22720979071888792 0.17118194814945298
0.2699023226679458 0.25885883626779105 0.18468719526470068
0.21120896178865678 0.22864315796573464 0.23455803911735984
0.19816610432189918 0.313632538457739 0.24837850090493419
0.5289223019220657 0.1916380287209165 0.05152457200173899
0.21201579291435735 0.3171008611931114 0.24228205680915949
0.30047083749127523 0.30456023665126963 0.2598291692909669
0.26641429452280363 0.23932479224882286 0.1863662618867039
0.32518680795908494 0.28889967654471604 0.06912245085200652
0.17830233152082542 0.37522864839141334 0.2666930957457794
0.22466220248884383 0.2504608362309 0.04175234331424349
0.2828410501757901 0.2419878527930166 0.17520558556026344
0.26322481969565104 0.2503074067542599 0.16566195850717236
0.03120964863143172 0.29780512285722693 0.2959486496121144
0.26789883588274677 0.28380041457843674 0.17629981882178924
0.23769634906693682 0.32922128804653994 0.16481915417563187
0.18992594075368174 0.2790474953653188 0.23330505656255696
0.27690743064941614 0.309618989306756 0.22688691891579538
0.13344878709398245 0.29035259209831565 0.28923736815349343
0.30700296549237294 0.20620190865075472 0.16362631849405318
0.28261698762355536 0.2912057990893402 0.18020508058847895
0.2570175274319695 0.24454317583385432 0.09386244703827629
0.2534995436949288 0.3313251245876643 0.2941579825942142
0.33612465087129806 0.28984873885349316 0.04243260429191764
0.3605959765407647 0.29897440181022716 0.20060378093420184
0.17329673739550344 0.31285822954902187 0.23291765807041998
0.26567732137004896 0.29570179641909533 0.22445183533507418
0.3466579983621614 0.26717123303326673 0.2166198681314313
0.011631079225566054 0.37042662153093886 0.9769952649761962
0.29370312390713593 0.2532117567727852 0.057743681820028314
0.36708488097153236 0.20901001178950196 0.04559705785217716
0.27624225698798455 0.2873708600518512 0.1495055634744631
0.28191729854098924 0.35015665604666424 0.267257125572371
0.3164551682574199 0.272484062410399 0.2012361034802268
0.27194676099722415 0.242515474491654 0.08805625318642285
0.19399243961846935 0.36414468642263387 0.21351621459317016
0.222367311374569 0.30200802554449524 0.20830709132414427
0.16481554582483682 0.3547363384484896 0.22296017458619133
0.34505816127264666 0.20969478725820068 0.11403560239779154
0.1674307226250562 0.3080977877284852 0.2384025861657335
0.2845399361312104 0.2989074288749407 0.1815882593027709
0.284678269114238 0.2686840864587907 0.15709886576274812
0.22975612985837301 0.2921427207936915 0.20427370259807276
0.21366788294065486 0.15737891406448057 0.1291782603207281
0.2501125341868544 0.3390815641256779 0.2815253269029938
-0.010226254094050091 0.30826659897763875 0.33662819820996503
0.29482548662036834 0.2949233338323012 0.24961293009715746
0.2942468417734574 0.21889298947257885 -0.03300427482056989
0.25612658584987 0.19366736714550825 -0.009972950236516454
0.34490584251044254 0.23518329850782038 0.18158968924620922
0.30510402053671726 0.26121598927187506 0.15195066411143898
0.4577605378491967 0.26300839384632013 0.054279482170585425
0.3034725509663758 0.04801204881610488 -0.1204906426481216
0.28886641054960194 0.2895953247533214 0.19088255911938745
0.31822850310626905 0.2607332137006608 0.2384004959341013
0.2672725554168949 0.2623677327720628 0.20393105217065965
0.334887626027097 0.2610273159944825 0.14795817428446867
0.28068797312016613 0.32145323065071807 0.24100708749426758
0.2860919913339046 0.2709004030088522 0.16677547878079224
0.2320877149829812 0.2760798910074982 0.2436021454995796
0.13883512475216264 0.3162766406494768 0.27064416773964695
0.2289480849277652 0.3006772908685065 0.2799045854945348
0.0985060910600879 0.326690624923188 0.2660092741135145
0.2726541443979329 0.2551775795157596 0.15116483488233712
0.1833370157210652 0.31070926312749236 0.2233149106615997
-0.15298837026054457 0.19487684777358538 0.5869442342672926
1.0412873400587443 -0.4462456643067867 0.9235747272971082
0.26457867472755936 0.3055493171478929 0.20443550554794854
-0.026603755320053324 0.30301706113770877 0.4080941338684454
0.32626781638877844 0.2712761707234108 0.211623085509288
-0.07568651022965867 0.3086222468464257 0.4055812282468878
0.23057644830427648 0.3351840125747003 0.2532775416140396
0.23132063568166927 0.23852131712931168 0.13616212882645584
0.26152453799835484 0.31643995960908455 0.2096784244373282
0.3579965168372894 0.2256284081513371 0.07985812753221921
0.18061846698569184 0.28893361989656796 0.26509814333795134
0.3252358682739498 0.2686131533829865 0.19450751382041176
0.02651823032809375 0.4301110528152492 0.16960239943426814
0.18022350325099978 0.13461246067336674 0.3199241942650417
0.2606945488709158 0.2962576056619781 0.12216042999926913
0.22752383621723027 0.3051712224939962 0.24181873099658446
0.8433159416150318 0.4213640924417916 -0.1868333809606213
0.33566694323431534 0.26395907538667984 0.17381221407316616
0.27373146421345496 0.32151427425409906 0.23078949523092263
0.9429399416709998 -0.29778396931803286 -0.09390626267916957
0.21918468638517652 0.3266888584672216 0.2444217547733416
0.27457629309731146 0.30228633356517776 0.2301610794481519
0.2360509698811626 0.3074006122862727 0.2437893623958729
0.20686483422089452 0.3000290477004057 0.24031819913673758
0.26349998025071386 0.3385419511319867 0.21903082780347916
0.28149351689370405 0.22815894569011164 0.09468186816650359
0.2497751127040999 0.31891225611737184 0.2372126479253751
0.2717175325133496 0.32415991872554173 0.25177717568563196
0.2603009936392908 0.2899767966247282 0.20856908890681325
0.19206489968820506 0.31272145478452273 0.3064706458642945
0.18045961666203425 0.302220353968778 0.22457171341440585
0.014644571960587882 0.3431286721394855 0.29696480406965975
0.2733627684145574 0.24877835594713815 0.23100036827067072
0.24501132912604362 0.2882116673431767 0.2790826559795221
0.2598328014884146 0.2779421635106303 0.12800714654122203
0.23036517401064316 0.29899566209873285 0.23818034303261015
0.34972041649555763 0.28366809406111315 0.16555311005021167
0.4084947903071168 0.279686780962237 0.2967548463233243
0.12361800863051542 0.44575384940338836 0.2850899644268594
0.014669138826661765 0.25489291866342967 0.1639695468862783
0.2643842721826104 0.24512621501948217 0.06348984649463318
0.3350304651364695 0.30208878769170155 0.144928151489367
-0.23599856511512485 0.32371246893805505 0.3231796437740684
0.23609023134491736 0.2847408835644103 0.2604293576522565
0.08485584545195479 0.32775385384849187 0.24931999119429804
0.28424205822331317 0.2681345786116651 0.1668634836007925
0.18710209676194722 0.3095590455420165 0.2211938035705998
0.2714990858998476 0.2405730187417987 0.12343359809344179
0.3116905095067324 0.18839271891221188 0.13793404900289374
0.16430292580596983 0.27597143841870775 0.298256560966081
0.2569170526570588 0.29162115766135344 0.1506487627618327
0.734466540579632 0.04834855240503089 0.2826739586660665
0.2043938342564786 0.2537004737731081 0.1702106484075614
0.2504412617699643 0.27740041213381517 0.1338287054899041
0.27980872292278036 0.281469348886219 0.18332180750221028
0.28162984325446416 0.3153326355467101 0.20090446971786946
0.19579268150405937 0.3627745422370765 0.22076636990476572
0.141649755324039 0.4209223251115475 0.22260759841898903
0.7722012972481167 0.8308602018250326 0.7551140836689285
0.2760442210178553 0.3084595764788105 0.18239701750420068
0.29671028793046617 0.29519415449101416 0.26218620320085506
0.3551116655658859 0.24774805845464698 0.1085613381886219
0.15005580808747254 0.32849032696205427 0.1516767479824921
0.44557419406795873 0.2869584802477618 0.12265967178480253
0.3140249090633631 0.3022177465167033 0.11279179988142118
0.3411286380734566 0.26330170211252835 0.18286096959184306
0.3046866749606494 0.3157738105362 0.21064771311804975
1.0975849581269586 -0.22800428365165715 0.09478660646794879
0.23842475943474994 0.2889751480621783 0.19375803509646516
0.2975480709018967 0.31921579147342527 0.20767342170387337
0.27509471786717654 0.3020345632707375 0.21966242334553954
0.23280291333414027 0.3077729934895501 0.26767442164711497
0.296222501613272 0.12550506126208916 0.12719741961564068
0.2613767774164444 0.3252972816144961 0.22235740676737237
0.19527302865577667 0.3074910915072735 0.28332866841627435
0.2748024784411882 0.2924134038962336 0.21970103252182582
0.2415762170809046 0.2565755780701693 0.08898544737503755
0.45205516400494616 0.25955533975947276 0.015355907520955725
0.2783643515859211 0.34283306105564293 0.3101862650382543
0.2853136806586605 0.26002096512129924 0.20228062311323924
0.29820363860932275 0.24636978922282537 -0.027101699948701707
0.2811452095604352 0.2514012915286514 0.17877907454362685
0.28606531874818586 0.2399871984667925 0.0849645770777272
0.27904417909957147 0.2780070565021475 0.1933571760651489
0.21798873786872264 0.3382313007459743 0.24722662106370308
0.3723559837980588 0.2561186081709934 0.18708736610234666
0.24107046218159667 0.2947988919312934 0.21240738641114376
0.3770683957348808 0.32952096451177226 0.3572713669804841
0.24176160207392172 0.26316006907113376 0.21181146504838466
0.27518536948534233 0.29993833122813385 0.2913950805350396
0.22156040423882928 0.3086252454085354 0.19605526287716657
0.2146425006024515 0.36080748593253986 0.1863498310572993
0.26844884130727564 0.26115700249943075 0.1836603376221717
0.8901926157157618 0.450180647833605 -0.28176196768629325
0.25281244853678686 0.3047479175650665 0.2241195330453536
0.30057102321286777 0.32929784249381555 0.2560161850083773
0.2879480513026067 0.28271590608204633 0.22267233950418586
0.2713537872016474 0.2964323050800317 0.22370370413366913
0.26690477617974295 0.28102876076368943 0.19967599598550123
-0.015979602915209057 0.18451912870156661 0.35481508729026245
0.2786388029476825 0.28683884162572326 0.15682439622838729
0.5430623088201969 -0.25346579541343317 0.1569190494829229
0.253446943491511 0.21913452705078384 0.15755124239652218
0.27512423478088976 0.29654422847620765 0.2108191918725737
0.16264208929712254 0.3432800249476742 0.3342987164850797
0.35793979231337403 0.249744857305501 0.1534400301450205
0.9207033433657443 -0.18829028568065098 0.04587252583269219
0.40414147669906697 0.16153864602243573 0.08155466204658524
0.31650938986913957 0.27788484814703907 0.23488224867466556
0.29912461627223763 0.27676116125637407 0.1902719263313486
0.25837339538736614 0.26171161029660084 0.15310897978400817
0.23900026162993981 0.3122381755771073 0.20810038561616295
0.2576376076336828 0.30491268548129824 0.2471070206010495
0.26852383205829256 0.37392997022978136 0.23249589478564303
1.1505506342961098 -0.41045923882174407 0.6194516830801149
0.249637188858145 0.26816454993522143 0.3127868881857694
0.2662501256248504 0.2895410677591741 0.14567305615142345
0.24833463784852938 0.23557876258468013 0.19244749643945624
0.16389577937468403 0.1992511674917239 0.24020534466492904
0.14408478114319223 0.32177854665263794 0.29129861686786285
0.24267509846745838 0.32818962267757 0.2646881601539519
0.36073013306904045 0.21543855806022805 0.1756540388601735
0.2670138459189104 0.28864963147997 0.14347776308603954
0.2912526910223221 0.25792281281988494 0.1364364237623903
0.26856361241033255 0.32635312530152305 0.23920245015662545
0.24532168295627343 0.22974183076561872 0.11797487990352806
0.3408986226489077 0.18889445945382022 0.15363193392127528
0.8633790120485401 0.3108118312195529 -0.3721448116452848
0.22971542899395558 0.3805637195774523 0.2187332072757897
1.1705777914299915 0.08324852139250538 0.4177119431506924
0.11922752593383734 0.2170367824841719 0.2727415930027064
0.17372443272681437 0.21384790546456145 -0.10349577796364429
0.38254814865591413 0.19783606691115097 -0.0018157455879759254
0.22956991328780418 0.320978731837954 0.2849380076596617
0.36826529073289294 0.2506135002666099 0.36639051132613076
0.1803074972515617 0.34887757508221284 0.15715092470776426
0.24807242272603958 0.31913419103740637 0.20882512374930684
0.24348353068126016 0.2895251423549041 0.14202661540996075
0.19884585471129412 0.3956553641083076 0.3130333912338017
0.30069979401844193 0.27705274707686556 0.19413944052786292
0.3068470451257923 0.23817251321725053 0.12540608347120497
-0.4285771963850209 0.2741801458490727 0.6742938789232795
0.24306122794686758 0.30009055620618597 0.22080069259806123
0.23378977324576056 0.29908158087764036 0.24235106280190166
0.2683081871209083 0.38513620288506445 0.36682813144773263
0.2744077246752852 0.3043157899312945 0.20729042245602614
0.2246680322191139 0.2600759854719854 0.19642133084340685
1.002150657388512 -0.32069607905793873 0.04359456828177599
0.539290850211728 -0.22291685900452762 -0.24302866089712438
0.3091018174887381 0.30722606674532926 0.1867469476867143
0.2582312734494252 0.27528680455435506 0.32068447230301445
-0.2852007569271535 0.34551081701641806 0.520685467353303
0.25383910329344417 0.3111738838841944 0.2769054300008378
2.387036862120553 -0.8072463791725681 -1.3451686452994522
-0.18165551824765203 0.764867590345716 0.26079921107498194
0.2726493740939304 0.29459775977773006 0.22266322856350484
0.3038297264582468 0.029196433438599456 -0.19899245619978956
0.31391200028917865 0.23771497712968426 -0.02495024829491399
0.2830199736752377 0.30424343870947723 0.2699172983753897
0.23609087046953903 0.3127285472125436 0.22607293883052648
0.28001781180360297 0.2733602472243035 0.15439075728050966
0.22599154465025606 0.3334119857630924 0.2602437539223672
0.3665776719926441 0.262127922910949 0.21210447943944644
0.1858350401986968 0.2080456501850847 0.3208099244758955
0.24403986550572654 0.32113760406139136 0.2374081862807884
0.21157181390520918 0.13919871922657023 0.1828122825113212
0.20460624270209848 0.3012946425869387 0.1176072269065287
-0.2375210569321098 0.19494964046799623 0.6473042191177285
1.1242334554037825 -0.40103122505414035 0.7054799409692976
0.25173541683497547 0.24944723094704102 0.08876565608673559
0.3614342063417979 0.21897487042826924 0.21200898910727517
0.42136018900646377 0.23833982593018277 -0.002070147613295603
0.2752079914500598 0.2729515573313961 0.19971728304554404
0.2634177220159444 0.2741984081916513 0.1992752840169203
0.12952757750787214 0.27964235615107214 0.21333983598610473
0.2685910763282209 0.28117664541943554 0.23702902433683448
0.2578465680252435 0.3199715572349362 0.14137477140070587
0.2790147798371265 0.29372309536316266 0.12419580412219489
0.24127410829066775 0.2596618822538801 0.15700841246790276
0.2892203945642109 0.2260303428485031 0.06756105542072532
0.27136481060745155 0.31296258684395184 0.20299456471261124
0.26154397221550596 0.15731437011092453 0.18181537228332445
0.114234234974532 0.329817542891675 0.17713464411237112
0.10046288101841583 0.46558489634534794 0.1977599308460185
0.2754306628916652 0.29906432027215146 0.15702444838640872
0.26694602473344275 0.26016884833734366 0.19513733876624428
0.27679434935103586 0.3175155593859529 0.38023664869140816
0.2841546614231447 0.28649941592210837 0.23828444683051941
0.2486203151428299 0.31873106792403405 0.18132504326729304
0.27958040035343856 0.342343076106971 0.32796392605285973
0.26937926816245295 0.39668614566150495 0.2713380929638589
0.21545300348151386 0.20443651014444697 0.10103780072270752
0.25410169721126863 0.28133749718028866 0.2181855931043799
0.25377967831205694 0.2825435827354852 0.2632848240190526
0.26445342463344446 0.2851885676140853 0.15562210526061904
0.2826690250724937 0.29447956897936933 0.2579145102612017
0.28547680455776003 0.26457564303606773 0.18638621163854907
0.20630154234359566 0.32625819618684204 0.24697200675296926
0.08772723476106137 0.42395976026119797 0.18893790813203282
0.25454637528002877 0.30939101628719357 0.2502191238087903
0.2522383804425772 0.28097660946211533 0.20595153171754532
0.26397808115289934 0.2825669478438897 0.20932145902878574
0.08707006898163172 0.3612465182838207 0.19081524677741868
0.24436508118049005 0.30733888533421805 0.23887485372839024
0.29710574520288446 0.3272755329935535 0.25794507803833255
0.5132329730102043 -0.3064982260928417 -0.23928343110281958
0.2782194458538356 0.27932628767021583 0.19650922099759782
0.26808095582435953 0.29675256494732594 0.21439521423107522
0.28194716497182526 0.21381084879578793 0.18319507202761542
0.32145095446068694 0.2535603791727823 0.12024682236460649
0.2978774867652447 0.3440375477669875 0.18519213962240144
0.3138811110366646 0.22426917630505727 0.0904266449946931
0.1788206143200597 0.3055915106480711 0.22709549794313943
0.17704503199570354 0.23394673375190678 0.1909100181476333
0.22843348478455994 0.28015259909074075 0.3173705999388261
0.27252550747039095 0.35906013351163324 0.43745365234011047
0.4725435204223061 0.34726874889929604 0.1474874345626489
0.3322558600220731 0.2820601370856082 0.22277641436946283
0.2716387777810496 0.2641079933556796 0.18182506461508297
0.2581982301677499 0.2819982098401397 0.2827966259467871
-0.11745154571826788 0.2588255814919762 0.4512188270229842
0.2287694948520027 0.35403338454888456 0.26775711989751017
0.2788756296843218 0.3029620600740657 0.21968668723806672
0.3071794579716993 0.26546198296395573 0.1404684787292183
0.16936541300006525 0.25333054636413976 0.1953976197182783
0.21666007886599914 0.29552851668174185 0.2654004516597581
0.2625569239657324 0.30337767915355585 0.1854537357044137
0.2903566022859252 0.3156012826507322 0.22475928459243733
0.4072108497225031 0.008720586805765151 -0.18047539212135177
0.3461582502031604 0.2440076981617949 0.3028190688506811
0.25321763741774816 0.2753578495163538 0.18021265598000014
0.25295047279962546 0.33816114171187905 0.287465427165273
0.299324595546139 0.27357029306816116 0.14504868516696945
0.2539755801315948 0.2620229766425126 0.13122001416073203
0.291705300129081 0.10716957575419883 0.18913068365034746
0.2760302254396265 0.27385067293849374 0.20967991370481798
0.3103319751388369 0.2969148261065868 0.1589530021233827
0.27763364907552557 0.28522508460096674 0.2007620730468318
0.27765224108750886 0.2926228821915231 0.1525268850081858
0.23691828800130565 0.2624275893726633 0.2932051284036561
0.260114645406361 0.27988904095080613 0.21217248441172387
0.27157746113661574 0.2631487405753177 0.1453982273053782
0.2552815612982329 0.3078977549374997 0.18926964173115834
-0.2113490365309474 0.24109990003555026 0.4738682251513211
0.31225233861013635 0.3096673176944478 0.20796970514437874
0.2505766900294333 0.22793797842078334 0.10950832067089777
0.2773123582692847 0.28388909362088555 0.2082524545176625
0.256880108777537 0.2953599652709329 0.18589034394526038
0.2669052787211825 0.28534113405426353 0.2121570396708421
0.2618006780870701 0.24008014356414265 0.17651059933450597
0.30237287000562674 0.28488759215268544 0.29439098596753865
0.1974951150897084 0.30847499955942226 0.08842161079340372
0.28367069865288386 0.26475358857175024 0.22183732598585948
0.3283210305281443 0.30651283286479725 0.22886430626607535
0.18232885242289854 0.22879224027954592 0.26845290024805024
0.31358597100209806 0.2925272957496077 0.2590066616225499
0.26162447175362047 0.29020512467610615 0.20060668965609807
0.25268976258422526 0.3660720130354349 0.20308104799772764
0.23624881928176933 0.3037298472405041 0.2119932442512038
0.29568662683308844 0.23821238359899155 0.12225602507922417
0.09702438716439588 0.35869104821136943 0.2522093618266439
0.19871309343250232 0.2930988141666262 0.2558492580099596
0.10786888284553697 0.24161536042804244 0.4079745936061556
-0.020661376529076847 0.41487389846614064 -0.06985533486545137
0.2281586372118909 0.2538929223144635 0.19536815578561573
0.24773915553542736 0.2534834661464487 0.07769429033893971
0.23703310588597049 0.2931189203577418 0.20495282637696732
0.29845349373312047 0.2571016065291616 0.1757486132603816
0.2369171663266627 0.33698178437848014 0.2627575482974578
0.285162412283853 0.2880766459110049 0.22544490101080328
0.22434011398122777 0.32545217793823156 0.12732513759760877
0.2613948867960545 0.2788881910937704 0.19977983166263868
0.24185285412326607 0.26329803750235214 0.3234903229995041
0.3287332455878982 0.2903686424315026 0.20305817938026394
0.3210596202657854 0.37103656740455904 0.3849096670446954
0.2744541141622676 0.29482883762446477 0.1370376639715687
0.30922169180058745 0.27436141714252926 0.23947793994048538
0.2266756866959554 0.1720266501720289 -0.12537329282446308
0.29044683717600606 0.28580183653787117 0.24258321043393494
0.5245864187348275 0.45381703306280485 0.0994887317166615
0.2658010107156912 0.24725589601362685 0.09763745218535291
0.21886616858338925 0.3064022856320321 0.254457065259146
0.10097087452973597 0.2683986676931909 0.19276025439816635
0.07408626752103942 0.28566475133118274 0.15688152419023993
0.2816809127119484 0.273448611893798 0.08587318506499741
0.3097329062880476 0.2756201561641376 0.16439102710084796
0.36806107312207814 0.33445204355518854 0.14005942172641994
0.19401815824558355 0.3213159726732613 0.13906926205964965
0.49067953056363933 0.25231714011476924 0.07027703298851407
0.26207868298293135 0.30207580182610627 0.20974694733703814
0.22862476018475775 0.2889307546782902 0.23409075134500767
0.26870337469060246 0.26708036465470286 0.2117387760351761
0.27806953409174184 0.2695623587391367 0.18056678042036367
0.13673717486469172 0.3139305635983476 0.2415577051627622
0.2456543628463237 0.32071789609159396 0.23996562144256472
0.26241957861907395 0.3058078523253869 0.22422316248405139
1.3753830723314593 0.26237971997187515 0.4897405023588419
0.19563928792905472 0.30256519054165665 0.25981287105784645
0.25431731900809496 0.33075958160486607 0.21604250154639715
0.25942908774121065 0.3101313542184556 0.2054286146725417
0.29030353587054947 0.2070932163663315 0.09398013258493165
0.9259440219777559 -0.09290807211024799 0.36511368974468894
0.2687487573256533 0.31090740907517045 0.2113927126266475
0.3372640102800517 0.28216641866687553 0.19715569002073607
0.31052012890486935 0.16931840322313008 -0.029823323676112068
1.134513815087729 -0.3806681474518996 0.6845420324149671
0.2384635244938238 0.0651816464995818 0.25519925418912237
0.10908960756242436 0.3165164942993073 0.23609383732042488
0.3126969026180433 0.2516882765228843 0.055399422784972785
0.26317686628925685 0.2893877869017132 0.20959053785301762
0.3137334400990426 0.317830062758361 0.15387159832037867
0.31035887466791223 0.3286969514873306 0.23382867695227105
0.2561245510913466 0.23198226312180736 0.15051873529100135
0.28628499523495066 0.2747478778914143 0.2242864526869539
-0.0831067626047286 0.3051557252764212 0.10751668075945986
-0.1384816982002519 0.46663260221760083 0.7021418488117348
0.23798834734147079 0.22925126204322055 0.24660089593449186
0.28221361564641256 0.3022853296473613 0.1841602754292353
0.24083676463615689 0.3070794477850711 0.22462726783878395
0.32510242858398897 0.34013428785425504 -0.07568757525174874
0.3293962557279144 0.28310407756958966 0.38876897602104066
0.19326439767257853 0.21341330991407403 0.2460317792400133
0.24673690069818122 0.3225326478027739 0.25693321036808925
0.21957758034980657 0.19733633040623033 0.1853672439447962
0.29502477681160144 0.26859676586116166 0.16266242954506538
0.2539201438075338 0.27641235919820417 0.14911684924156532
0.3503200681215617 0.258033121679361 0.21792316722044802
0.27834903569748803 0.24506948228494707 0.07661322493822809
0.3162722259133659 0.28610670772975766 0.14399997208786885
0.2750209239140986 0.3133245387497823 0.25442772433902405
0.2510893947093962 0.2961224257980746 0.14118508830421206
0.2912295857877609 0.2099190110813538 0.11863197366371026
0.2653162481739457 0.35275545995236257 0.2596896531013755
0.2313033997849061 0.3481964841819263 0.15235284427885176
0.24745063890134134 0.2993034335457594 0.22672037341729379
0.26302211070739645 0.31212651432534244 0.22422990677171128
0.19747503025615742 0.2989422001096642 0.23141299059531661
0.2548447521988635 0.31908307867092844 0.2354520373737472
0.2550847036524573 0.30354266444282985 0.2590404772397079
0.23328215298244004 0.26599570235391923 0.19105977009539288
0.24870996902903642 0.20390224043075023 0.03926683552586496
0.35663045914540703 0.21891647456476448 0.10935391762359359
0.2910567500896093 0.28309238971257855 0.25424514586026703
0.3111428771681801 0.2233902510898247 0.12642948680124277
0.2585317934143916 0.34033405983899456 0.3277636135270967
0.2694595480516 0.32417480685363387 0.2683521149327248
0.21763235622185562 0.28805279764617353 0.2554295024318236
0.2690877904980624 0.29098558508334804 0.16014605598645915
0.23743605401250534 0.28268435977892636 0.24548068829280112
0.2224828928329714 0.32479053004553293 0.28040620805732885
0.6046995428372952 0.6269978134719736 0.024625038170881908
0.23901705099343928 0.28446652216155144 0.3055489480840379
0.12701790684859304 0.3105386958617373 0.18196826014391831
0.2634882769971796 0.30571751592005114 0.229873350642805
-0.170011298110893 0.27731278266442416 0.481699309154223
0.29094001529254854 0.21195671092331736 0.12023361330017224
0.30620312406016126 0.277198653513679 0.24360346012764467
0.27681583882024086 0.21549757788955048 -0.0878210328916964
0.30055630944889344 0.24660067159555865 0.15519011916912007
0.30184957249647937 0.34328848383685795 0.2296130765431741
0.2491085752543114 0.28891513178439254 0.2764969781513287
0.3114251969173978 0.3824855867134431 0.3737386883305476
0.2606285410977307 0.3155428235725992 0.2754746493432094
0.26650307528426254 0.3095296421183349 0.21450140388856198
0.25598241018502677 0.25465960712264746 0.16384706144143024
0.26383898169532927 0.30403798948668737 0.3271613215880791
0.25630636983744637 0.3271643300396079 0.2089778647294338
0.24976451452715764 0.1982166198351365 0.11950110119467183
