# .PCD v0.7 - Point Cloud Data file format
VERSION .7
FIELDS x y z
SIZE 4 4 4 
TYPE F F F 
COUNT 1 1 1 
WIDTH 815
HEIGHT 1 
VIEWPOINT 0 0 0 1 0 0 0 
POINTS 815
DATA ascii 
0.18236459899085844 0.3033729835765371 0.2750574661504004
0.11781019547179028 0.3171096842614105 0.12190318033036363
0.30493796944895735 0.2416618115167637 0.12476193495983523
0.28471266929514627 0.26154352126309277 0.17872902737090612
0.43463110787345727 0.24823169577473436 0.08887602539664385
0.2976639551777396 0.27716200339696684 0.14292447782574413
0.22734105579540653 0.30132835226891075 0.19886273779970054
0.28250206222622865 0.32834434189614115 0.2252572225408187
0.2839112736038203 0.21329881666680706 0.1315761270277136
0.4232623651727181 0.12385490824767942 0.018937430141903633
0.31394606579235074 0.2722198578377686 0.24675151823390706
0.4303500949721695 0.21022399776893508 0.1490461754391248
0.3168407220569236 0.2702910811855759 0.1846857712706509
0.30694367217731156 0.3421805621349847 0.15786297598697274
0.31334593930981214 0.282910621498516 0.16811434629070732
0.2982890370145128 0.3572481480309335 0.476061515933651
0.3096258952913189 0.2677303079154001 0.18195447228225703
0.4466042170939062 0.12919890621060404 -0.04678945821098068
0.5250074554379296 0.06356215981188029 0.04025035323041948
0.3048485900816047 0.32750545888148963 0.19231399234796243
0.26313947621460443 0.27567459665995386 0.10960192380234446
0.23194943699203918 0.3048804314234701 0.13868405025398545
0.3026400222115626 0.2684226828739895 0.10608508671870709
0.2837388017480862 0.28387437261139326 0.14141469471167056
0.24738759850478687 0.32514060346423435 0.3027816424395553
0.31177994223357075 0.2803934684217211 0.12855889184812952
0.6165355249667641 0.1087362730078496 0.12916912244858736
0.3227028394547915 0.2489241998845273 0.15167918405211367
0.3270405617191301 0.28955140172521965 0.1614172885779226
0.3332663686283013 0.2070324430847279 0.12599308961175382
0.14177277418789913 0.3616057518683533 0.40918572798136665
0.3080840221248309 0.40761561111855826 0.31241978204940324
0.2718437220877661 0.28951218145274993 0.25934214986178006
0.196798672013756 0.422174276880952 0.42291417160666356
0.27862201977393397 0.2840281304881245 0.16989016608192742
0.33291066201708475 0.22256506608411541 0.13909149023983503
0.3067385938329892 0.2522979551053197 0.16314338902462566
0.2835376971197121 0.24484201909386627 0.11978309326151759
0.26556847783194826 0.12560731809293202 0.21389921408758994
0.30632988357371005 0.2574656665082955 0.15178830367997875
0.28732834728128864 0.23436906288291937 0.25019750854912104
0.3486083811303047 0.22994018131396388 0.19041974567983289
0.178926756642241 0.35983743840043303 0.3108050809096028
0.29956791705924957 0.3476508608742108 -0.21432215280370315
0.2931766654211856 0.273803677619469 0.16336234304057484
0.24360848075797037 0.27051881413834167 0.17229402664919746
0.2763234304068902 0.19299768012299978 0.08725492102891508
0.2579006933470964 0.269086722861573 0.18273881687882465
0.33402174709289056 0.2690547472633682 0.20562964195212885
0.2404342141945648 0.30410833334769904 0.17839205849881523
0.3334708073948178 0.2724183133742031 0.14883526053583296
0.26287679632149263 0.2669373162465405 0.1808031229485323
0.3371078612893257 0.24557578663333857 0.18672325684892144
0.33106097786972555 0.2880026637519393 0.1471369606486661
0.3277011707990596 0.2715262768194293 0.1616631689852852
0.2654228170154198 0.28287428857865393 0.15352244424855144
0.3805937158973336 0.08086005527644602 -0.032876913465443636
0.3172754274164191 0.26119459405023804 0.16011308827012272
0.35827177264403076 0.19744298638138957 0.16334328206151838
0.2756381692154264 0.2799684509054714 0.18342342651330057
0.3066634831809836 0.2607723124899053 0.163487628386207
0.23571784848135735 0.28203694553597813 0.15569352884216414
0.20629204894927966 0.009377931307682275 -0.14369681569617399
0.7512895772125745 0.6501162864425822 0.8015868031857849
0.21533277739237633 0.3264557063210418 0.3161772833408918
0.30793194993427164 0.2726696287999886 0.16201699748829412
0.19833672541213332 0.2870511978793502 0.27665159215698054
0.2853428125418702 0.29422249808064294 0.2528376931531682
0.24989364654786073 0.2636243092510142 0.20288112921062407
0.32527256241482405 0.26583715697583443 0.1786003495708144
0.2308924221182167 0.34588963712394616 0.3209496736429003
0.35470648168346486 0.2796405918555678 0.13848681489761816
0.198149275644127 0.28037660450959834 0.258848067392222
0.2541794778717872 0.30334331676806414 0.29335927295349506
0.5110073568778262 0.16491779209721358 0.20296425648436411
0.04724279291639277 0.4063294223123677 0.3313601679118534
0.3177260517824436 0.2412310128570283 0.14100961625550212
0.37712934387131725 0.25144885857025656 0.14835783199927732
0.3009871019400947 0.21457903710950177 0.10234153694997872
0.2844448213222961 0.21904177860307072 0.2978456340483717
0.34343771409592705 0.27538171549866775 0.1638837152793542
0.27151828369559894 0.290402697455832 0.16026179178652455
0.2677407087573158 0.2660326433594662 0.18209157731817527
0.3067417588231649 0.26490086635494947 0.1641079324357122
0.31828919770889286 0.2817728008851077 0.21021956684373322
0.34562175128255035 0.35083160601205066 0.2864111206659459
0.29726423497464793 0.26388878437583685 0.1668431635537786
0.3902049769359337 0.2827004813143219 0.0439857785336244
0.31991470375218967 0.2734345248664738 0.17006095128785148
0.2981543238044395 0.31565847955351956 0.2285094425034231
0.2573884895144971 0.29889660112706906 -0.2911112401810101
0.3257312472873082 0.31731936812509787 0.20796311393058886
0.2461667417273361 0.2702918685702116 0.1487888979989691
0.3132537797908128 0.2702553613378029 0.17912808823659532
0.2932290163128357 0.24391454629704867 0.19298667798551605
0.3863220278313122 0.14804125854604422 0.177494953568754
0.13888483145763075 0.34405855615111136 0.41962426370402284
0.3223992811220171 0.2911784112527869 0.23557123837403537
0.40395895398725656 0.30464620658810304 0.21004337486387215
0.2579976808125366 0.29139351977903516 0.21518568579580233
0.3388226175692779 0.30709204882444396 0.20533808285131272
0.36804348707607915 0.2714024774010255 0.14909027549282428
0.29077598971244356 0.2968345719579588 0.2271966608265643
0.32699557005503266 0.2923002715136249 0.20081487019476185
0.09097062325899685 0.3973740780650701 0.2543108448567182
0.263971138833071 0.26193921099726936 0.22606209924443021
0.2842335983700366 0.26818282379468883 0.19112783518124843
0.3206805915476991 0.2686945919422641 0.146301512024408
0.3129035414543466 0.27559153387954893 0.1414992005049669
0.28638736018180566 0.3397629520171108 0.2604967426929221
0.32086246998306933 0.3245716327287482 0.2568398421166762
0.30421330907796573 0.1976809798096184 0.17709656971331356
0.2794503000421287 0.29567787132614853 0.15734076585991374
0.31455854859282795 0.27091739029472706 0.16813291582057843
0.4083944487031488 0.19964283136536665 0.15597708184567693
0.30753618497823254 0.26021173538481435 0.09509381681934315
0.32741363052497263 0.25386061950723615 0.17046438227941962
0.316602002827878 0.268594790198307 0.16589683274021638
0.31639527661931766 0.23259162758122898 0.18964654037955597
0.22795809684441792 0.30092682802892057 0.2249658925383926
0.3077699111653942 0.2594670912350807 0.1446677631947466
0.2768394429474199 0.25661662480777636 0.21338690595536036
0.26147208252032783 0.2699153193815391 0.18237458264998452
0.3383604447905668 0.2549786437126045 0.13630441632084
0.3420612677788881 0.2550130938495698 0.14381811448063786
0.3069877648357533 0.2723097755824284 0.17572923540058127
0.2536047039168636 0.33807497932949104 0.20290773709893983
0.2146630688979485 0.2877410691143325 0.2506595051853253
0.3794932660303232 -0.20498947939543655 -0.30924963808467965
0.3117579764869589 0.2581607508288499 0.17842387270971471
0.20752459022816083 0.3074956469969834 0.14625494729168054
0.3638027864788853 0.2846119627934627 0.10718624588471926
0.3045106934083037 0.2968852444004142 0.22280304880453627
0.25522605127648035 0.2829287699456131 0.17525733681392808
1.0639331479865888 -0.5671647096333174 -0.24197891736818633
0.29632417241138853 0.26861306457075784 0.1532766401629999
0.3234481374342977 0.23580185187412894 -0.10762123747537089
0.4195629373870986 0.2452084510508996 0.1543837715706644
0.28544281063271626 0.2841050227914934 0.17249847754195002
0.3822110509861716 0.25144400555399216 0.15096636706297772
0.405452216194476 0.35664109555737866 0.2510254984222513
0.6132409898585252 0.09080515031139669 0.0337763493818386
0.26403515576886605 0.2702594353301606 0.20927698832383612
0.32395653101049504 0.38720487271397985 0.4747480222297611
0.40962401788581815 0.1894995695907653 0.16427225585979954
0.22391123921201483 0.3156258609136273 0.3180714377077152
0.3027872326431975 0.2873171441832483 0.1970680522847914
0.32437670014437003 0.2595260804509394 0.152384856269407
0.35312861503867055 0.2636258901126638 0.15673930329312213
0.26921257743750004 0.4000082238962648 0.34318940047805313
0.3218552922211586 0.2101736791653792 0.138018450151975
0.28884421324383425 0.25432408154529185 0.15412905893663265
0.27775329191186415 0.28802759654121246 0.1946242977753343
0.42054954006903245 0.2027719235640859 -0.1639254840035278
0.33139821776725853 0.2699851171968106 0.14537209593827072
0.2765758217553014 0.25171151372691725 0.11424655388785254
0.21295121091776537 0.21101024975071425 0.1285653601549086
0.22444591956676163 0.3199398088210046 0.2902966905021884
0.2548050489241689 0.2811047535553257 0.21665334354062793
0.5326027452722286 0.37372207730132345 0.34501116513541774
0.2564807393670776 0.2876203386765326 0.2122234697567933
0.28237226744283817 0.25419285410137604 0.24665378767677737
0.2441707309852461 0.26176618141586516 0.24642508133763386
0.30901763757722733 0.2636332077476027 0.1695898861518259
0.3086385809974672 0.2914816707417742 0.1349387872545833
0.2984429614818538 0.37226676933069314 0.05159707804551772
0.27454585001362375 0.29113899889517825 0.22166962016578395
0.5714094982747895 0.20553788135316609 0.03182548330960344
0.323457992696234 0.29783392665940767 0.2084821526157583
0.6068605286405244 -0.6003013341781838 -0.6220442379731139
0.3323817080466398 0.17230527352933223 -0.05606576567248567
0.16688270813895656 0.29894392885405807 0.2729780184553192
0.391978574861497 0.12207067457174503 0.1534537632716706
0.30332691891203467 0.29810976085542507 0.1618199633692825
0.2530355463472773 0.2345742139898448 0.2090197414722752
0.2215551412095067 0.2483168515556713 0.21020307000161154
0.27582605051398446 0.24854725102744624 0.19194127392098892
0.2782202726047842 0.25438040773804005 0.19057993133596085
0.3709336565393926 0.24587385870201217 0.1559564973096883
0.43023425322937214 0.3074497712272972 0.16412524852307797
0.1469000516226231 0.36393445182017103 0.32563657705117066
0.31803475581315865 0.10351908722208236 0.15693268425667384
0.7090490212571581 0.10167335510769249 0.21485459312955868
0.299716400041234 0.25652364801423744 0.1377397484020264
0.2339642552032899 0.26549801059402967 0.03216612756784798
0.2178394188841679 0.3277894464988549 0.3322671496942462
0.26366339168482966 0.3082386318814372 0.10690572287828104
0.284618022200533 0.2597257560516937 0.1857376706870184
0.3187077933376088 0.2604392631437804 0.09221559290276105
0.3515616657866758 0.21078975282011925 0.10861283308750558
0.49758281311203234 0.33469191913772534 0.1100747495326857
0.29313267970998425 0.2956760062584607 0.4103094469219002
0.24844727576376613 0.3617803889708284 0.5523666192516004
0.3024553856107559 0.25600166502240995 0.1462923023500764
0.31470308421810955 0.2677823352830586 0.17660250172478698
0.4960360985799639 0.1814608525165795 0.15260298393728533
0.26794274539642515 0.33483922574501435 0.3094943074646608
0.28271612226842535 0.29788115018686767 0.15899910410561802
0.2850852698675652 0.25074995619549156 0.18588220024268765
0.31255120843400164 0.24750488223938305 0.14994063144274605
0.23284056889211513 0.28536877076325595 0.3602859737852384
0.4422476169236518 0.267753026594022 -0.022410587211481925
0.24620625857082246 0.2577388489333714 0.2972182109246262
0.3467878095234198 0.3650938836307489 0.215611368305332
0.27933006627198154 0.3095452864410504 0.23095945439240495
0.32136056528352697 0.2939352801254955 0.17249926982887587
0.30663133921729013 0.3156817386806381 0.15321053817058328
0.2974064238888303 0.25742489920745015 0.1543309492862619
1.3607671614663843 -0.250690079718737 0.1698836807133688
0.3084526859951069 0.30726866694726596 0.1889481308026859
0.3176317602245149 0.24671087609220876 0.08830364603142016
0.42933906321138693 0.6756656931655272 0.5301965831263402
0.3716841023450286 0.26126182442523316 0.1414177801604808
0.2645676763045941 0.2598761702604122 0.18942452110884744
0.30117423831018186 0.28444364794285093 0.1432683741223144
0.17024788150834524 0.3683589215316374 0.18283421423933532
0.36729584221308187 0.2479780430310825 0.11429628024305316
0.2307926350673597 0.2163151085576942 0.6233984821275556
0.23348702322434178 0.2558750637293912 0.16629266754463856
0.24660031159797313 0.2922717656082625 0.1952749756909924
0.23541833924861066 0.3388580156498904 0.23413034377432496
0.3802179659500098 -0.012094122380830186 0.018859101322348693
0.4719263343168052 0.26671224231387214 0.08601883568579183
0.3434728549926547 0.27255254964236997 0.11044333542224649
0.14550642485065168 0.21679780064783927 0.365920449310309
0.31139753570209905 0.27103373883458914 0.1715710468723728
0.317684262625491 0.2274311043615853 -0.026432821912720783
0.29600935530095285 0.2668269795686342 0.1713131696401149
0.4561179787987726 0.23086054221180063 0.1289270011063195
0.11749284095064638 0.2690663952070196 0.07145522269155435
0.2960093323360553 0.2421996976243861 0.15665600726273965
0.3205858158024313 0.257098224663423 0.14935114936022842
0.13609044358739197 0.41699300951711393 0.37079384569780416
0.2853280417166957 0.2845226671937695 0.09627802209507763
0.32000001194626293 0.2943501422548849 0.11038049025148666
0.22540414694864808 0.33090889681287194 0.21370873425613013
0.3515208375091987 0.2513557684541041 0.1646791260240832
-0.8949652169191893 0.268903288144017 1.5572985510339379
0.2440092470220634 0.2939843100610062 0.19804267026566436
0.1902244950369294 0.2914930634163255 0.2591713176375663
0.30505145993032556 0.2322806948580194 0.12936923110285647
0.3103973551243655 0.2875203751849824 0.27625543626520255
0.4214773038880537 0.17587786601234257 0.12440964686234679
0.3400133165472994 0.2365404749582467 0.12261776485148346
0.20911744121133324 0.30901242964790754 0.4521220959604193
0.3266710377636457 0.27740647574162836 0.15662332718204652
0.2738236053871077 0.26732920503344815 0.3165975653499231
0.2753718601044852 0.27376476314535125 0.11455408232490072
0.37434483823655285 0.2827644118020487 0.16405802633994426
0.34231778198979157 0.3221821476413709 0.28492749494201064
0.29779075440701774 0.2824585646616242 0.1207635864918899
0.1503591589036546 0.0718246196205996 -0.11963077764690411
0.3050926761663675 0.27588089431768026 0.12597545874234584
0.48143426163821346 0.2592427956886638 0.11620095820256893
0.28095800728337395 0.24336802305631977 0.20120951073424465
0.1962465080514164 0.34931913630795464 0.3001391401011233
0.21741721541614822 0.26207420862313313 0.24201430487858033
0.2527325852246918 0.3198140901568678 0.27283875482984854
0.3008883610361295 0.2859633230448253 0.08801625873024932
0.3347858392321257 0.24761286215066036 0.11116550321833074
0.24499411241566804 0.3107870378297406 0.14672485571855987
0.3093437530907721 0.2874855212153875 0.22514685489775843
0.27386160935053283 0.28104735658646973 0.1663514403092563
0.28132129478532875 0.2632920568995587 0.15933307293343546
0.18205176912272236 0.27195376288958073 0.3538009281794814
0.21489990539646442 0.28664114136765306 0.1936061634828974
0.28112835995376884 0.27850268147925306 0.16214056039434865
0.2855304833053651 0.2882001475867355 0.2165667107982756
0.31073138747305507 0.22936093131777113 0.15457873064110572
0.28419823285683776 0.26578807423166495 0.1371858673170152
0.24445514142566083 0.3326730488495002 0.18166001421406008
0.28791170157131774 0.26964541496252536 0.16712531643830175
0.21091559921865155 0.3030487489691893 0.24110860016909896
0.3045017430006709 0.23315407665886312 0.20597128199656822
0.2484883354263161 0.30583268158414967 0.23819027841260265
0.2432452434444059 0.4245956990050388 0.2739481620757118
0.3040556494889586 0.26037260555449393 0.1417969512852153
0.2661695871850327 0.2346367290761151 0.1242602675567781
0.3060504172943297 0.3305904444298875 0.22198466850750265
0.2490779267823342 0.27306535990489067 0.23419982672169226
0.4586471004790127 0.14396517437813827 0.349121288357054
0.2956400911872379 0.24287176915629516 0.16334411204093158
0.333785525847091 0.30152570618659524 0.1501901160528405
0.35683277533654234 0.269774549660184 0.12021170709692797
0.34676303312522805 0.24226881374421794 0.15288001385134464
0.3463307461772729 0.2628485565926155 0.1493421952773133
0.2830421655018682 0.21133019115436014 0.09008538867536231
0.3683072432700385 0.25756657749737144 0.13513653002905812
0.2005493372894449 0.2972114590091621 0.258094861194337
0.37999233313959735 0.2542437440032188 0.14519588152903395
0.31741751238749316 0.30735235684164763 0.14528632045738732
0.28995531997892954 0.2914835103961053 0.1016616096196401
0.22083959736752945 0.2516713449079475 0.12882098262076624
0.4671193174527417 0.3049810964569275 0.11499156189024973
0.3069586987840296 0.27688675473613955 0.17816416406854785
0.21724099654016982 0.29518019980076815 0.26943779207451257
0.26389225747402634 0.26157091592963866 0.1499336274240477
1.3732984000474886 -0.16572128298034272 0.8817794505605434
0.04951144179520384 0.2978865071779637 0.20990500350288244
0.28818722858714807 0.2745158969678414 0.1856863628456722
0.3556091816870719 0.24959119725784262 0.12047445829979608
0.3055329690101587 0.23326337083062754 0.16887891617730588
0.3161544464893211 0.29092502723949565 0.17960311739673784
0.2451218754599438 0.28497038340843517 0.2287170877175413
0.2879269825565416 0.1511911048943233 0.09947347835307596
0.3369815229219739 0.2631486279391311 0.14955889057816307
0.2876497163043439 0.2499393631045166 0.1390621481538119
0.8000212309778618 0.2097358034264971 0.3019322844492933
0.3487177587009569 0.2016063852769321 -0.1313231525311096
0.2993709790091401 0.26806334463100256 0.18954396655814776
0.06055744728487866 0.3126248459267629 0.1128194822053672
0.4759191276229018 0.37936528553231597 0.036908752204908524
0.32260469332319985 0.28276694945057557 0.09909350173356302
0.25299799856013294 0.29697650339934967 0.2028124532403126
0.30536080387807374 0.26654986862718033 0.18527115936745986
0.5003093928339126 0.15598023260906757 0.0060987076045364574
0.3147735186897762 0.23511061847108294 0.16391651254571116
0.18232883628775198 0.25909789879372624 -0.024463665067088414
0.23589295053560022 0.31171690066591395 0.3252122755670541
0.06833514990780998 0.28967860633835585 0.30897488296490394
0.24136548958634307 0.2871254011011217 0.22587763489670465
0.3070194183671333 0.28592538481996144 0.16744192706275385
0.33937644763614117 0.25419494874850557 0.13354168801122057
0.3243546157784749 0.265586359538986 0.14647986495324972
0.3401726901630582 0.2977635111732866 0.23584668475197645
0.2825597581377366 0.26581442831772506 0.17146703224187831
0.3009630152352969 0.27783687404141233 0.20135655536088848
0.5021416384909259 0.15273714952675732 -0.049161458224205035
0.3705790780302607 -0.3681884879318602 0.19027651889675212
0.39205014060016197 0.25035406881396227 0.10892478248871384
0.45456658240144066 0.26618830544964567 0.1993681406639638
0.2975643386066906 0.25186183784177274 0.17264832577039613
0.3154915106794931 0.26008834442903606 0.1557971846345083
0.14679074629029287 0.37157550630701053 -0.0020115921471415277
0.27026279683514076 0.2831240036447724 0.20821660270500786
0.2971373012934748 0.21638034675899576 0.20899989113199524
0.6350706505269557 0.07643465370161096 -0.11106617846630229
0.32319545985659204 0.2539657793798682 0.15840146895081375
0.32665161306778145 0.2965720253011739 0.1971132395255779
0.30608084715831296 0.24651063494587788 0.06987822828011758
0.260442438591582 0.2571374351076656 0.20984337598224556
0.30493914072025063 0.2769796541762162 0.14152712720607497
-0.6192777246058654 0.3562486340709512 1.2108501853987406
0.2225735906256716 0.31381801005659327 -0.035440716651990556
0.26546254612397036 0.2636245814733229 0.20242757262099076
0.37470148616516497 0.148762317667817 0.09977906223922162
0.3407634046918986 0.13946159792199353 0.422840103320425
0.26628485164107474 0.2813209608765703 0.24823226831080092
0.2516137249743622 0.3036124222680314 0.20348682363939474
0.22022900888701713 0.34349639281055033 0.19488274528345073
0.1560993389709182 0.3870858533719854 0.33048896570744546
0.3179778741821053 0.2542712483563605 0.13705637021340067
0.2628477741696855 0.31006419356296533 0.11582956207449513
0.29951937967791764 0.28872912840482456 0.16194926626607753
0.2951650732234157 0.30086236757091456 0.14988476165365228
0.40460284576302286 0.3110076492891807 0.21781299094118367
0.3098147138002503 0.30776427969924214 0.13547174329252698
0.3070749336621361 0.274947719709445 0.13425324336638766
0.3780557292374169 0.2173342613537841 0.1545303176880708
0.43132295826212896 0.2708404994644411 0.021926292832262106
0.23848661589710218 0.3308797726228079 0.25993076804182635
0.28391017067005464 0.24404669504311016 0.1855601482292002
0.28735379886052215 0.24189960802065968 0.12888634066864313
0.6678979469703563 0.06103310295517872 0.08610916122621859
0.21315254487974755 0.3056846237968074 0.2190953186672857
0.2932415459870157 0.32075174796213446 0.22017284879913745
0.28264335908865235 0.29206012950852767 0.17333449038899573
0.3235605159619013 0.3629359358472186 0.3518811451979218
0.2608207256596984 0.33628185293633805 0.3807601143039534
0.14504699657715037 0.3359198553810643 0.2958884896429481
0.3101361641250264 0.31162195067553 0.26026305410472617
0.275547442943477 0.3423220297956391 0.22411797070186878
0.4294611304248406 0.3029486327737061 0.13233497557274632
0.2799321968995372 0.24523847445551894 0.04664013586574356
-0.47641474370976766 0.06671701832875954 0.9813440592219251
-0.5591767561323309 -0.11155098126069163 1.912402851349924
0.6405093572241043 0.10750904750335621 0.07440012221893255
0.29757534906192973 0.23274783493357631 0.16662513933327716
0.11609963982405702 0.23848875820161197 0.29580472769717403
0.30059635339704016 0.26181536809430384 0.18083200519689058
0.3221469858042951 0.32053095800021936 0.13257630752963223
0.26487621447739684 0.3156594896123295 0.2694185748956244
0.3423840624973167 0.3490951578932737 0.19074564091667412
0.7765707672984092 -0.627596274373019 -0.2665346832659452
0.2877930064780969 0.2574839820287451 0.13851251025511147
0.27376863284689534 0.2812929493283036 0.1788714670540088
0.26458081892674556 0.25201081645346335 0.19278402733779387
0.3436717404634919 0.3175878421996998 0.09625882006217523
0.24001660303920858 0.35442124279816767 0.19957954956853996
0.27394394920976595 0.25527019411747176 0.12733175223101512
0.3517507069796437 0.303519356630801 0.4753253031395843
0.27308653673520666 0.22635623483046174 0.19861196530656855
0.28871373265252487 0.24391590561042165 0.156386703276155
0.31648099108997485 0.2780627806915419 0.1213867414334544
0.3960345660147908 0.25354956836264364 0.10327211992830598
0.31351485545003754 0.2833244393771963 0.14664600829173935
0.22937657271279477 0.3036961723347673 0.19067762679509315
0.21732747805896224 0.2711036588027014 0.1863048107749279
0.36047874070573016 0.24147400761093252 0.14341708209215653
0.2841270899859154 0.2744053441554115 0.19099614823930722
0.12468416603036303 0.19988830243445932 0.34269358064602784
0.3198050805763728 0.32701081502810325 0.10754558483750998
0.15529928973809604 0.2014249558515928 0.26958609781237897
-0.03345418302615144 0.2539778275893241 0.1872206568872059
0.5497448936467038 0.13195793313624904 0.07773294762610305
0.29095501791468337 0.27828608912393804 0.18046042915173643
0.3972890712141748 0.24444437508840622 0.06949301520518247
0.339810579116147 0.2979635562024612 0.17338032041782014
0.32620133227200654 0.26451684959002364 0.16660440002809196
0.3484958705182635 0.27611527730013563 0.21976910356613644
0.27644450650025476 0.27519332724691026 0.13001467408864187
0.20756140908541454 0.31705985099546297 0.08898249480570541
0.5162577333073699 0.128883419618262 0.20928601349993414
0.29544601134637105 0.2373106979481463 0.2468143437668573
0.2656696351553478 0.307422967759166 0.27329382319848605
0.2633005761301206 0.2606060613967429 0.27029162311103505
0.35259123857659347 0.294786777374469 0.19148901322334666
0.2837170285147721 0.3254379265945886 0.10679540750287231
0.3174697708078895 0.25223010847372507 0.14606060830108447
0.22607771265202814 0.2941805472389234 0.16649813299441973
0.3128199451439855 0.3011975023113962 0.10835244925412724
0.31407319894208285 0.28512837506954725 0.17911473247889376
0.2504488774689264 0.2856000814145716 0.2198471185095059
0.29319969636105725 0.34137465896174035 0.13461734819850335
0.27130520826696625 0.31553783041786687 0.34591959731346833
0.33059376138258756 0.18829291688595617 0.08722975717907389
0.27586663771745634 0.27683286028592136 0.18095715149438263
0.26333346303694327 0.3188929637703666 0.30046685800157036
0.22214390833889297 0.3179348427104003 0.2277723926790145
0.3176803862973827 0.26593445129637416 0.22430084522676452
0.32004161867267555 0.26725190241671726 0.17757607968272282
0.323266209905654 0.3206528141838447 0.17620794420261632
0.2678308301347272 0.2916220197901822 0.08670662712458466
0.28695189479908834 0.2568815856209312 0.2246860568514819
0.30884920323237 0.29396850984656453 0.09299938527533413
0.28801528910950935 0.28074655933787085 0.18536443095985078
0.21623819314011428 0.289489808261294 0.21601862926881665
0.3166923302979967 0.2748088344391988 0.18608476002182783
0.30578928493913793 0.2404482823652927 0.15552515206925932
0.18634186683527787 0.2989023891014 0.2442722953258567
0.27926575457354375 0.31387492616204327 0.19380707357819915
0.3084532276750167 0.22870169198897372 0.14494687382853044
0.3055861977815937 0.2248302380094458 0.3247322556637613
0.25670873754239665 0.280948080584551 0.17346323094014338
0.21095038622200946 0.2566537179188799 0.15654053420892922
0.19994485861069222 0.19708217941254702 -0.01304927885610141
0.2429689759207463 0.25941758385367564 0.20571000778356563
0.3659503823581076 0.21513240879092166 0.11536496960394516
0.2058970261952595 0.3851761671274119 0.32610009421816244
0.26520791792108867 0.28095786145431134 0.21835866957124495
0.36046384093771167 0.23848392367807492 0.15237279091186906
0.26294385479022253 0.22195022876908865 0.21228877119119716
0.24505618980201405 0.2613049192210326 0.22142461520549261
0.6860841498915136 0.1565527849446937 -0.06064153862573107
0.3124032896722895 0.25625426607504664 0.17962641239566324
0.5598431340702348 0.1797062097788853 0.06895280151337602
0.2325840190752757 0.3029166916558239 0.1890263928690672
0.32580309784658823 0.265697272149481 0.11728722576221173
-0.10010360314400657 0.10567057698278859 0.8955745819969252
-0.2307888198014183 0.43339594356636724 0.6102323637932443
0.30133559945350896 0.2748929220335725 0.1671061134434666
0.23178651821487506 0.292795272576825 0.329376382786819
0.2558412217856869 0.28971725195287945 0.34259792373234177
0.0837163364712552 0.2566721263653733 0.2196951442132189
0.42373722385026724 -0.043367651248900074 0.1441151613681484
0.33034174119538307 0.27925750218960843 0.17910894961471513
-0.1310425068002985 -0.7169810918148016 0.23051598044366983
0.1962441604249534 0.29188328141748343 0.1821739227219723
0.35295884962920354 0.30750299468687103 0.14070634488348333
0.33211258780210073 0.29830022402026657 0.17147647537865396
0.2897107144324593 0.25932817482805604 0.18416213189752284
0.25685243203452046 0.2922893701562259 0.21816383152469143
0.2756561697322155 0.2836211467764258 0.19936758353202322
0.5652264688458217 0.1712863072036015 -0.0009384852065323912
0.30924656310401133 0.30441793651624494 0.2398446585562226
0.1807819063953957 0.27194791820383557 0.07762826765863906
0.15177856296674008 0.3425222194451294 0.4780024147646458
0.37118186039585055 0.2852002148063377 0.0867097468599809
0.40417945745707584 0.2780687252549967 0.42592398514068464
0.21271675953752833 0.378947087186674 0.09639799937363591
0.040459448835008516 0.14296248830589775 -0.13797216334651807
0.36049824154243026 0.3071039123564674 0.32330135151055117
0.35170101859890224 0.2537006316075008 0.14155639093414152
0.3246156538344138 0.27313825490765 0.29111518254907764
0.3091227477220002 0.24365896049033609 0.16297337479188911
0.3036780586532757 0.2520264328986457 0.14785714257766358
0.11463583473704375 0.3169104731464074 0.046210271684913096
0.29282997343229056 0.27534122697804264 0.13914636280196646
0.32660600730469014 0.2607509640087926 0.17877284441794927
0.271589641870321 0.27269737324130006 0.19887908602976268
0.4519686109401846 0.05329248521454133 -0.014263135756152678
0.29806872837545484 -0.008252566081949908 0.15999183894318492
0.2446275545440244 0.25491292482860217 0.21010519116518367
0.2693306403224369 0.2903363052721204 0.28643119478455503
0.4017732844709201 0.20114340356431626 0.13571147864223576
0.014559961500424379 0.38678328449690014 0.29022914460171023
0.12245879335466725 0.35199107486047865 0.22454633071284036
0.13115055562079192 0.4217809367197276 0.4113152942987597
0.2966509009374221 0.22762453371331048 0.16761203114786838
0.41854832390967545 0.2007870940198444 0.15212907519853047
0.3301229075765377 0.24686871212142592 0.10635814567049806
0.16971683179008323 0.16649704803970167 -0.04678464435050955
0.15928659373892629 0.25574093485498395 0.2658544048923659
0.280918213751292 0.28431504178104205 0.18972093505885823
0.41702663276470275 0.22139361434844318 0.048916255309592316
0.26003661101765374 0.2909633128701046 0.21188618670461778
0.314537377159013 0.2832098299414554 0.16299730297578208
0.4772178260205351 0.07525720696267513 -0.023186041925598033
0.32103998015220725 0.2715072868365951 0.16319740217748802
0.31011902894884713 0.2853829453661234 0.1781060671692103
0.3112085437970791 0.2746757730182878 0.16559154263337916
0.4462877545114168 0.3184602925428237 0.2455245385771576
0.20444978231461164 0.3374812975626327 0.33304512072676573
0.19694982353399837 0.3244301707087516 0.2494936758886297
0.23361014191954155 0.30243964393825706 0.5116634140178178
0.34976737036802774 0.2533239356048398 0.20837708037771563
0.04334082632308878 0.32372957360243504 -0.08256261195897707
0.42718521513727126 0.2396044260447212 0.14091477154991594
0.2867956458025134 0.29885851957192244 0.22030767179683153
0.21297724673601692 0.3290846617506702 0.18479842134371438
0.333179582086899 0.2804400320054583 0.1228393353027144
0.13414147334675874 0.165125673040734 -0.12931311929344247
0.038888955692200966 0.34559922460920234 0.30356224950097044
0.30362906316386784 0.2395176680972213 0.33386491261251194
0.35210202554105763 0.37031863344326155 0.3243965234236157
0.2476612377375602 0.28111946149331857 0.17003864933701607
0.25088940973378726 0.2802231660728296 0.19314419398239124
0.23719642859997236 0.3057200148570587 0.2970813742606566
0.22366261451497849 0.287686805891866 0.3409998095431206
0.05362324419317588 0.22638002509143007 -0.029237493865608144
0.26875854170174307 0.25168895428282667 0.27357111092372577
0.3170563730653271 0.2766579923747372 0.16610027361714685
0.4229132367028683 0.19378646748245387 0.0490903110098202
0.4589360987004767 0.23083137534395348 0.014931468298044592
0.2673211175876702 0.2595756403934928 0.1377098964432264
0.2844420751135459 0.2643458065771256 0.24451128197571848
0.2957010342281876 0.2647542313272879 0.15737916270029473
0.23882738501175993 0.32344600740565 0.2571229333606482
0.21939138837669248 0.22865744817332256 0.01960639546960863
0.3739714482329788 0.22462173511959804 0.2664761134727911
0.34755370484529635 0.23559127316102035 0.14599652536287522
0.2478270908810174 0.2874781547306213 0.22628698854293816
0.3073629736733494 0.302353910060674 0.08506933538114936
0.36201805015612365 0.23119649842851686 0.0973136238845882
0.30755404154595567 0.255491071305471 0.13963284774676765
0.5223335394951221 0.18881593829057408 -0.03973460571187104
0.2888895533155278 0.33249955633377226 0.20321129380930358
0.23736844240264077 0.33140781703804123 0.2734494746327414
0.3826729235409516 0.22095009626912088 0.13949464818833235
0.47834912295452625 0.2610463637903706 0.06768683644082785
0.2631394337679751 0.2952501613243754 0.1549124303486593
0.18483469234257655 0.344802731294493 0.3180890648971513
0.2647575857079545 0.2758242852254682 0.22112008375455616
0.27774316142510713 0.27084485104342093 0.2024565206234854
0.28582580220253817 0.2638796782103867 0.1957476159167868
0.45201490136469147 0.24349663896097695 0.1446545706719462
0.3337536334848181 0.2713329368428674 0.13263008773152762
0.34068935726170935 0.28968758491495805 0.03953169105270149
0.32792247739227776 0.27769413164187995 0.2254898640054961
0.316750746820361 0.3111097005695882 0.11951958303745869
0.2611382691622026 0.2520679948050457 0.1908563874969076
0.3947069060480999 0.2597443415914711 0.13308667033473398
0.12371454063594456 0.25000557778777477 0.025552882223763618
0.3253542492792434 0.31121545228691616 0.21737661065570535
0.3123872860506367 0.27269470925853057 0.17109646615769236
0.24889014443348856 0.2718665298761209 0.11130096016651692
0.19691866734211771 0.315420213788542 0.23753881609178507
0.2334355939196655 0.3469211238644334 0.31798786593599004
0.15909742264716442 0.35130290297176714 0.27949749740926677
0.3016017281696861 0.21780812563945062 0.10733639269656692
0.2454928258321587 0.2796441797875673 0.1523208027244891
0.2608943663273635 0.2477329616363022 0.18856111446054058
0.24488475353108186 0.34712215178393535 0.20093655511342945
0.26010429160365334 0.2956200499790498 0.2970143938540559
0.3204055895255067 0.2810923455493537 0.23417444283306565
0.3545897196532337 0.24912741192832755 0.1534217922241794
0.3801409341669455 0.2481300099211694 0.11839428713730626
0.311863655021682 0.26349255628068136 0.12928117835916453
0.3428430812062686 0.31010033355771327 0.10394690177581367
0.3481193442065944 0.2736284960670332 0.15191072155626273
0.4744026806910995 0.19560868757619687 0.3122352890938487
0.24422620202597045 0.29888225758935505 0.21414664065386546
0.26201234135704965 0.2833839688775157 0.21052669882465125
0.2695963390405609 0.2803069951150263 0.17053528213330083
0.5118193601754228 0.040038192090491975 0.04151255515272112
0.4627045365128879 0.21571393487243995 0.033293926059116075
0.38183600107601023 0.2930698256351434 0.08065172247748364
0.24653207332129057 0.29451643142471085 0.14678408036688495
0.2833048610669948 0.2545844061805269 0.15004611068613372
0.24677523914338906 0.2794844638502241 0.2297518654283408
0.2608540070002334 0.28043454856020844 0.18336034564089232
0.30628407829742343 0.25456189541502283 0.19255121082920823
0.30759491190829635 0.2625059044869431 0.16939115826818352
0.36002977771480005 0.10603863813551584 -0.08656068116420101
0.6304887081979871 0.31636152099773085 0.02915646894911106
0.31580169366255006 0.305430391246432 0.12607896617085146
0.31469815546904556 0.2731976821556401 0.12751462597915975
0.3391017375278693 0.22811381364044792 0.09077108715877102
0.20666484669887097 0.27288981717408944 0.25881431360241436
0.3558910250516192 0.24273410345288937 0.08034086656721229
0.26894252413609365 0.4207705939468269 0.37002090779982666
0.305348145345377 0.25491980184925467 0.16366364028780822
0.34665230443408745 0.24212960903858516 0.1262675309635597
0.32700368072740105 0.28110698722767324 0.10505412957201088
-0.19322721237585938 0.2994506437024427 0.9021559018095502
0.12213930378848659 0.2808315245956976 0.17368937758266156
0.21163990496205543 0.33874816905043303 0.30497246558927316
0.29474929984398557 0.2775044864820586 0.15333828441778508
0.250570509953576 0.27020855668025945 0.22896517077424505
0.3166426075081006 0.23618236874018805 0.18266610220092616
0.26802158055471637 0.267698465489957 0.1617708488423375
0.21433248145605432 0.24745040938671536 0.26541544527572114
0.3071887781694329 0.2602556961458191 0.1715466458520325
0.27580583027966554 0.23247397572248474 0.14174746540912508
0.36979784593849274 0.31774340194897377 0.10995799143094587
0.19590812029582594 0.3024678004379382 0.20292423333700071
0.24574170559844788 0.4289232057440415 0.43250233847234654
0.3505169765373779 0.2722565104971011 0.12262007648313045
0.09284391749091014 0.32633786824806066 0.30324937750827985
0.3712531436787003 0.2868733721672072 0.11636266472211787
0.24230253659990808 0.2846700637546178 0.18798671568360703
0.2587363258821398 0.400379003925849 0.07526479651671991
0.2564915935582377 0.31905261639681726 0.21069810873862593
0.3218843551054391 0.2804409372950687 0.14188638244318952
0.3133244580243115 0.2752761674390314 0.17538807191584738
0.30937624917621065 0.2554862429099103 0.14370341746436566
0.30342698909802834 0.26290414226157566 0.16510205604765815
0.2832922824763813 0.26436098269621766 0.14489102979834456
0.28618031226065455 0.27582246867416416 0.12682461898452857
0.2564466581208933 0.2803808991841379 0.18749525281955925
0.37775645431869975 0.261893435557667 0.1856201434514162
0.4032374617371204 0.31256289696827366 0.13295569288573006
0.28910072177841073 0.31064441273656485 0.15716926870794623
0.23562441107637255 0.2682954708680825 0.18117034550215294
0.24920802625044303 0.25090066324160887 0.237922877812764
0.27719426082813925 0.27586837973484535 0.17347988782474033
0.2782520749099717 0.23864060872196546 0.19545953549877026
0.0992197974742055 0.2617563737726698 0.39428353080035095
0.30167693478028923 0.2610062834591531 0.15343301194268122
0.28704184505099306 0.27126032655749555 0.1710484138998254
0.3803372052477698 0.2590183703491391 0.12439894364059967
0.1883710627455173 0.04869503962351018 0.20210441368094223
0.3063568005515833 0.2717771740426258 0.1428597989120135
0.26561105212914526 0.27192513327784695 0.16428749920586938
0.22770845749775503 0.28975298474856004 0.20285801420951088
0.5996433148040126 0.10010984423163904 0.1756770435324455
0.4371948664662 0.2813741891974928 0.12668915531506286
0.2587699097606162 0.30456419551777003 0.1930587488495803
0.5776288417799833 0.030089756311213023 0.011184317042832959
0.2891122749332311 0.246710720980019 0.15676669952617317
0.3239390979085641 0.2590637984532975 0.2165368679525841
0.050514952692168436 0.31013346660245134 0.18658513443961056
0.2995443965218385 0.2542420755488308 0.20557188235186175
0.29210995531030903 0.2869737589782346 0.1297825418699432
0.30876275594084746 0.27704829058592395 0.16731051548214282
0.23958395641176367 0.27682693328179653 0.22065238385793862
0.2740841654460695 0.30303039367467477 0.10912236896859895
0.2555733520870831 0.12087091271982331 0.17341047472604032
0.2909714511315542 0.2591273204996156 0.17757658440990554
1.2406755174200157 -0.7606479623283064 -0.23857050715648143
0.31399242627568924 0.2706287170827153 0.11949907488087774
0.2654342767258697 0.2602676454807522 0.16645833233266671
0.29683222474747595 0.3029171878114596 0.17626237127186073
0.2022526700243077 0.3381155618590981 0.19948327845273184
0.30392232015364584 0.27224178866640614 0.19861923249341373
0.335229292794466 0.3027126532023914 0.04771644981038037
0.31260043925057346 0.22656151018841797 0.03466200379293127
0.32476813121006387 0.25720921065546065 0.18383228031865428
0.22549899479393787 0.3053357723718193 0.1673992977724481
0.32026743330649765 0.19005547972065528 0.0705053782352536
0.3404753373773133 0.2725568343277871 0.37415829392224964
0.35161349347974635 0.23844091886840602 0.1344298708443148
1.4230560400546324 -0.15388727833737903 0.8400516604293102
0.2383390435300754 0.27326482164204435 0.18146290646295427
0.2410394730333394 0.315713846333324 0.2594114895551911
0.2362623279763909 0.3006685168050467 0.22852090897656296
0.31559833274339155 0.2762316813724084 0.2883148223228318
0.3216341465602568 0.277555090507164 0.26227933773569134
0.3061903087526616 0.2552553373017332 0.17408915496321242
0.24010971586051255 0.2947856178863617 0.19703224739900804
0.19894144447314943 0.2740259076466174 0.22981835364072367
0.25847370787619184 0.26598289879839854 0.20486482588464128
-0.4536945456875685 0.1639312389190195 0.48710957541184996
0.2113188821440133 0.29916451795284615 0.2214340446170695
0.5781163579460156 0.223483834786407 -0.004977460718521343
0.19760136787149918 0.3169479551502832 0.2735508051437989
0.14700935614595778 0.11066584396624535 0.10310726821116134
0.3439095930973224 0.2731252954732497 0.17574007002954772
0.3677293586770247 0.25482593302305645 0.15770524210101655
0.2978452201929116 0.22008680433222594 0.1615138628997954
0.0365932042610666 0.2651951672321644 0.36322331545483166
0.46691166058482736 0.08316093060497565 0.07360355687170284
0.5879678738831728 0.15108771836921164 0.06734303740590519
0.2633699871352633 0.19937153653633288 0.08539260344912236
0.5020888626460476 0.1367147846045924 -0.09909727487639941
0.276986687369984 0.25572191948717204 0.20568048179777065
0.3027102978511209 0.2882013580623948 0.1791714764800929
0.33371378583665035 0.2198334969608453 0.21833470861616888
0.5243644658523579 0.18114777600320053 0.0924757772397129
0.3485263444058262 0.2696639734213164 0.28176863068127034
0.4200830926737922 0.23449749797747188 0.10428782178271945
0.3086765098165074 0.37052132650867975 0.1113423591489493
0.297176067576288 0.2918794353571741 0.21215396883098947
0.2999025136445823 0.24614089879148082 0.10995870531841945
0.3518189629797348 0.26474265767399174 0.2059728339728224
0.32766787379804896 0.25919621741593346 0.2073951494701305
0.28910114169815415 0.30520921154737835 0.2998086357534788
0.2756982001230597 0.12874013050259236 0.08316957547194193
0.5774780802609314 0.15430725434151782 -0.0028729406526508683
0.25844270589958285 0.2693897994980148 0.15521938656395662
0.30853661656024656 0.23921782503683175 0.13006949565424009
0.29892326312818795 0.2940641195105371 0.15690073159700546
0.3776907308800901 0.35954529501505306 0.2707563762384382
0.31441223984282374 0.2381282331540433 0.13903529950854931
0.36689779732080297 0.28312422709521456 0.08389612874391617
0.3621742379584134 0.2567617712504102 0.19475192772419803
0.22991665711305131 0.23850284111719589 0.18091178398452712
0.2125110928973868 0.27310360386731247 0.17426949796235647
0.24050836001723042 0.343852148904773 0.20337011855943388
0.7773259994361581 0.27267522238247466 0.10675478006200478
0.3462242383901639 0.26496599205063376 0.14989565034460384
0.277076911734369 0.31104110651304495 0.2100844167909912
0.31730406356513186 0.2714786578634687 0.27322599321799146
0.2862652609165224 0.28203629069321323 0.18177979913056674
0.24997511724238564 0.28932644853344414 0.18727880141179298
0.25889471748240567 0.2762368667410726 0.18876039722030669
0.2929934373968024 0.2267537341912771 0.2012795081308809
0.2815775254913291 0.2649985538885744 0.3652983646915544
0.3349423986218625 0.4385236068676761 0.0890892160950898
0.3651332282128976 0.2587169075010536 0.3162250234365871
0.23965448640885256 0.29122309810739466 0.20314108925501273
0.21502242828753992 0.31594854248658066 0.2463730390942942
0.2892104473520476 0.2826660080058616 0.222831768956695
0.2997355821788972 0.2654794393924931 0.14908433411787314
0.24494927192245086 0.3264156822824589 0.17340272005600355
0.30206911067219266 0.29072991394666303 0.28577389634708084
0.29795078301873446 0.26457445338813557 0.18544278412389303
0.2842931524889707 0.2450532156546359 0.11970858994573064
0.45679041219671035 0.19591572728188567 0.029712740269502547
0.3260483486560304 0.2705917272367344 0.21599293773628858
0.259308449448298 0.3142649758863172 0.21477890402755406
0.3506838498614542 0.26100014234594937 0.1586189118745409
0.29105393218560494 0.27096119571925215 0.12709758840468055
0.28573242532633003 0.2758180135371191 0.18803005898891456
0.37381512613704615 0.24347417893297063 0.19794947762827064
0.24188254320301894 0.25434354220212185 0.20769299517866102
0.2159973002088833 0.2399063085867965 -0.003168545823683644
0.11041546146353198 0.15627620340207216 0.38730144232866337
0.26879126121181685 0.26705785173265895 0.17419043191137007
0.540929739708389 0.22446634245774533 0.04874139863230198
0.2344451637451641 0.21929404469287306 0.11187320775306375
0.31399899858078584 0.26757453745011617 0.22766003249515165
0.2601430210024205 0.3155720548500369 0.19369707725623186
0.25595750329249256 0.2627166069497946 0.18288295663649023
0.2657640554170513 0.28158209792027833 0.236981939455859
0.327368764101152 0.25198899702557753 0.163327068093281
0.2292452730167156 0.3130273514594677 0.28421450170152696
0.21382195890191724 0.3171941583316169 0.3681869431475491
0.3033616263439427 0.2755887706748297 0.16789747437434244
0.3036686572880569 0.2645372069914771 0.1758842489303447
0.37272077006605286 0.28344549765341753 0.01780026868573259
0.34492090534845943 0.12020776410955136 0.22714136531089935
0.30175845188881567 0.2386415818708656 0.1579886853678829
0.34494636826883607 0.2670951112630746 0.1665467471162856
0.15785410871447425 0.4027179213614147 0.311579308369744
0.3029195480991973 0.263503876100458 0.1840894390049641
0.3663622734889884 0.23554627504839232 0.18614895390801678
0.31300360006812866 0.23192137353339604 0.1506255329766617
0.189137385172927 0.3239104539543973 0.2430177402342224
0.2446417174310369 0.30206455405840416 0.20061315673028446
0.3532399289614574 0.26287151696018896 0.13044182860349451
0.36565874318696956 0.2522106706768028 0.13355663413611296
0.21635576023540182 0.283657230903799 0.2671831051504512
0.32100646408176203 0.26755914683963056 0.20844846242815152
0.07803866078512556 0.2585961958082805 0.006067994251765185
0.31613995962392494 0.2996932504290726 0.15654331335743166
0.3617246330365447 0.24305255684767246 0.09939965348306146
0.3068422154308621 0.26257216685337426 0.18819001454180295
0.28801318123097985 0.2483417185708845 0.04939417045308403
0.33287158711613074 0.28257917787456677 0.11395526611102014
0.3131273484104895 0.2708523572715933 0.16076771421464287
0.32691746223025575 0.3264063494631557 0.5550534382017673
0.17748532139805206 0.2598286764419129 0.24272164052428025
0.2980244284021296 0.3050543593943189 0.2748756335471114
0.34364569119570376 0.2499373294078282 0.17955350683115512
0.32809575132290547 0.24722736426167558 0.22970610358126464
0.24586858325973537 0.3021586680763164 0.2646922395163216
0.3804068668982268 0.2134226940556232 0.08164894393625843
0.28551344072198503 0.26514097655794444 0.1423586691179537
0.3338275805818114 0.2522087981859187 0.1947996217611916
0.3201062190611168 0.242490661203135 0.16103048412185217
0.3281680675414975 0.2628739372781155 0.09379149190016278
0.3039377653037292 0.2792990293323214 0.17670700908847436
0.23266388978883867 0.30050236036329636 0.30566656458299235
0.30146921324123355 0.2824705415976325 0.19391293459682402
0.264248944360844 0.2502113430332713 0.25555762018650796
0.25531382878955355 0.3262359821855796 0.1907044904113775
0.259940205282831 0.30673678881365163 0.1605363893731635
0.2187688464140649 0.26283106346686225 0.2159988336399863
0.22850156057711501 0.3966334834524474 0.38815060316163397
0.30162641255020617 0.21496488666950597 0.09889680554647384
0.38846424354996145 0.2595560272743853 0.2104744491658579
0.16092298396134197 0.30275851303534296 0.055319341216105045
0.21902384294678257 0.2569943966254584 0.270098738136511
0.3446150094001723 0.08890834512899914 0.01864332631527077
0.2624826254696586 0.28229912508368216 0.3209847650841482
0.2744498240886344 0.2985753725738789 0.22105148692568832
0.3537321610291144 0.28276675397215456 0.13630515810805832
0.36652033051984745 0.25799550150364325 0.15178734547748718
0.3289824792203433 0.27056767700098305 0.06479774020664308
0.32382354303837246 0.2630424876797548 0.2353165280127314
0.03928247232883564 0.2778242550240293 0.25505110010627163
0.29226047307662384 0.2817231919312917 0.279480798943581
0.5429948152288375 0.1722099248532345 0.0542784713832134
0.278803778499622 0.2780661002585134 0.3120476917877255
