# .PCD v0.7 - Point Cloud Data file format
VERSION .7
FIELDS x y z
SIZE 4 4 4 
TYPE F F F 
COUNT 1 1 1 
WIDTH 814
HEIGHT 1 
VIEWPOINT 0 0 0 1 0 0 0 
POINTS 814
DATA ascii 
0.3271549627970103 0.3013094285728073 -0.030044558752123862
0.3384517299398624 0.25490669168914337 0.15742596676577136
0.3569332770023266 0.286128567557526 0.15552377786235638
0.395276272856421 0.2577741138665033 0.07720595063807423
0.17823210749918417 0.3728120063838958 0.26370455553851
-0.0015119443844184843 0.2987426935027173 0.38840874849236684
0.3237002950583019 0.2634235859114824 0.1467059307764771
0.29819234146054896 0.2446430000401847 0.13662183308953502
0.356565841361288 0.1837615511647357 0.14951459734456307
0.2943960602539164 0.25218507547009494 0.1073293446555823
0.30601441702955867 0.3117788397222512 0.045061244069387385
0.3564211296771873 0.3349043060309498 0.21113430091389773
0.41063474718856696 0.25051222722466093 0.16976107188413891
0.3563322257145103 0.2093365681914463 0.09839899852718759
0.18501072787816497 0.3520264428380955 0.22469755709960282
0.30990139554256757 0.2534249955360792 0.19449976524234103
0.21928638325289285 0.3249416984901501 0.21816961243619915
0.20973756735084237 0.34653132958152355 0.1972413440721965
-0.20146621422853173 0.3013549255118164 -0.006686145760269824
0.2555376913034877 0.2597192402561319 0.22210283564820088
0.2501973710816685 0.03972405162096493 -0.09036168094456798
0.24553452518020435 0.2669881697796086 0.25392076922268814
0.27297689736153075 0.27206244352802855 0.11419215019941475
0.32620919418494054 0.25778815030628266 0.15381186289457105
0.32028896919229055 0.24945646764368234 0.09238504177196205
0.39288113464654373 0.25874872705496443 0.10688039309346209
0.28335481221100167 0.2669675973166932 0.1860710207603944
0.14553204954597732 0.37964747868380755 0.3867066799581238
0.35547734474388903 0.25897465103238915 0.18878455619926626
0.27683847461759115 0.2775477660396035 0.15686130153531508
0.36045863188324745 0.3048198647178708 0.1348039933875924
0.26934540749115854 0.2521669460383862 0.22121511800929738
1.4436709056850106 -0.08726312742734876 1.007394411303153
0.3117305104306922 0.1932629149496563 0.0690594657580732
0.2817030168352517 0.2759323795100386 0.20472865396732232
0.32454348096943875 0.2804501141678202 0.19885158583687712
0.4360664561603471 0.2568075431319272 0.1456402185829404
0.3420566258163831 0.2610848301511055 0.2515507700486239
0.2936074788683243 0.2947900523428473 0.19088475940387184
0.21624515638224295 0.313236222792483 0.25390459165521406
0.30640415101498775 0.23548592736995033 0.09849038679919886
0.23015952140450224 0.3064944434413377 0.21121591951913388
0.3794946183840153 0.28421484251947504 0.1255777668095419
0.7307983999584735 0.07170932612061165 0.18157425063571964
0.2008011610849394 0.27640312716921756 0.3100157669522474
0.2525799365625687 0.3143342298076135 0.23000669430822995
0.2886695682862239 0.2729960642603828 0.11925323160252788
0.274356592775149 0.24257458406567878 0.13621961531680427
0.33317397506368707 0.24053211158116028 0.1404420198355183
0.35411962485511594 0.2381373458488838 0.027415690660745895
-0.1944063150377815 0.058065480634084565 0.21599916318919554
0.21708324265043188 0.2704509021985757 0.24194368753171602
0.2119741143192897 0.30753259061930294 0.4214790968568991
0.19334456777353637 0.3399127222347431 0.2201788148500441
0.35356295014176453 0.24302847891621582 0.1473239720693016
0.2748016777373863 0.2909319363882332 0.16308126290208236
0.3400200744027586 0.2304949443053772 0.08214290720491135
0.32286664328539416 0.2741379038602787 0.16181419343122627
0.3120631846779389 0.27371472144469067 0.2747312539466833
0.24923571518982612 0.4060538403226843 0.05704477208733749
0.3740737445589133 0.2502407477985571 0.25318936219547084
0.3512040216271828 0.2314944876472964 0.15094311653456316
0.3072037847890243 0.26406783895909314 0.1561109468069617
0.2763618041665552 0.25845693428080097 0.13080739177664213
0.24975048313493176 -0.1013491689025443 0.4742534324255274
0.0248361706800182 0.33369387729813127 0.3338151649162171
0.23797921944992595 0.3020013525703291 0.263025192581523
0.28860880555239987 0.30640568639040566 0.20698809016889186
0.3332259164368594 0.2500953675365878 0.14093773930483167
0.3340631411131767 0.2473737737176407 0.21596083407357014
0.37740002177665133 0.3840080865968787 0.14648737857558558
0.3818405641487175 0.22650827017679376 0.12819531789666883
0.2862508915969215 0.27623889629020937 0.18477279445929184
0.21858733045371537 0.28684506565284096 0.17955216803824214
0.2721853832459118 0.272472459739177 0.16719813442426812
0.493979087032443 0.4044286010333735 -0.05336636968758057
0.2990431981442896 0.26137227155722087 0.08388537253665618
0.2727644624441723 0.31248204218154285 0.02448398009286734
0.39539479153505397 0.25774288381188626 -0.08346651880682998
0.31133259049866524 0.2310420674307352 0.18591079543281808
0.13080681890380674 0.291281721791222 0.30742375235172403
0.8032574130523642 -0.8177220861620356 -0.568307767389058
0.3517817321521193 0.2885855195439433 0.1453534695302494
0.33412124731412973 0.19318399852647872 0.2573739877024366
0.1443624716181091 0.32668539753596804 0.2850947367373067
0.293051251699211 0.31536281511827724 0.1993176432196151
0.4067525584345617 0.30716075348772165 0.07952032525207642
0.3331921241619682 0.24619213193798828 0.22594868853923344
0.26129335946832555 0.26100412408625573 0.34284737836421186
0.4001568456365021 0.2549167641104475 0.10167050612301409
0.3314490183290104 0.26172934779623347 0.1593762923820634
0.29912762507072443 0.2571104866843825 0.20692207975014298
0.21284746239325614 0.36744394799127633 0.2273692952778532
0.35178297391240676 0.30000347895276036 0.1322446140972886
0.307126320294401 0.24935808251754565 0.26873964525118765
0.36703992931585105 0.2306615397332905 -0.15026144662220986
0.3072589080719723 0.27234071390850545 0.15959686820303887
0.3071186404430364 0.27948797795957603 0.2856779126786648
0.19320250030739317 0.37064945517316517 0.305380152470903
0.3229467664064458 0.2740805265704864 0.19129042890696724
0.19826806255424856 0.35457164115990736 0.28245060368109876
0.22892365104260648 0.3233362041327581 0.2754544252941571
0.28767434164839756 0.33678019267850345 0.21397226769488498
0.5742186702501613 0.20526143959463639 0.10011897752562504
0.3285833296620524 0.2609176862578124 0.12099261840842246
0.20131871590220385 0.33861846770710713 0.1836212616529167
0.34435543658128154 0.24239473605260287 0.17260344243074144
0.2670064086787818 0.24577916252603416 0.21312630248766595
0.5066346319928243 0.015355127509693034 0.03576647639164321
0.09455043363803384 0.2925259088681571 0.3409200746518195
0.18582335022054508 0.35497366886373527 0.20702814445155582
0.2884336845497728 0.2880409784996232 0.1519802361661533
0.7209295390865975 0.1349763108781019 -0.06823949503855431
0.3226125293840312 0.1855041191871578 0.0952318727599959
0.18879058533488546 0.348248575241243 0.25751830313902246
0.41667720824663945 0.171880821406603 0.078915080016003
0.42561337702427693 0.02279234202805469 -0.08892121289063937
-0.017893589866361026 0.26294227847893126 0.2799044434473785
0.31455023618946143 0.23797592881057028 0.234615556575676
1.1594456217578966 -0.7004502155483578 -0.35596025018122646
0.31585984016928137 0.3000524521430492 0.1630693135568606
0.3171214567121865 0.2982427281248192 0.14637874184401767
0.19193190996028875 0.2737813206537112 0.19337839867527862
0.24068560171483 0.24286746297407547 0.14311445408293366
0.3209354751419369 0.280664550669087 0.16951288140805332
0.3171924074189576 0.26361320852134895 0.15085880781153094
0.31070092594713117 0.35153118648293 0.2805097473807905
0.27627367369365174 0.26246863786337826 0.2046138159747386
0.24115069464237138 0.2209373479038561 0.17363799934841495
0.3316720051950597 0.23105942136264446 0.1557373627840093
0.4311904124240158 0.19146823162158455 0.04781566630434497
0.31730037509346687 0.226027480707927 0.2183839445888225
0.3443223157892987 0.25884712130627463 0.15570943160784623
0.40553881899155897 0.3924930408703773 0.5340540741827624
0.2837876994484958 0.3639622842689789 0.4402146378997145
0.28859054729696254 0.24711933980970002 0.17434206689566167
-0.6744248162049757 0.02329896813748178 1.5047485783211698
0.2995159405461436 0.2671416267081952 0.42965067791999445
0.31097875525782115 0.2832300152794005 0.1420878970134254
0.2464788223168739 0.28924346157457137 0.2426409047283471
0.33303022025793894 0.1600001993784872 0.08165754787962953
0.26297719380909257 0.3546087068571353 0.3203663654806519
0.38400317066798095 0.36509749187601415 0.25598229501382264
0.3082914135003847 0.26980445445838086 0.07542953492637139
0.08098677722759362 0.3120564998926483 0.22090290487133757
0.19740948211217813 0.2234001611481773 0.26489797972976703
0.3344902375021235 0.21990488333130997 0.20211812871096413
0.25146032043113564 0.26533462392498564 0.24475584302631148
0.3995865222584598 0.24362052148632074 0.08406702103565067
0.3751100572796702 0.0673476340939203 0.23059947372401268
0.28417775762044073 0.29654917387210844 0.23990538664072858
0.21011763799842242 0.308992741402875 0.21659520062307536
0.3285037683490373 0.34049092996170316 0.29741414152726975
0.3568579741179292 0.3067018461915154 0.044368155282256794
0.3343633994499271 0.22759446986228227 -0.01630607861548583
0.3383399887081566 0.23551539906645758 0.17113506914071763
0.3482880568200528 0.24428879640495893 0.1523639052978183
0.30408079057491477 0.2560420286975642 0.18670618986649856
0.22751111465566964 0.3076038119701252 0.2585061293890476
0.31662470891220096 0.20861648895464668 0.07804530666197707
0.4494178294440303 0.2223873914648351 0.046130221270317406
0.29328218413903073 0.2804359623866617 0.21920440626858806
0.30771003247687645 0.2450651223074516 0.2445619057472328
0.2618330889470428 0.24696731745304135 0.1417175502866428
0.30357730344989875 0.24151305692279834 0.13373336809868874
0.37605142513794476 0.24018394574771662 0.1786936389521827
0.28652561700522483 0.2751733434594712 0.10544998220282764
0.2482335759864327 0.15178938477014015 0.2604873210281653
0.3795088804484976 0.2854617023214274 0.19312484947471376
0.21494667096754938 0.27261811098425426 0.24583644841145258
0.3456401396878164 0.2634751482192996 0.14286290758775522
0.423888372387367 0.13051926531002778 0.01696708383923351
0.34519660910575567 0.2183851076486576 0.11864134106173196
0.08913179584217801 0.36997468351805196 0.40516833188861767
0.31845670428604933 0.2697400066653586 0.14654890431174294
0.44039445908656205 0.29684805563999817 0.12523194376134938
0.21137914727879092 0.33242900670879294 0.22708542339881888
0.32437594876807907 0.246707770548511 0.15602847298049483
0.3104406239876596 0.2629728755297265 0.25393065729340947
0.34599215789653215 0.3017406225733055 0.20101442397313463
0.28761427723367206 0.2957530723955415 0.15636322847831252
0.23003199407736474 0.2782887782523602 0.20346896337204612
0.3345629633701037 0.25979511051679083 0.1506947257679485
0.301570988070722 0.26855783792470334 0.11335849537783815
0.31690683376473316 0.29615717259588337 0.20165542723252372
0.2429717668177318 0.3065523959285059 0.16538201360357618
0.3705181727617912 0.24573304222974457 0.14898870235299455
0.2614124079143352 0.27763456543641496 0.2111832072801576
0.2213263563950818 0.28440370308034346 0.17169969188446998
0.22260250827542905 0.40974450360886294 0.18551292758505156
0.4101960296094376 0.2538451908206838 0.17608318889804764
0.13462646875950668 0.35511401256775343 0.17522526125384275
0.3427581524405525 0.21309851705366611 -0.05583467371758388
0.19734790371826705 0.33005922120918285 0.240720386514937
0.4015710318717254 0.2103512474848941 0.1984999288806648
0.2038764642277613 0.32134643904655036 0.22615377556459748
0.5011488631932934 0.4431688715409905 0.0458326155151525
0.3385709834716124 0.27273526576026086 0.05159625941976742
0.1654282750623537 0.342602817815731 0.22227713608896238
0.2201255510084934 0.24613073343357428 0.16939383936139052
0.26096880215530405 0.3959364165191914 0.1565431423672976
0.30701217783443724 0.2266036912889149 0.11544961358906392
0.6887804363942109 0.1704273232140423 0.08988894889003518
0.22497532571391332 0.35503376934235575 0.23627277770326316
0.6783016366418337 0.057534806736441624 -0.025881271314759147
0.3577940982818433 0.3866385245516568 0.32042236543738056
0.2601211057860837 0.24675480408183148 0.2498058785690489
0.3139490412724655 0.2941277523744077 0.14189530980635823
0.3421570645301131 0.17109099720104837 0.2346137568108304
0.3528934242314534 0.18352783073603973 0.025608086163146027
0.3280514410891726 0.23854290683927104 0.19403675330030978
0.1012910396821951 0.331623068418196 0.10522464942926035
0.30835082708676964 0.2899557039709748 0.1685941181021633
0.3046158407676245 0.19793266763571182 0.13292424492031785
0.4540012828082638 0.26529540320052547 0.061463104685401504
0.39587411432607666 0.24022288397500802 0.37638974364608657
0.366490986184715 0.3094575812468747 0.13858819092982344
0.2397089766308511 0.2538535691037964 0.14680566961257568
0.2819048027183726 0.25339688370199553 0.1233727509104483
0.36185811267954193 0.22367317496366468 0.1626820716904831
0.33741422734848925 0.22889189591501236 0.31006512806611397
0.21737835231832037 0.3121249910924888 0.18662432553021802
0.30723541076922345 0.2749856797840664 0.14841959431916507
-0.41527248480215917 0.34023756505678193 0.23936001100997828
0.2845351952306032 0.20950456215277313 0.06025928945746273
0.2697427393653413 0.17322281794946548 0.12215146729664639
0.3821484483037523 0.2765114082242519 0.12531560162146604
0.2761778041161307 0.2263412993942353 0.11299348281707466
0.31524751459184586 0.216383032138026 0.14246802717158857
0.3391515469391493 0.23053720527667565 0.11696676764367453
0.37554387271893575 0.2336757605586115 0.06770536987352216
0.3859739833374647 0.35582005716253207 0.1292043003685137
0.3050031579954293 0.21711555552906248 0.12228052205367135
0.2973162003847136 0.24789593470745785 0.23614485603621915
0.2818601156673992 0.27193898225223734 0.21169392615173876
0.29570475942011853 0.26292383762489635 0.12775435986551997
0.3686217287746274 0.24374368641366573 0.16666074872890135
0.35059384636801383 0.24323991414200918 0.0963710193352938
0.2733797743043169 0.325862682686477 0.3617505275346815
0.7520054523506161 -0.834563193432075 -0.5981377615563019
0.210748064782166 0.25335301807749033 0.26046570828199833
0.3515064144361304 0.35924053272253786 0.09657299543719944
0.3674647896268368 0.2041469834729952 -0.08306458014502027
0.8273613007816891 -0.006550487116129489 0.1238877891187542
0.33896015489634124 0.21370135127962442 0.10469972336927924
0.3425565156980497 0.28151556697470426 0.1461480112949829
0.3961753781359363 0.3166434755763845 0.08819247590794532
0.22369164815683007 0.34002951629595657 0.19332274788271775
0.3644966446968283 0.3109425877531038 0.11075001581181709
0.6336560466227752 -0.5398748651826679 -0.3355595844173678
0.2220964530107068 0.3598384838233244 0.2406440127765137
0.4848599611435134 0.24792018202995791 -0.02564055454706704
0.3436929368028956 0.2828604140287325 0.08429373297184384
0.20390051684012178 0.33787152405804477 0.3051366023632198
0.14857631898169643 0.3410605048335924 0.26558479082729036
0.7530005110202467 -0.06384089067825016 0.1653017723477319
0.26853304773115383 0.19895792617160168 0.06727631006988588
0.15242850216588977 0.34480535188038175 0.22757158106443853
0.42108784001035815 0.319808738262509 0.037935685302727506
0.29587310753987595 0.2555389458952959 0.14480400924148285
0.3852112223870279 0.28642290090559186 0.13186091581542314
0.20194703921262658 0.2637416776303212 0.2487355169482015
0.3364032219256501 0.24528030626338193 0.1469059515671205
0.34260842617430853 0.24677023567934953 0.11738641291046292
0.41455533277135714 0.23520697061128715 0.24459533402857403
0.27694132178041286 0.26834750833803866 0.1334747782549357
0.34717471954428447 0.25324965587299175 0.11564440497085116
0.296797900685732 0.28545839625826375 0.24262119184936637
0.3189937116107302 0.2630901760350923 0.10499228215778089
0.34239700219168867 0.25496571813604874 0.08091479927546175
0.2591518148517338 0.29476188994671304 0.15907919869695775
0.6452813908679076 -0.11365595149408136 -0.04593216702497216
0.31017876160208857 0.2590256274500007 0.15630784798958075
0.3805324961866461 0.291553130586351 0.12703634683006726
0.7810908745543514 -0.015539945401386035 0.0796317924143608
0.34360195907736113 0.24921629540418166 0.1417632693009523
0.31332427373845917 0.26975496105944785 0.1286503016124243
0.29028554525854133 0.26983272888566034 0.1698520402503476
0.2857411553175666 0.28985226114241414 0.11902760489736863
0.2250172020573018 0.21697623189720616 0.12747420467077575
0.33210531790221864 0.25877595874355563 0.09069664364176333
0.2048341265659417 0.287050523951649 0.30064544319770903
1.2439688316873685 1.316556604725946 -0.5172424734058723
0.20782208122544432 0.3098478592491176 0.2078091628630574
0.37900254396798516 0.2165969555594529 0.21668483918477932
0.3756217045615813 0.31771445041485435 0.07437926321642863
0.3505944837313706 0.25657264369186805 0.14572910641680892
0.2771263566339286 0.2747994217701262 0.22448367497365496
0.3747915518753473 0.2141140532789052 0.11753737723093138
0.35178410564427054 0.22898206823498413 0.07659978977015669
0.30455282056951205 0.274656592697184 0.16454692464105847
0.2804173463913031 0.34425571210124417 0.2738334508883895
0.31556970023895303 0.2622947581644439 0.07052528317731799
0.2934659249697802 0.2573472263798635 0.14418300845036924
0.28961256479638564 0.2438750088693098 0.2039302707322861
0.3173148346630512 0.22022143514425352 0.15089790495532895
0.3069331535599815 0.26892377725938843 0.16970970393089146
0.2826938051191945 0.32521815732212644 0.40937942736397304
0.31400468482141264 0.2761287740844409 0.1003789106527222
0.3036454772201864 0.2939076611169327 0.1739737324720636
0.2967531305303055 0.29581687591209516 0.16783655099533235
0.3364517659535977 0.2831281213917123 0.1195798444236118
0.3451260865129484 0.2719628833055481 0.21262888297317772
0.6527474635292521 -0.9163711804298487 -0.9257918075975482
0.34411339532024954 0.2646119353508709 -0.005485970523793071
0.2094023486694141 0.2972174742317435 0.2318990159456149
0.3255560116093932 0.26676002510231456 0.18476040231256263
0.31053356892019224 0.22855238744188 0.16306822879670335
0.30746414344437767 0.2682047110653514 0.15773442042385
0.0966236300383514 0.3154216799871108 0.01313769999828196
0.3091314033065373 0.2545861795424429 0.15770436916150743
0.3193122507145745 0.27414689251388324 0.18649543750248654
0.34994534130679256 0.2363024537420415 0.1837531205916889
0.1509031593634802 0.30548270235703967 0.22282740328861905
0.21312563053447775 0.28902093267670637 0.22969130832501605
0.22101512806250412 0.3109368263926484 0.1844011185287684
0.23142244483128138 0.3207919008958129 0.22350492584884307
0.4287027685592477 0.323050445372445 0.2983792402021095
0.29760870636673076 0.2676638553250541 0.11123744021122661
0.34216537883909837 0.23661729950420352 0.07438334192590901
0.26346605637931475 0.31253796412499923 0.25043049074749035
0.34316283899673294 0.308071643163089 0.10470503194252956
0.24709552927973277 0.3007617882370539 0.4389785124240575
0.290813612683678 0.26589315472418207 0.17639638015532455
0.3188520980799012 0.3004107849368438 0.09565497417855795
0.2558679157085493 0.27078978901356265 0.1714782079864534
0.31656751702001884 0.3027850005697559 0.17294335786900206
0.3162459143887304 0.2198814670261413 0.26886185374431193
0.28166534954728206 0.24784606452251978 0.5170431965229341
0.22369538786026055 0.27808133228063525 0.24370387611284627
0.37725802640696315 0.2136360960332837 0.15499609831951489
0.2728490133152661 0.21850910666283596 0.16495245277783965
0.357295035571795 0.26018020034146616 0.21656424545187747
0.7066613838097453 -0.540006236781494 -0.29930302288047983
0.24845851115293272 0.24150835992513464 0.22029216960044096
0.2414207821768457 0.27645608348689166 0.18950251818924357
0.3260206746476513 0.24683897034137203 0.1339487559025656
0.34857995481524995 0.2454504091491998 0.19758892183781995
0.33624383415818215 0.29474211959198726 0.015637393271532574
0.18699308949720717 0.35260021654005413 0.2628985189007409
-0.05765462688478351 0.2819825553743982 0.24776909886446674
0.2930791141618698 0.24504882685045004 0.16367903061760103
0.2508860399879609 0.26977345333705216 0.08644139659887173
0.2966659955532265 0.2687633146280177 0.2035455558053627
0.3124743704197783 0.2590684083907888 0.15696774162029214
0.28591524319431016 0.24462070547916426 0.17741587122927172
0.304317278637086 0.2616781480399766 0.16243447086318952
0.27605246853295284 0.3194383962863441 0.2605719634170214
0.274267425259751 0.2504902968604199 0.14004423055789061
0.3113760697735586 0.2715001980118785 0.1826038075123222
0.3084452791431289 0.2689908208008376 0.16241896324230254
0.3299468379364896 0.2281980938900574 0.04433684110104252
0.28645065045077445 0.2799656189343125 0.21253005434496686
0.2646798103171193 0.2593806830687697 0.1897178441966929
0.26714741753960425 0.2731644723931481 0.23994533777856475
0.3228554060405884 0.2918959854714558 0.18264587769188267
0.355257829009787 0.2300862808515376 0.22691811446588872
0.043387676488521265 0.17150009918756837 0.48484706405673705
0.4188330140567018 0.23022331173652333 0.10427782307145606
0.3371690709869313 0.2644794572723015 0.17987551092417675
0.2731558610269076 0.3271219957197644 0.2236089751538799
0.20157448285056034 0.3582177499853856 0.3131807281246921
0.32710161129432436 0.24817382038028768 0.13612067471392209
0.3408166308988143 0.2388316277778415 0.18035225820149492
0.31773379640705457 0.272756544127958 0.1452221581498918
0.25693657747268617 0.2339296488125342 0.1178556409098519
0.3100602507284691 0.28528560953265014 0.16473020578585817
0.6085296092789889 0.2927680570202966 0.23166084643446538
0.3029564690080804 0.21082213602412025 0.11026419885064342
0.31439884081385117 0.2926846694561931 0.1944437579645637
0.3902655578879717 0.29860004136352813 0.18241035741351652
0.3405858113687543 0.1617829355476772 0.027763173465586988
0.33770283241972265 0.2687269244148496 0.1623263040539058
0.2531561686830628 0.29097989638485444 0.1622109219078851
0.1979218566423242 0.31943150143882804 0.17597410005127756
0.4072495753753458 0.09829862728916794 0.3772407427485973
0.30226836888179776 0.23376982347051012 0.1881164787651528
0.3009328968689431 0.2181321781155532 -0.02901676351886806
0.2496919518382157 0.23891905324512663 0.19705727175134768
0.3396165324083569 0.26915333223280413 0.1147396027022296
0.24430485711903316 0.34575060938763613 0.27674496071367116
0.35186188389792505 0.20589725292335004 0.14925444507380803
0.32045717699844545 0.25334901636551876 0.17883743510577688
0.2305792705445242 0.28521517452590217 0.19019572858975664
0.1836703806258413 0.35397378996600537 0.20516265980592152
0.20029532107156456 0.30151322359665755 0.4424100175829153
0.4262392088268143 0.16570340229947078 0.1526353186859808
0.29429556287664127 0.25598266585760143 0.163259560301384
0.3338251015694027 0.23771924584389126 0.10275221010888913
0.23484753960067906 0.3090009386869639 0.2604892061061861
0.20015127117316922 0.5356389194444944 0.4740984743756229
0.3380698604019301 0.2920082446338341 0.20642415159281313
-1.1577628558660678 0.6045395390754607 0.7441269769805388
0.4021077235233008 0.23511004307843564 0.03669132409811482
0.3675545150444748 0.2976425416924826 0.1330388975083565
0.32259066871213804 0.24876433080783045 0.1481291126135318
0.32395785257349985 0.34468389218619677 0.22372508668121327
0.1821389838524965 0.29531243681816477 0.49956964772039214
0.14845248272857248 0.29975694379257334 0.2929629399243936
0.5743045292614397 0.22622802816033527 0.023264727276796293
0.22277067840798281 0.33011030970558863 0.1973135135363009
0.3234301636600492 0.2766855353110884 0.19005843511855858
0.2602570668141482 0.2798842338356451 0.17442233908148808
0.3923867259287306 0.2558730339231232 0.15550223821335862
0.37261205831228494 0.33003697358100226 0.1756470769988141
1.4966809122345524 -0.06083978691670211 0.8686722503924216
0.3389208120449325 0.21714922631842626 0.3083905719164193
0.26401142442610137 0.2573965767451796 0.12596767700620148
0.3038984390494477 0.2142711458317308 0.21556810741839172
0.3203517211988185 0.23368371317079095 0.09964042561321662
0.39927765580665664 0.2677357710570334 0.014694619713608859
0.2871972626519721 0.2804068540279445 0.18292378611805304
0.2764637099125338 0.3559281558884919 0.3533048407329886
0.3335018665657401 0.288943310483063 0.16586212462411254
0.19958827572854432 0.34185650115259136 0.2816243793934916
0.2760624342182041 0.2652489515658516 0.11357361990279458
0.32090335449959184 0.237749814898649 0.16451316946303507
0.32640357941279774 0.25865333658455825 0.12512262902941984
0.1397560569142513 0.4250030580434725 0.34893019651006796
0.33850352205695344 0.2512622412639871 0.15214644952703793
0.34931138920654803 0.256654982228838 0.17384914229239712
0.3385600747623698 0.25446108529953904 0.16492519552619456
0.3233231687784155 0.28485396382890826 0.2144001627601142
0.3311753081705291 0.3066057514145797 0.11321738426991601
0.2331720405391735 0.292699043497322 0.1385695947600425
0.3824490296396874 0.25510557053868865 0.174303471279444
0.34641100341082165 0.2529168588092858 0.16088878731211764
0.43725664765450745 0.07734460150751943 0.21270856721287146
-0.37930246331083595 0.01442244348550048 0.06671948519638704
0.32827735832563576 0.28901520417417714 0.0969862405383708
0.30123437884026316 0.26746906536030224 0.16860146954476818
0.2578201705148615 0.25436003082765524 0.14689232842729893
0.7593840820386788 -0.045279162436699494 0.17634179862508859
0.261583934621342 0.2261446166223493 0.2038137805099609
0.35434525266583705 0.23225160072937 0.2369775250444235
0.31203187469984073 0.23580576270512665 0.12549473659434796
0.28499939624728654 0.2619495511073211 0.4345730594751558
0.38787661601645596 0.2305877516852064 0.16811743794191614
0.2864161056473904 0.27015816455150343 0.09947385593952163
0.2946866588279988 0.2576240833489578 0.15622624932854023
0.3287145617473186 0.24082430848756076 0.12061951474235855
0.2567242000870067 0.25404895328281896 0.10572175755716273
0.15611865354949828 0.3439994816536114 0.10940309294515771
0.5221275526312326 0.11557602132432976 0.06032579727688869
0.2168010159902849 0.3127847445439613 0.20512810044053253
0.31468763453841575 0.27445231739025644 0.13042033645719187
0.3051823073139701 0.26742651521919925 0.1500436490736945
0.2570537916482465 0.25479532077417844 0.20218922832091835
0.2872843422580331 0.25703419188801035 0.13335440114737196
0.2564552114475589 0.3114823699880276 0.2672444145598547
0.24866197943606494 0.28657766333986956 0.18767606462597541
0.22361400983294288 0.31485672007330834 0.2319396687167341
0.43451796476699656 0.33899667203463935 0.11939862025309367
0.3120159661084756 0.2363922122390676 0.132285757254067
0.17992683458109582 0.35398100490229467 0.22428093932748538
0.33182736832714 0.47975896720257083 0.07408859973858739
0.3054885782864005 0.3142076650974417 0.15345217306447978
0.30815358681519456 0.25130033790831874 0.17106645329528192
0.3053909045417811 0.2540608176104513 0.1718825670046158
0.3330277089079061 0.2333838292348105 0.13658573334174662
0.23174505226302244 0.3066966853382951 0.22066241073122228
0.31341519211190416 0.23562706956720092 0.09418982471694903
0.14844080864207854 0.3428777743277891 0.25481629769282677
0.25408283643270124 0.2590562714871112 0.24095109040356988
0.2146078375166951 0.3167656327875932 0.19472528612675433
0.19287278498131855 0.30181823612670655 0.22520756824869181
0.2714012236774863 0.2928072424872994 0.09388200849269879
0.3966489858552791 0.26440521784365956 0.06220292338653621
0.40860148946049435 0.24140167528835832 0.1880373012969443
0.6116009792055763 0.29190724583597216 -0.06101747714848216
0.31458400007150544 0.23109126997391627 0.12739614703026803
0.2834040150957122 0.23162981389941706 0.11649733156417597
0.2732615209129108 0.21542245472994637 0.23962845577071334
0.2996623526852886 0.28505124753672817 0.11934998212379355
0.3950434786352446 0.2597199562425345 0.0044659894446397175
0.23029520558377214 0.42815418703951025 -0.02546118116995899
0.3381805819534236 0.2681343262374014 0.19274185384441012
0.30044809952104856 0.25573871041351026 0.16109629244206758
0.3326159748881281 0.2534924928322937 0.14526192282355055
-0.014068074587697765 0.25216482523418904 0.31907487612318164
0.33098888101051216 0.24779742299668328 0.14507951666813312
0.30070221982589374 0.26344374304548523 0.15180685467490207
0.3235905438959037 0.27094237486855377 0.17994076311541107
0.16734593131135966 0.2838964298451998 0.26602726846067526
0.2808739775635871 0.32322394177738545 0.14547980108694958
0.3140200932702726 0.2467063259896065 0.1389525852165434
0.32919246002050784 0.247840799471291 0.07927667308277364
0.3210840324429256 0.22759619670350162 0.08133568158555704
0.3770598382257475 0.2671172908029291 0.07535920024943721
0.19823372497350533 0.3642506452505643 0.24985338418775882
0.3528609624459875 0.23689682932284484 0.04754209659006392
0.2822677499762847 0.2697082697694526 0.18102244584966343
0.3401018439418806 0.24827031105390063 0.15183423418841357
0.3361467857044431 0.31138428536903007 0.1030015099134971
0.2544245221715613 0.2352913797215308 0.17891332591932496
0.30754345992794185 0.22191141173368578 0.05626184011947544
0.2920522179152556 0.17507666361372287 0.042489503878385904
0.21512308250521528 0.29589771448254965 0.2737991413514038
0.29324681764778404 0.26617994028981684 0.18152929628328707
0.21283498943711265 0.34623799029884594 0.27595013518516964
0.43209204597732764 0.24751712477554122 0.10756784008940201
0.4117706351039203 0.21255073332807228 0.09548215253499848
0.356451232873809 0.19729148589220813 0.13895956720827485
0.20673719726903528 0.33499669480673333 0.22583678255475093
0.2828621860926148 0.2901003209659905 0.21958688379909574
0.35084774814234265 0.249485998344241 0.1614337314781551
0.31241183503695424 0.252774818183525 0.067844882533592
0.3024116882743044 0.256979344294507 0.16120065951213292
0.3806969299583898 0.24891454595965 0.13640491474953365
0.5998709321737152 0.19987293541714735 -0.04657022885558604
0.3216931565995367 0.23618506059290212 0.11765627958871505
0.3609232595129299 0.23771984363041554 0.19723731316511817
0.2918481142276619 0.236295992258178 0.05336571325318573
0.20794227751667904 0.43753529117299195 0.3030114012616849
0.2717031831905956 0.26277240570195204 0.30213026853721203
0.32471253800231636 0.24426080528277794 0.1863405274150125
0.27485297567005773 0.28512902523431194 0.15279964726278195
0.2968477691855753 0.26603749837623525 0.1470574282637358
0.2232437611285718 0.29247253292319897 0.25217976471472525
0.2468321480310749 0.002988265564212611 -0.1313271781316132
0.26247831709434877 0.26951042026891514 0.16581632436179916
0.321503434563823 0.2212847355093004 0.022889348600614312
0.1890082632067447 0.3294152534150214 0.25071604230336675
0.3917809911894494 0.24305212747901805 0.11740070688605897
0.289781228077743 0.2624729067990188 0.15819502883165626
0.30301305453929217 0.24994812762996332 0.046432612210679736
0.1669429842268073 0.33642394973639966 0.2505246089659181
0.1456436972595725 0.36115644302999783 0.1985978836715816
0.24942101573114428 0.29928309978379275 0.20167618487830907
0.3263069326204402 0.23348409903854872 0.16336630518648576
0.31837297560295497 0.223322809758713 0.08992754754689258
0.3531151978450282 0.21763238970395093 0.14578153089840384
0.2825136564408126 0.2789404097713657 0.006605600282711066
0.2561076258251376 0.2958605418421598 0.22488731930468475
0.28887082141091014 0.2587090614603085 0.1027113498333847
0.27834082264435267 0.26494489174048397 0.19489573296270635
0.2896882535030869 0.23990869003667115 0.15040343401298628
0.23065376970168927 0.3015329327193399 0.23541507427947295
0.3690707973492806 0.24456485670864936 0.2587360081220851
0.29293867453850453 0.2833924824787175 0.19354213698929357
0.27613644345248645 0.2477948038586817 0.17541602018164326
0.260089530736451 0.2270699372965339 0.1709787754311094
0.23811090823372183 0.22937102544273102 0.16997517803298479
0.3302617496495657 0.2568763447964102 0.15782070628924316
0.24936639841132546 0.28490239122470484 0.16690677510365504
0.33035936151472356 0.21041689990326518 0.10420444927328276
0.34263713691223074 0.2652534262809354 0.14357397932464266
0.3178536915763459 0.2690996884346504 0.16843822108111794
0.3050391921255482 0.24072885265216826 0.18489964337229026
0.27723656853109446 0.26723960685133363 0.21656981304997203
0.33462941139364943 0.2662482969723783 0.18534010450667893
0.3803211084946838 0.23027977420497336 0.11500452490957969
0.31560055537846665 0.26104097864495657 0.13472417142804716
0.27140179500892714 0.23614099388080945 0.06041274957519249
0.28061914431972923 0.2750191922061447 0.1996492815583224
0.19998860702236243 0.20499184190737196 0.2980193664575381
0.3061687056618183 0.26599258430758255 0.16204280963785322
0.3083666599758317 0.2307438099472563 0.12263362878945827
0.6563408847355134 0.11943003546147679 0.09302253371870961
0.32347816587136435 0.20033072065444912 0.11971168864675974
0.7466377075105584 0.07164443622170324 0.143713603130891
0.3104043073925311 0.25166297499924895 0.17041863434261018
0.2713928252423443 0.2740574705380254 0.19821090127338437
0.2799280920823577 0.25702178929356023 0.18908043216461579
0.46066617488199313 0.1942430686253971 0.1353824594626758
0.28608250199141594 0.275216243778317 0.16096677425792905
0.33715597831870525 0.2957625994226305 0.0976536809230879
0.29812358983471654 0.27612949941254783 0.1180244941082833
0.3245694933295056 0.26744664072637647 0.07361050482535347
0.23265702210144923 0.2946734460558389 0.21941207861753753
0.31815708038786283 0.29799985229961123 0.19836631153876283
0.3395593231142584 0.23734823516093684 0.10870234296689318
0.31418507234097603 0.20722484937201102 0.14843125812802782
1.5086747416686137 -1.2234405679180043 1.2558470742340404
0.18094351170753953 0.3352825327609139 0.2082602714234838
0.3039770773650048 0.29081478803172445 0.09078475728223623
0.3967178079558664 0.1809384706052981 0.14519177308579856
0.2718865704662221 0.29470115623504967 0.18731718415861565
0.33561752613132967 0.2580647769439395 0.15300436001990647
0.32260198671693274 0.24354150457108403 0.13563426398627598
0.10328722454266881 0.36351669476835013 0.25086873513370733
0.20118195010991258 0.2949843356903443 0.24081553399869904
0.3082593040901145 0.29027074999734737 0.11506353007108316
0.3244436207154422 0.23378406955694686 0.25723083340332664
0.3205249302408788 0.249701571840248 0.19755089905356726
0.4917105563197026 0.03835223679229216 0.14421479692643402
0.23403855953492325 0.3587629585167633 0.255259707240171
0.549345983596794 0.18430731594992267 0.02944331704418346
0.18670024505263427 0.31429867008297663 0.24575732598432865
0.1643681447219194 0.30632882204125167 0.3115911456835647
0.3599965590576062 0.24455316531681603 0.17668059811023795
0.3303378204435887 0.22978965997343437 0.13485267620862373
0.21922528150466292 0.3070801565516774 0.25815412717194874
0.9851120818915575 0.02818208937183897 0.06272630395835677
0.2894539792791875 0.3084285998482983 0.09754223933256867
0.31698728541954324 0.26949713532417263 0.16243644478976194
0.3106567826885538 0.2855183607426852 0.13610484545370127
0.32215385022107057 0.24641792705944 0.1817716092169661
0.2615291765511216 0.3033234047919535 0.24497814387507333
0.14792465926171872 0.49039577807457135 0.4704733092353024
0.22956478822749204 0.2904845768875788 0.22338549054865098
0.04312401974890179 0.2714782023088844 0.5962012344195387
0.18331534236455127 0.3545716145141853 0.24464760974697697
0.2943018467166496 -0.2873846442278136 -0.4171798632964965
0.32658233324134756 0.2484012681686636 0.08505394657605336
0.30852102114862134 0.2593419537382715 0.1489344418861407
1.2637256832227308 -0.7624148182654551 -0.17589097662400377
0.1494927221126261 0.33407192811566233 0.24612164936536374
0.26180252947992244 0.2626556055560627 0.3020016272888313
0.36524931321943654 0.20228594228260022 0.2419406731991529
0.3455388026109887 0.24145203445490893 0.14237831015920221
0.3831434197552994 0.25342977918981546 0.0782646964096898
0.1990125635378206 0.40184940193867646 0.2261918915678649
0.3301877353651719 0.27229591727379443 0.1482773202025811
0.24613290746175664 0.27507496984152624 0.20210555608559844
0.7391264971625446 0.24206001342528793 0.1221770037875558
0.2613522625694742 0.21001946518786951 0.25050595097536643
0.36150113034616993 0.2396582557369129 0.16585702957175386
0.38867391256343353 0.2540473587423122 0.1384342799150886
0.31065098814300995 0.2878580972434577 0.15420777107922845
0.2385185262242544 0.2910708942806508 0.17584750174984265
0.2222433161852848 0.2558717774353738 0.15897156699061554
0.33015777840155636 0.24566148355418704 0.13449631913232452
0.16272055295118548 0.3237053299819479 0.20796751619288045
0.31433489210300536 0.3606888830794901 0.0396786581526527
0.18574866775718135 0.33169043988483793 0.26268916510467477
0.2822542468328635 0.2917464050142371 0.2047307095907911
0.1507481073714274 0.28392014862716053 0.20068543443582598
0.33871978059069363 0.2472369657345297 0.16386560987024268
-0.04899021924418889 0.23583855534261033 0.470319956487927
0.4124217676157116 0.22421305790675206 0.0704617894808166
0.24762548469300327 0.2484677448852608 0.23265921013617685
0.6862167456958446 -0.009237077362271862 -0.03861448022800573
0.2714226424851631 0.2841450690121121 0.08263756734547201
0.22852887582590142 0.29526683008023724 0.17134076607409554
0.31385546331949854 0.22881500696321666 0.1322621225316709
0.299503784244763 0.27247116345483846 0.2548057161818349
0.2592844570768449 0.28987801348833386 0.19041148355644566
0.21777132802628785 0.35333633667448794 0.24747852679968219
0.333217987323593 0.30849600789892406 0.06694049238348043
0.3515884971328802 0.28593666429134146 0.11511974492466948
0.4005472230700775 0.2780437196655896 0.08798144418429388
0.35289879792395595 0.23779988470413116 0.21483140801672107
0.1896308315648838 0.33113959101888213 0.28668055503541723
0.16021938293083338 0.041379777653475 -0.20274690786214933
0.20428313311228408 0.3561174567331733 0.26312154389174225
0.2756018013232904 0.2889351673323688 0.21659681003993114
0.36168083722154165 0.28307102595624656 0.2457649151051271
0.3185473575614992 0.27702153622881553 0.2062436930702347
0.2617621560873715 0.29932486401692415 0.19055577681893965
0.29699332965356007 0.26913521539924545 0.16396493024987535
0.2596358229317275 0.2643483441893437 0.1703521509422501
0.2878474266034914 0.26416829060576674 0.15836912065681474
0.5757593217251156 0.015268279813540175 -0.06694903959522946
0.3193612503642669 0.2692667298166356 0.20382542701713646
0.31300704202377005 0.3281470336061858 0.05509182286061787
0.09753679753691813 -0.0040258591286743695 0.15934539778466217
0.24548907705175793 0.27695987317301274 0.22799257021655706
0.1764771746013878 0.3085494834596716 0.20005959527426853
0.21084630327118248 0.2525126330060914 0.1643932975776181
0.25796523444739705 0.27285480135910234 0.1764198721361936
0.27936606296294997 0.2709551875032048 0.09142966647908679
0.27464345715615934 0.21882805711581454 0.06689770397397865
0.16498400188697815 0.3471289114170304 0.2745618352716832
0.2326276690630209 0.2104528620175472 0.12980337256630037
0.28774201119023246 0.26616710577840763 0.12953950447709417
0.242648269916387 0.37138221460556053 0.274391796503096
0.744974887853175 0.18111161569467527 0.24475879692607805
0.6243631547106077 0.16641448395206737 -0.04089929727317099
0.5096369481435801 0.27585729170081663 0.10321886361674615
0.31570148963241706 0.23449890254627803 0.027464108636209517
0.15440551860834262 0.33781273746225793 0.285117723335901
0.32161886341987156 0.26622133965456385 0.1514614299581183
0.34185681256879263 0.25060600108358244 0.1793737959720545
0.31416106163689506 0.2557557725331492 0.17594093268755273
0.34520945193952457 0.24994756411277308 0.2813964521028396
0.6691732434688333 0.09943482893983457 -0.08961705873352344
0.3084534951834428 0.2474263612795653 0.15662918169843465
0.3640371685693111 0.306743455682323 0.07858985045257327
0.17806484877009154 0.3389128057232824 0.27787721419184663
0.3576867493206066 0.23815814531531032 0.3464637445863161
0.31233796288330495 0.27319768530270494 0.10260673471526616
0.20900686084706876 0.3063805744065178 0.19602541937098295
0.3638503082129887 0.2648942619978243 0.14082620179803484
0.3488200154466199 0.24959401527085845 0.141644153386963
0.30379437676185717 0.2725800344734921 0.057714643900922624
0.3399092024294248 0.12085680021928624 0.13039274887907482
0.03648244558868896 0.2339172234118223 0.3722334860093781
0.19837056666622743 0.2917254449065183 0.22989416422592512
0.27669274013288714 0.1959564388635613 0.05131070981124708
0.28609359577187377 0.2486578016739429 0.19492163380354555
0.30898959590081176 0.28065960439921867 0.2162177649913133
0.33108571769946593 0.2938946789849126 0.10064567868259644
0.48083232403729426 0.3012184020921609 0.05247199355986254
0.41597353346124066 0.2202771809948274 0.14286704145797557
0.42111536078178347 0.2160775978441336 0.1279981540820927
0.3600237825569508 0.26850136660972623 0.12022783683076455
0.2755090151012638 0.2855168436249329 0.24267191958547585
0.20479481377421394 0.34828615618121717 0.1256358370360715
0.17476110204992779 0.3429294654284547 0.17340101636577288
0.22816834471458947 0.29998358080233345 0.23512160821788086
0.3285926793901126 0.28663586629360793 0.19069565518239529
0.39095311347097095 0.25615635421931415 0.08750607314118497
0.7884916023252231 0.05747420405897685 0.1344334673941887
0.23482429622640666 0.29442300246110165 0.21130478690278665
0.35327575237396047 0.29408942885211786 0.3119870621698624
0.25615911885800813 0.24841033291485815 0.14738271914930579
0.2673555916923931 0.28275566677899633 0.20839334735302373
0.3117431666410653 0.2436999934358539 0.10522909087875121
0.657342075801921 -0.0696072862448176 0.02386323651714406
0.2307887553032515 0.25523748430070725 0.17638767278643286
0.2308731493755829 0.3675242062017361 0.2669938342067013
0.292932305166147 0.24904906790993664 0.17885351157175933
0.3598098403219865 0.3311505081908592 0.5671995393987288
0.32735872933872656 0.30226120257410116 0.1822184150539954
0.29844985553327774 0.2586935389615235 0.14728694514522545
1.4451772405929688 -0.09419906685860724 0.8888731767588638
0.221103006253756 0.26453619769668535 0.1725704015199767
0.2976497570565755 0.24650644192058735 0.11676647627339776
0.3284832500802395 0.2616225743358882 0.14637072710456778
0.3125466996908415 0.25037218333224587 0.17064750972406273
0.30751128177696785 0.2674464033556774 0.14513762510935635
0.2976334604526585 0.2566821021001431 0.14409599707016696
0.29370781977995364 0.2637655712423168 0.2098963253348245
0.27210232670219625 0.2605750601825889 0.19770342952490694
0.30550701136678526 0.25666502678492975 0.16422536500340357
0.3668589814707275 0.24180098543340023 0.25043040615594236
0.4459586020848576 0.3135643673817583 0.09947645471115152
0.28542537937397583 0.24615293013749806 0.13562788272921011
0.08846272006842071 0.46536397835268417 0.16151825085219684
0.5060819459285142 0.08469531161554755 -0.07726978787691507
0.18774016280126204 0.289035356430972 0.26739361564546016
0.38220910658237983 0.3661691541099401 0.15481553929927827
0.21042310884941173 0.35245119503747446 0.2370110489453907
0.33023050501923024 0.25855862577006405 0.13543727724805876
0.33475443295660057 0.18916771074208327 0.15819167130118217
0.2879302953438412 0.2685126055009164 0.06644614646793912
0.3039931155427382 0.2650744206421791 0.16820955003549898
0.2959672178813264 0.29368487473082894 0.19715763938168607
1.024123912970623 0.5861117065321082 -0.25653065348856785
0.25237953205572694 0.29222280098399267 0.1466143085084326
0.28373769647745917 0.2553491238948027 0.0963170360420662
0.34525958322446115 0.0999618870432073 0.21413233459303171
0.3613512150762972 0.22736591870923917 0.15449374859610998
0.23286266727222937 0.13935321879557705 0.09810019643265377
0.7212444310970483 0.07964406302258453 0.2719137440406314
0.28071344213140037 0.268771436531722 0.171474473958952
0.29371075228139887 0.2664887375117928 0.11934543829255517
0.15844844995707774 0.32848003393631586 0.15103024613546268
0.33340957404035976 0.20530126704437635 0.20099556207139813
0.8197528572749917 0.018799540379148993 0.09467551289466769
0.34429838619853115 0.2852571129594281 0.13094462245099692
0.23076936828589112 0.3335355898512944 0.22286540496031648
0.30833176459361766 0.24019685281486147 0.12609251117720532
0.3090409315332181 0.24556792663915417 0.19287465914635504
0.3199982882575796 0.26985677310469214 0.19106170232726072
0.3057912824646678 0.2990834102728286 0.17052111458892227
0.2599209027540894 0.2927520452811052 0.15693715446647616
0.24571926692905777 0.2744449373168436 0.2308222323583493
0.2944794111688509 0.27956000888059407 0.1894171055701861
1.4891124600788146 -0.07309418507989562 0.9024659262521482
0.288031628134803 0.24400772596389686 0.19938556729763945
0.31393611685192013 0.22062503913430476 0.13720528950278776
0.3054464936865884 0.24659433757155114 0.14539667188030592
1.4536902680109165 -0.08341005038619187 0.8986458360212453
0.16486251717297762 0.35639495447566105 0.18637489734844337
0.3549959332308674 0.2517345783779774 0.06977206723826157
0.020298536195156203 0.32503584251057305 0.5575941123973678
0.2415538468686549 0.27774638298475907 0.23169762769953195
0.4768865666247848 0.13274082241198926 0.07655362784038289
0.24530915142786114 0.26534159163688287 0.18272478463191533
0.3001040517531237 0.25781210142102395 0.20498397880749053
0.019601888184325844 0.22977350429775356 0.3752837366051409
0.6967883309476406 0.0017786932079104645 0.11934737069432799
0.3393574309288283 0.26564372663253266 0.024999371400269865
0.2238573280935583 0.30847344597138715 0.2170661313940343
1.2324246124759668 -0.5820364282163553 -0.5842927484080747
0.2588028390979389 0.28744297390255724 0.16857890253849916
0.3423906300583326 0.19772304324044399 0.2166512084555876
0.14998885866774003 0.3143721856857269 0.18020680937530642
0.23181621005178954 0.33156545707861085 0.25839256231992636
0.17742264160528975 0.30403358764357336 0.2655682124408969
0.2598884373506962 0.25879485599480745 0.14121205489782085
0.3535924659292107 0.2779931633125159 0.1220379309866928
0.408404221713937 0.15856216305876103 0.5142550807663042
0.19162238153833755 0.2664401786644248 0.2703277491793017
0.32717290137408384 0.15888674725675855 0.12484932753969247
0.3359447912142599 0.24782064666193548 0.32516153310561435
0.33396079227736664 0.25743718874122123 0.15880507309586278
0.3051428978818649 0.2761175300820753 0.14689146527167907
0.25562463077298503 0.24955342161152316 0.19645809597201946
0.2716170296447018 0.21985269709271904 0.2370091034822508
0.2561287299399595 0.31370215830654047 0.31028732610965903
0.33331435779081175 0.31932024650677704 0.18322281617713543
0.33281324092773445 0.2805493616803574 0.18369011945361535
0.3090456424614558 0.24095467605965837 0.14216217008601006
0.24229447712704655 0.2540089654090849 0.15194636362136293
0.4217249637224256 0.19443295970978625 0.1530856759067376
0.316519143472334 0.2616129141280794 0.19135501432504043
0.21957703771681736 0.3240506565280725 0.24560449943555795
0.29716243562810973 0.2709266200380398 0.18765930477604797
0.237741711599881 0.2694670277019213 0.2615659760855067
0.2006615361714239 0.31818337963655097 0.21740734765998582
0.2951645717530198 0.23840588188006961 0.06843557700736369
0.368580735114449 0.2970509538073003 0.1570536739163373
0.2795890586726131 0.2829696058338982 0.14719057704644456
-0.7645900262747318 0.495854004722446 0.5339731349513954
0.6228720226578446 -0.034240132639212106 -0.011510122900801889
0.29760183558043707 0.3056478809110956 0.19770707605840698
0.20120814282904576 0.23508148296821219 0.18114114364755096
0.20980466589440994 0.2579419890403756 0.19851462755590887
0.3114027198238887 0.23390103646067928 0.18872745863978935
0.20178228768105555 0.3121094983154791 0.19678154702555162
0.21383787609210003 0.30344232927221526 0.25996007991389547
