# .PCD v0.7 - Point Cloud Data file format
VERSION .7
FIELDS x y z
SIZE 4 4 4 
TYPE F F F 
COUNT 1 1 1 
WIDTH 813
HEIGHT 1 
VIEWPOINT 0 0 0 1 0 0 0 
POINTS 813
DATA ascii 
0.2273747363628189 0.2538840106504807 0.07670067127108382
0.32791543072606544 0.22367397689177437 0.18546026602747645
0.2584735459579406 0.2946077846098092 0.1726652691207704
0.3165871144909431 0.2695018668174498 0.1967087156466789
0.34828878984725975 0.27219969880886197 0.10643961775878097
0.249837820851468 0.26752869667583923 0.18428571333956256
0.37495548123118283 0.19718906516877155 0.10450895398531657
0.09259612498729552 0.315276420697856 0.2542198003111622
0.3727850514105029 0.2026923785136745 0.0899151501554627
0.2270181637812385 0.2995380796894551 0.17397741589007865
0.11557429454418866 0.36343907168455303 0.2676728204810104
0.6893948569779127 0.1435738942965088 -0.016002927999750227
0.23741180571033738 0.3067226352172838 0.2096715816511221
0.2935061496274898 0.25401881816696914 0.20609769512405762
0.24668352506134283 0.27854050956273113 0.23630335287883497
0.3186568379534407 0.27022996832366175 0.14704036232910767
0.3647613607747502 0.21259559542977513 0.0964597536780758
0.3192446743511823 0.2018235397184469 0.14717405963634178
0.26523872500438017 0.27351950454342955 0.21011538995608703
0.26524815478502717 0.2317344946577009 0.23392256584764937
0.5175739706515685 0.2960615555215611 -0.039529366419117196
0.3004981654778476 0.2943465468394777 0.16792772031371328
0.26695387332944165 0.25206991147067015 0.21676349804371853
0.21215593172567537 0.2947197580946721 0.16811162394662915
0.3863415929486109 0.20060879712976032 0.029476206970798557
0.24117935917641375 0.34348222505848014 0.22386564473175952
0.3336880827227162 0.25938897400028793 0.17912804966420026
0.21215872258056834 0.2911096170258247 0.23855370625364003
0.3973216996211022 0.2199078905885017 0.12351240765468674
0.23799531675865637 0.3596811557618764 0.2644608914960145
0.36546727677973934 0.22796846024957063 0.07635418562196605
0.24969104976639755 0.21384314498779133 0.07944154181377883
0.17746463901157483 0.28682332598901894 0.21663533467420848
0.27018645993078394 0.2592815530692292 0.20207512932228155
0.27131911339384374 0.28852614508667784 0.11197631801078956
0.19358263136106757 0.45622654258590956 0.28597858019222144
0.3265706545018645 0.294488724215924 0.16938892225928726
0.31554399332605954 0.3805367900586418 0.49576765841945303
0.1903261757065451 0.29231865087518827 0.1634281469469414
0.2666890449915229 0.26749334807780656 0.1363687695226048
0.24464880735598626 0.3063671062923845 0.2199038632453636
0.27467843640906153 0.1928012352726114 0.11216932434186333
0.21297159422293532 0.29309754214047246 0.23651186293022874
0.3059077028988213 0.27797424221635936 0.16208164935633818
0.26451797817571787 0.2503553354777637 0.2116894295377847
0.17683929101104923 0.32151124524745 0.2570269047744773
0.32258279538953616 0.19171663747144407 0.14901770441161943
0.26018406921545534 0.26280177991213804 0.16589351855685663
0.34648696966263515 0.19465591288707174 0.11937110003685802
0.33417576644555425 0.2246741469306528 0.1748360613657951
0.3114270433051587 0.23934574758072813 0.1639030192486075
0.27877273160993354 0.2864911540953585 0.19241521559402486
0.25755780120788074 0.21846629385123606 0.23398807616541717
0.2492068649367667 0.2629991974456516 0.21313322857156436
0.43716183053844304 0.2581465007774 0.20999913042436447
0.2819588776866624 0.2518986319583689 0.17755628690620995
0.2739898008812389 0.2451149347439241 0.129618583916411
0.2510381677578124 0.3024516340558847 0.12093564195723161
0.5207503865247531 0.11333888175855122 -0.13161903694194166
0.25894310034411205 0.29353959392561535 0.17021747887922345
0.2694633874836825 0.25687527846687885 0.1929222300730089
0.0934328460648004 0.36237798703973567 0.21508522103255245
0.27805205972912006 0.27138685617465796 0.17354986239982395
-0.5484575395249607 -0.16644106670977976 0.9952404993889843
0.32771435907480395 0.21279820561898077 0.1111028556457967
0.3452747462939669 0.2646800320914622 0.11845509814546062
0.407374186197643 0.2823482753348685 0.09139428851834452
1.5125347340277528 0.019911659283692984 0.943119929304288
0.35496535331085965 0.2689346637320682 0.18032659364564552
0.25064513523759047 0.23826300652818588 0.17781485594943547
0.2163072734552003 0.2806252433197187 0.14015472508131666
0.16465727673383412 0.34282639909140755 0.25756029467333974
0.31930874910315765 0.28337682322880653 0.2187168996906479
0.25409118324503766 0.2537198529144007 0.1420475603503064
0.28561656279316594 0.27009120988039115 0.17716640185402355
0.1707951398124692 0.3601959184622956 0.24233403898662687
0.35343983069924434 0.2411791673789878 0.18773153712302815
0.39675639111631256 0.2877609658357869 0.5239459399256248
0.11201712238411687 0.32678215031012314 0.32045477680614454
0.2946982452707232 0.2533727397282348 0.09953339350572321
0.3028408109376812 0.3701353479527967 0.25734999668111413
0.2923846320471739 0.27314440219447533 0.12284628958438759
0.30471623756075417 0.2253666804512875 0.1922848648282809
0.4000844884846657 0.2569756379320438 0.1512744677722111
0.2594937983434136 0.3383583099388545 0.2416316328668131
0.25276649110242033 0.26171702419043186 0.15529415502366817
0.30074159211554274 0.2531585127429139 0.1713689310391544
0.26029413661598255 0.2700766137553501 0.142564560494435
0.43449287937869485 0.24692321078188684 0.15967374205462193
0.26417350357573355 0.2802834202672386 0.10947662052467422
0.23650741567286104 0.3076805908607554 0.16025108991217962
0.31668332086061923 0.2544983284097668 0.21340987343307916
0.28606071254921517 0.2809628672288227 0.17250853762215002
0.2688015157118002 0.23043763812786722 0.1312747094105049
0.31551946122610275 0.24061067836188954 0.032486187471477024
0.29291276745351524 0.2600226516214832 0.223201267393506
0.28730164384087686 0.2621683492628222 0.19877681338203956
0.3486561641093431 0.2686947825489767 0.1544488299563369
0.41238000317241585 0.1827459512578571 0.07287084307864689
0.1707523437003715 0.3432408907820559 0.21825594524710823
0.5952348839883967 -0.038883648745112964 -0.10482105779672679
0.3638222907839861 0.08667665767845278 0.07190908037847521
0.5556077945772699 0.32880212783086904 0.01562460931984333
0.1574628664186548 0.3914153308808892 0.29562470101269867
0.19558169238084133 0.28060071869352043 0.14196119973865962
0.2707168870783221 0.28001810391836557 0.19720853153394557
0.2686516904737175 0.23904027500702796 0.15975044597614385
0.21522622667953328 0.3003186757294998 0.19908451877026323
0.17475474107052946 0.3167137662566688 0.22608468786594926
0.4043869564156921 0.22624486728844317 0.12529689194761318
0.27967871626651686 0.220556436963534 0.15090432822539412
0.15897312512285566 0.3674858959600442 0.30886208404301385
0.44787839821100306 0.19194316406731105 0.1395975784998882
0.41876926379775625 0.2028857965333657 0.15078755897309293
0.2776506983183822 0.2331976699896643 0.2184823351627614
0.39046415147987545 0.21395777925603454 0.29565861316567066
0.28966546125843706 0.29252915206032526 0.18225682935263876
0.29567610028368563 0.2959236744625855 0.11835841984024853
0.26188305287061553 0.2295245357147735 0.23146051636548748
0.33658525479947343 0.22189552396440604 0.132618683830529
0.2815408614705177 0.25766391481528217 0.15484227589840316
0.28268005786910066 0.27601909424160453 0.1183881481946969
0.22700600946284055 0.2415351824176355 0.22282813789493616
0.32546000247018014 0.26055253403652046 0.15884689248503037
0.30341618261968506 0.2852088187270283 0.17511754822481862
0.30059665161005 0.22906197978846876 0.13020430491445723
0.9878007755656171 -0.5522543189139668 0.9026375229536683
0.38232817328878355 0.2146747809545957 0.17074112424748478
0.2655969591248777 0.25691983987454137 0.17567643478888328
0.2843067313877725 0.27568115021237816 0.1473991506187815
0.34117028764174506 0.20367756432742112 0.04842920511100601
0.27285902026514464 0.2837843768192556 0.19119014518574318
1.684929252056918 -0.06480988690731238 0.4148367307520573
0.26725915135727973 0.23458702653108787 0.179689280992406
0.2668039672104783 0.29155918811630954 0.12814742962197556
0.27552716881645267 0.2651354884660577 0.15676026728925763
-0.1330529227726629 0.28395181000661296 0.7269573325806107
0.36230799270890657 0.2855100191550264 0.11149569537620607
0.7288265369243163 0.07439011395862849 -0.04733834066703935
0.29655175604821693 0.2731034630068905 0.15623644859525143
0.24166725525601862 0.2864355094088751 0.18854315963334045
0.16154621470393238 0.3612833046649371 0.18293344094198005
0.2628587813961474 0.2625157902506743 0.2706457849378694
0.14979730914467382 0.40985466789237535 0.28170640170310435
-0.1681935484293433 0.4976845506020027 0.20861011214942948
0.2993697414600547 0.257333014034657 0.16078587776468112
0.3166496319635854 0.24758658697336955 0.18159018356101342
0.7506848915319324 0.13847871621200625 -0.08858915886889918
0.2546443009169366 0.2905908450109109 0.1562467730449555
0.33574099593300843 0.22994441306008184 0.2273360253922334
0.3541120677678862 0.2421589372285382 0.1659015309710412
0.3096107681343341 0.2750515412486436 0.12244499509900209
0.2875835964150326 0.27426873304702326 0.1527202173707849
0.11004998343821626 0.1868035792167433 0.07975023053366215
0.49047842221219184 0.3527927084029443 0.3875103985871249
0.48155449318097965 0.23949131914248767 0.2644105371057037
0.2597030742867048 0.2621021746937515 0.18532435647361467
0.16395797185428762 0.4243836315992269 0.2166604330139421
0.3243296955853623 0.28860266701727255 0.15054506049978045
0.19588753952959337 0.300143249143872 0.23018891942118103
0.2529951560293995 0.3022892880575654 0.17224126211975488
0.24992193592036926 0.2565344164515153 0.1288911776795203
0.37331469255383354 0.22568404827475774 0.10904253235052863
0.280358224462816 0.24471049530737332 0.1364860867235791
0.28227149703076293 0.26320309684535914 0.14160843493596076
0.2814315832147827 0.2994695961578486 0.20479362378557653
0.29503804041476656 0.3154076726642785 0.10961663729761995
0.2590934835814096 0.27870104874153867 0.20371964481618932
0.20045417506645435 0.28535609081185953 0.20958761100933998
0.2848035139855085 0.1917847938354953 0.1961296579973606
0.06734765424602074 0.2948776303910279 0.2610871825098968
0.3088591927735962 0.2923765665159834 0.17450482936442313
0.3162196703555935 0.2329395874354816 0.20877248585389907
0.27028730527010225 0.26376896979218145 0.20753394839394446
0.24302255987166177 0.2896320222515385 0.19052184436635855
0.2727035254097814 0.25557815420822294 0.15715586644448365
0.28620863246513295 0.28793152360231034 0.14772767042533985
0.3392302172641877 0.27032024672463706 0.1673344900174527
0.3273383088436219 0.44379220440390554 -0.01019563178326166
0.3463906426874388 0.24128958608145012 0.1844935714561018
0.26112228232457824 0.287242969122687 0.1598456374620696
0.4033695663545984 0.2339494837192575 0.08418565694272218
0.2980933926666296 0.24396546854379153 0.0815536902907752
0.2676565785359628 0.26556809702796613 0.18611016297435867
0.3156985443178826 0.2573267716013561 0.16377616071854106
0.1798179536442035 0.2753680403135945 0.22521969637875827
0.3113612707459765 0.268110757428758 0.19711883679633502
0.33967920730603396 0.14339704311069568 0.25069785197320016
0.1895933409192594 0.2955702565398184 0.26845463847834594
0.2710237893015801 0.27266520019853147 0.23516419690133716
0.27620021104880266 0.22841353410233012 0.17734038911680727
0.3009885797239207 0.26009540909313955 0.12321980868875926
0.31267329535356225 0.25230805905266607 0.12159465660582214
0.22642474523394185 0.2710754577097134 0.19604158029005703
0.2234012609611824 0.2900664986961061 0.2632398724608578
0.35686967264908276 0.3692845221325598 0.5210660922000159
0.2990279301236711 0.25464420623333694 0.1917250289031074
0.2789632370942172 0.2812296167920465 0.17547257724247345
0.33278304132568337 0.2398925379478669 0.2597283024533965
0.32406243707515614 0.2549116810567966 0.14089520747714346
0.3419194374164931 0.2683347403538221 0.13415415635911643
0.2547290299260965 0.25851738319906303 0.08410962241579512
0.2854680601705155 0.2697978718631475 0.1408822665759999
0.31785578222680044 0.2697036633622787 0.16068072284247137
0.27880803528574916 0.2583258514282676 0.17561537623583945
0.28936042753343827 0.2611462221428553 0.1713049437747003
0.2233209888961767 0.30267256904619444 0.12757124555486143
0.31979528573046423 0.20222313293983518 0.2378991654648246
0.24475559737629737 0.24787513705764752 0.22962259828393883
0.248415176822391 0.2662529521517456 0.19731915736142014
0.3178817831672802 0.1601642117004758 0.293696339428962
0.27326494851706684 0.23878191391577275 0.1229202612578888
0.2942756451069215 0.2602989841593626 0.1973954910889404
0.31039677140026356 0.26531086701588436 0.1564200681641239
0.2811161309825394 0.31765078769373645 0.15037268088626377
0.17871588710397646 0.3873737020632575 0.2755276002613414
0.36245241594320987 0.20006305964255944 0.12203999488892237
0.341262964246539 0.225600898864883 0.12516985171399142
0.3447032388116327 0.22993533172036962 0.16828426029911725
0.3677249590326994 0.21626697380328608 -0.01079250625792838
0.23675987043094437 0.31490187613435694 0.3057323120587512
0.31020999277339456 0.2655968975108749 0.15190489717849687
0.27179231537266446 0.2521863065270509 0.2225149363621739
0.6455203602439639 -0.06081001672598063 -0.09579986138984964
0.24962163084779831 0.06348750186376151 -0.2590033096776665
0.366411157753987 0.25197212768406985 0.18360240070249745
0.41509129113954657 0.4020116802262237 0.5780099243076222
0.27319342047366035 0.21981350914592213 0.15152683076031792
1.52820990881591 -0.028420880063293907 0.9439478320335013
0.26343593301216117 0.292436031135054 0.16611978574565
0.19294879665685016 0.35482708214328795 0.2284765993324811
0.3103382219038622 0.22610204668427514 -0.013173028590884428
0.25212282263105124 0.25743917877862543 0.2077923619475257
0.31237590272451143 0.2740531131245092 0.22131678953442702
0.23908824537801365 0.3519810072661613 0.20793528236586667
0.30977288017297155 0.25473175932947356 0.1693572050703409
0.31462599760142496 0.1938567646446927 0.2785048151637426
0.2767206645453939 0.23756437158709787 0.1711216928259347
0.20850455330619866 0.3348983090239983 0.19131414830542326
0.3291570180617782 0.22355277108300697 0.15669877261659337
0.32607421256332714 0.26021989097083065 0.1905907425255009
0.2658050946074866 0.38234809445744133 0.2803035642930354
0.3047316893389649 0.23644243829065203 0.13187186266586082
0.26292264713669056 0.261695602765613 0.187514882013204
0.20101360693934112 0.3502541980151648 0.23048177978064643
0.08177625172763214 0.33295953184644134 0.19898061168670722
0.22544837062270062 0.2738585206947306 0.17703254954537329
0.31295326226111797 0.2514286993387742 0.18442232002121273
0.27039257725020605 0.2530108696214626 0.17963436278100176
0.3286789036563107 0.2967098905168939 0.1830287093721381
0.2687964070116493 0.2652121227527289 0.1721306577999968
0.33376593118943276 0.29887359541885417 0.08584164203145406
0.4063860836165816 0.20917405079352136 0.3347927632329686
0.33108363988853284 0.2976890657418494 0.11555529694804534
0.3400654774470553 0.1029433665938484 -0.09512754017364955
0.3570032437811932 0.25265931272062403 0.09558799507809113
0.3441161381213931 0.20546346852596287 0.12544776736550034
0.279880539421157 0.26838023424248547 0.20870621441108028
0.3188409399508032 0.20723155757875134 0.12696412916926647
0.09151496432772888 0.15166534910341056 -0.049637379963371586
0.2505925557585442 0.28867396208610785 0.24616108363281342
0.263592769022182 0.22871501318630294 0.15039584264246741
0.2960243465617083 0.29907182989035164 0.19452220689922228
0.5523187417736324 0.1976446314082665 0.05371783801734864
0.26731409950426155 0.26337681533982504 0.1763397971948848
0.28015972510792153 0.3025862927275682 0.18390659146282928
0.4296332208326419 0.25179467406532297 0.13241958447119373
0.1786499684942271 0.4354449768425752 0.31099739578215235
0.4490414127471922 0.19701200261795293 0.14568112287412305
0.3352590066218113 0.27430973896602495 0.1874270881804989
0.32309002806923104 0.22577441441340795 0.11785378083891374
0.35120755856810604 0.23505811201513893 0.10304175972073892
0.29023724147251073 0.2802173684341227 0.1719680227949425
0.1753587932339542 -0.6153031540693945 -0.7497798364899921
0.3225128730084066 0.19709371229856743 -0.0009637690203305738
-0.19963543600124467 0.3035728644574931 1.1762247059743771
0.29692181841249976 0.26872977383099794 0.19449252918455784
0.26893183673956855 0.28635602245479674 0.2047959241204751
0.276932850900792 0.22678078655809486 0.2190129234191005
0.3298224634640121 0.2691990255774357 0.1459000546002187
0.3292819852432558 0.26223259731850135 0.07470222875153354
0.28841987509770206 0.269871305860363 0.26185141100258136
0.31154956703142034 0.2978996577441251 0.11154124972685509
0.3005963430507421 0.21270996556660293 0.03182974048603171
0.22457803510873475 0.2691822840250495 0.17453126145400688
0.31117955685544985 0.3250227296975652 0.20974758696891627
0.3214066815736487 0.2588667700235874 0.011105506221440464
0.2698599901039245 0.23938451947893213 0.0993664696340062
0.3123555208764657 0.244772729375768 0.16041174857109297
0.19453970426424405 0.3039952800434662 0.3062060963014517
0.42207506010259976 0.19962886969850047 0.04330333202193515
1.2465698410015307 -0.5713533328688527 0.11733512884208608
0.28600443105511886 0.30680942224319097 0.17091804881596318
0.3733105850188565 0.2587920225556246 0.13662029541828247
0.27683161600032236 0.33487712680562254 0.2009582425798726
0.28428661091189156 0.23758489573319252 0.17327564296438425
0.27321346131682844 0.21842164125624208 0.2185902222165339
0.29359709589107297 0.2627918454642497 0.17177804854841838
0.21196349673894588 0.2832850614239817 0.24623718200624012
0.2483533377896805 0.2906432066217519 0.11408754787926512
1.4131593845357173 -0.09649629906206769 -0.40327282469193904
0.698991776320355 0.08644872799322911 -0.08138460843261441
0.3877497510003849 0.3074760556449547 0.1217343987189281
0.31675732336273654 0.2771876518323779 0.14376699363508294
0.27629224327611723 0.2741928090250667 0.18278098587320812
0.3449555094973391 0.20653173991652807 0.12717578586924105
0.2860182598560499 0.2266835467489301 0.040169073384561216
0.279196461002698 0.47783602836612715 0.5512159426847347
0.40057937167651403 0.2380336187382568 0.048770851481094724
0.14980817947001412 0.43680458559310864 0.20652147815667377
0.25928017505904677 0.274669212757658 0.1389192754191555
0.30027783595707547 0.25974171823091297 0.184292061681532
0.31466283386822624 0.2970176449500741 0.16075596639869616
0.2544623244447166 0.24500932401358 0.022514797276954823
0.23875062827599436 0.26062637487100915 0.1919765725845508
0.2404285797439627 0.22786887947418677 0.09107436805851421
0.36567759868717076 0.2650537586280848 0.13005797076286285
0.28790815981685114 0.23941665056831596 0.018123447111037194
0.3161615764310284 0.2421442040294437 0.14354172729338188
0.2163679788230155 0.2723998621273438 0.27636104155521934
0.37466583967749045 0.3367608323732014 0.10864012043334981
0.29961708721683067 0.26645213332231776 0.15566582062106704
0.17789042519281395 0.3271816397251257 0.21023503351344175
0.32256983493891767 0.25824914475768423 0.2208923890079859
0.2705532447179593 0.2537257089819889 0.22640848495248633
0.3733124524842708 0.32840427533835737 -0.023345409044495113
0.316781850528713 0.2163477082931422 0.0398752428451985
0.13510661893161569 0.35361544531227196 0.1826001733460032
0.30221009738340854 0.3017353617931917 0.17593486394105184
0.3118029749756204 0.24930443274092795 0.12227300843814248
0.11688237389745382 0.3238424133858473 0.3061165093382101
0.34236463938623274 0.2620109789831133 0.16842465855725663
0.31498166096464786 0.21782243335664475 0.0684404163455099
0.2980214552473086 0.27299045851373194 0.13735647933340545
-0.8373624359498848 0.9156586364485548 0.679731732959425
0.21770346910250282 0.13203936541108874 0.3443494189744456
0.2845130044033368 0.2732722478009464 0.1795561678470392
0.33179577676713734 0.2118275034440984 0.09706580845289636
0.2877116109959559 0.2702194285839141 0.18622221117580295
0.31725075232992594 0.264988251341606 0.19920262927932697
0.33350024824569857 0.23535018087119397 0.14707640428827062
0.2724710740072567 0.2736510011836515 0.18028004061795855
0.35534707503541085 0.22748189771382954 0.1131416513617296
1.941754701559958 0.44067628538311965 -0.42640305989598914
0.3344824279091796 0.2218056473820127 0.15182124033891853
0.20749794172948555 0.37776067812673375 0.263534930699322
0.6519018567547619 0.1439676061743569 -0.04721474821934635
0.3387035144988175 0.22079203750030274 -0.002905415495035868
0.3493140470969962 0.3198806585645997 0.09148521535104237
0.26528160587889715 0.23596351242004232 0.19427048600695684
0.3181751579705292 0.34247795432011685 0.1504555477288818
0.2755268289993751 0.25361006556234145 0.25140565169971296
0.2589226764373507 0.2723348888842452 0.18372267304374645
0.2879780801235938 0.2611682798959407 0.1931963647792685
1.750889435879003 -0.018211067224711996 -1.8114659405737825
0.39148211638325847 0.3175846863820766 0.051279243338754554
0.23924459639096085 0.32308290159026853 0.21515140221438855
0.3939112426163405 0.34463962724882435 0.1062976365225552
0.2737563076159688 0.31859300999258267 0.16539154613892038
0.35570971718544797 0.19159474887131012 0.05071939397569736
0.22704324714601398 0.28035515982965364 0.18977006096099558
0.30292537525741636 0.2423247816113019 0.17561154574232773
0.23737213312757888 0.32547345130828376 0.19375336697355294
0.2717206254357194 0.2538225413749444 0.1892197716921089
0.25740087107439535 0.30028276763556505 0.22479088079266774
0.26027443299086883 0.2844024311980604 0.19055681345032838
0.3066914704649264 0.24498091343858164 0.15464113782837785
0.31705481460366514 0.20291265711338724 -0.0014953312445555866
0.30856504309858224 0.2693376619348271 0.131384154899024
0.7106463450694633 0.2862851663911101 -0.0004333549142359061
0.2984119940695109 0.3205631304844587 0.1549930131937174
0.2608307173245237 0.23844282514578197 0.2397303951324261
0.5741765436440858 -0.15373629037335945 -0.05849571713937962
0.2798681563502896 0.2805609360152346 0.15796750953731475
0.2944389510838761 0.2533818767907121 0.18605774816290932
0.2990653869896107 0.28564810992398293 0.19398717459458226
0.3199862435990042 0.1932659566060977 0.1283916207510174
0.2328205532740526 0.23181105604433583 0.2123498907107546
0.5050986907202457 0.0016575487479997264 -0.10679317490297535
0.3367153913525698 0.23351309152914723 0.12490294037378646
0.2562181764777449 0.2712307717476534 0.16687413933101425
0.2941344377523052 0.24930015696079977 0.0695420345974469
0.3241031157053271 0.2729385102585411 0.17905028362648068
0.23498033367917515 0.3398283854498203 0.08479921058273021
0.2855207798357924 0.28867312529317246 0.1683996141052262
0.38123523884168264 0.26629565216774154 -0.046481568519340044
0.2545343358424077 0.21522306565901772 0.14223194886349688
0.28882928471560376 0.31708102970324603 0.2476729024262454
0.330330918226565 0.2736833594270536 -0.0062938808315777806
1.5835689836576847 0.22595523466449663 0.356627117732387
0.26911630327435887 0.27451606526770433 0.11165565360542473
0.2972337669408205 0.2901751113829505 0.21791154175983252
0.29749065431660426 0.21017769036537004 0.09793292419143995
0.40843745566292 0.2280353412287326 0.06595888133310268
0.2766266175257499 0.2571751540807412 0.18561624092508566
0.42499544134896894 0.21388523058016062 0.07908985926650303
0.29731283956647303 0.273689389275944 0.21853736499744514
0.218930411727996 0.30363231999075424 0.26409122697145904
0.26803136161646535 0.21690316497208073 0.004881363747301748
0.13412393808626177 0.379217434564211 0.20244151906061347
0.2894002653802943 0.27097665806833504 0.1833519962901704
0.31380094007019466 0.07494931047997966 0.4748700407808144
0.4512535043427732 0.2154594033981283 0.13884425570782355
0.32783135306402755 0.20903731304173334 0.057443761997433285
0.22396498777716545 0.2747347652857286 0.15927737151753263
0.26226546084572533 0.28540394618282505 0.18399433473486226
0.2787244990642108 0.25122314718296934 0.16905467964159016
0.3142110478412121 0.22431720799079358 0.30165605567606235
0.2813484399270294 0.29398016674002747 0.1514921636047859
0.34486843276138757 0.1705318806208993 0.08140789111938318
0.3092967586155595 0.1634685277731478 0.27278005597219135
0.28868786500662225 0.26629180599258007 0.1991388938421892
0.28116966298593127 0.29042597293690164 0.2264892176857245
0.2557331901568034 0.23294228500134295 0.13515421452235898
0.2865038945989795 0.2769407746390016 0.12950203658002124
0.3167780435509968 0.244887128423116 0.18425479617994256
0.2801709969980095 0.2509085781313445 0.12430378681744969
0.3104710033991296 0.2813919938705851 0.23746716702194703
0.25348418890158086 0.2536115935408958 0.16539688475825187
0.2693689533648467 0.2660854806637758 0.16560909001918844
0.29930909682829565 0.319538764292588 0.14385527139660326
0.22417340590857293 0.29498477642144394 0.20338747211616237
0.29693709692460857 0.25893775115724793 0.24823507119324972
0.2659314634494905 0.31221085260207815 0.15833709119682737
0.2749669945526563 0.3645188386521312 0.18568488157318086
0.29549988110088066 0.26732582144933303 0.1684162037423107
0.24042462437816425 0.19804971466436427 0.2832337226138293
0.2731605714754153 0.32882095968872704 0.22204888889672247
0.35935581342614853 0.3460133448491831 0.010532195249197684
0.35509545733449954 0.2536703603116308 0.1257465586388946
0.04680307868099476 0.33280675798212656 0.3147747236402836
0.22454561639224835 0.28311821854458685 0.2584737725068891
0.28955265098875316 0.24725175229409047 0.17942557777143975
0.30532675223579986 0.2571484317199122 0.17870125115501878
0.25250582703876034 0.249900197122912 0.17668883724613238
0.36761102821139957 0.2671993353140465 0.13146779588254276
1.182004300656132 -0.7122459203742011 -0.1051494501114405
0.16521645664101925 0.24370771775244293 0.493857988577048
0.36775599808802895 0.1991605262620908 0.027495324993324743
0.37965775056675 0.21580918880775357 0.23147115915480754
0.44286244363584615 0.1891223447069592 0.1426639103079026
0.3229128839711848 0.22946908217443251 0.10564487771902975
0.4534713317497676 0.21067871951726147 0.09876771268000084
0.2318730052117246 0.27532968125218815 0.17233198483171464
0.49063812105471527 0.23921613882107806 0.19348519933785724
0.31337774757204784 0.2725360529065881 0.10834707220035966
0.3019878046076059 0.2651400516841136 0.2028330060475696
0.26271405061524433 0.275932618770554 0.18079186465953967
0.3675301154492132 0.19476709591194208 0.20681550966810391
0.32565322730832236 0.23705437861093515 0.1860029155244547
0.45902475856128433 0.2879551571490424 0.07474213156029919
0.19071705671947825 0.3071786018702767 0.25379741154905844
0.25977474108086085 0.2829668163256258 0.1724430709679723
0.2369649897919004 0.25355932960056293 0.1753130145075943
0.29385673378968136 0.3368783706802674 0.31357978369881323
0.27198249368677807 0.28266463758798466 0.1548836479932163
0.28195078538826124 0.2619671037523972 0.20199871204196995
0.26151862178841156 0.43903939063250164 -0.05470321398621536
0.06008848082252882 0.30021877675538633 0.30269336980268235
0.14125375135807872 0.40764799719684675 0.2738028865623079
0.33263562920794243 0.30240506994016414 0.185969723514404
0.40976614081958473 0.23446142907550893 0.19850936024145938
0.2561708598780541 0.27542982595164744 0.19220633397858933
0.2784031608523918 0.27231656995364517 0.20943272693179438
0.4241015774663879 0.29734383712079193 -0.012007087653643111
0.48548982994563517 0.21676827833151435 0.07488984362470319
0.3534643414903087 0.21831377412301833 0.1764256385260694
0.3321020630897493 0.2540466866899749 0.08079809009876726
0.25058198869217563 0.23098648795814825 0.16571556738230697
0.386726064349574 0.09678420708301871 0.26436633220455974
0.23995612442038805 0.26314032850520164 0.1897808762812616
0.3684943061423951 0.29253905531089686 0.06999565996912338
0.311190499601949 0.19707853443912882 0.1401280345585576
0.30591548318986383 0.25400971513249715 0.15557739253267755
0.27386336086424024 0.23243570101043076 0.15711342038929388
0.23757403431874025 0.23504175322679544 0.2575029734720715
0.3467483964114706 0.20689205169645675 0.13692661327068834
0.3323375953347636 0.23472632304267904 0.2901574798493982
0.3325202888215699 0.2194877444490828 0.11509746457412007
0.2632820383062153 0.22682480579400988 0.11089024319912255
0.17604869567671244 0.3573480784669556 0.26458985062964757
0.1673332269379273 0.31231365651075293 0.2350508156955442
0.986923214420159 0.49138364354519126 0.6340900385406485
0.26681264782882863 0.2681624180237634 0.033122352219848494
0.3046079055845041 0.294877780774101 0.08882487777459858
0.33536157562036806 0.2993243837606485 0.13325349248478346
0.31187733280745533 0.24621739972926093 0.09983198092345447
0.3069936565569549 0.12049381467471676 0.13561795694712941
0.3179232956496918 0.21542099626591948 0.17545487599517173
0.25843971848340175 0.24414593716149113 0.06443429366140663
0.2742331906764832 0.2565761797249877 0.12345218138821679
0.5820497121991366 -0.046179830636845054 -0.09957762473547405
0.3065584252975384 0.2851976634188702 0.15330910750259363
0.2835207225578529 0.29062577655605537 0.02176572592544801
0.3944135533135409 0.22487675585807665 0.05765561073962999
0.14230559454631475 0.39325108404285913 0.2503006540308661
0.28168147113167663 0.24849888904046225 0.1787844220582997
0.27000040704439243 0.29434001065348525 0.15289355885562372
0.2859480799967855 0.25458956540629174 0.1959906023124347
0.28486951338740596 0.24707737479010916 0.20904728886239354
0.3326221935786293 0.3716424564604779 0.7104052527612623
0.4438755935040888 0.2562060266085098 0.10154125526430846
0.3594663144705237 0.4061713722091156 0.6840728534906475
0.43665351495795335 0.27094501829824935 0.1986103455592314
0.2271063708731873 0.32269706617066163 0.21637439964908367
0.3062036159976884 0.2901243436198797 0.16756659208198244
0.2904157933481599 0.2790654285972636 0.15695006732346428
0.4378046467214176 0.2619747429289987 0.12859380184586655
0.23848002527162748 0.28832039327051007 0.20095888337402812
0.38542717847622043 0.16898308718069188 0.2865259089901997
-1.5196819336232323 1.1058516941621974 1.3846754901696272
0.3253782587209457 0.4268073932206278 0.6081571342177341
0.27223622585992757 0.193537173198564 -0.0037847702578091003
0.5437814301796351 0.30180418354458993 0.14332366698893395
0.16497452898479992 0.3428494529970578 0.1334690600015449
0.25689094321212735 0.2743602407381047 0.16651898840501644
0.30764454445233014 0.2584721066710216 0.14220112264419527
0.8542598954562806 -0.4214966435352494 0.10611703214553359
0.3480230474212078 0.234261282751703 0.25662338868704637
0.2956944040399492 0.26462190434116906 0.2031765845541429
0.2280606533310845 0.2515465754392494 0.20607178182694952
0.3033153666881958 0.2178070812363444 0.17890017724255358
0.4088645797578181 0.2631255838027613 0.29916959619737327
0.27563030194710336 0.23095481161824694 0.15350732524375132
0.7337644128273695 -0.05236425633528086 -0.08239588453076863
0.39049246310521823 0.23130394453440317 0.09138097162075098
0.33147363038190747 0.19514078514418998 0.01565850242819522
0.20083058694837064 0.33218692167051245 0.3153723681584495
0.2507632753227824 0.2879038726146632 0.17770184279525836
0.28964255399898775 0.2564361510388835 0.14700916063230807
0.2842099550814794 0.2585974749554225 0.23892196717210368
0.23590936782998995 0.2754316397298169 0.23217326419518258
0.6789640887142525 0.18736835508086358 0.3883539806051317
0.3681585669757794 0.23781323282881317 0.12364109303946691
0.34994111011609164 0.2852962737334792 0.11785501950325283
0.2722671712039073 0.28330578299629394 0.10480748878828194
0.4655946580379293 0.2799363681104694 0.06649753398244229
0.26999852499153576 0.2726610341548792 0.16602472905279342
0.31965249859092637 0.2553870703193013 0.15417608343696543
0.3396077914935063 0.26507152098727715 0.19091086294540105
0.3130391129534189 0.09823764305929217 0.277791845830194
0.35454423868679896 0.18857637340184397 0.12548558900510898
0.3378667332183909 0.2684776650472145 0.0602280994201152
0.014232929985894316 0.09836195042527152 0.09429719178082507
-0.04799682248543036 0.11617042256111176 0.1360442652756717
0.42482220253182845 0.2795847682187116 0.06761325540794871
0.3095355989247537 0.25772142144256804 0.15456249098158992
0.17560682374335101 0.3284702118889413 0.25142502761909213
0.3124496692246339 0.2902500895375226 0.13978201851791994
0.20059332447625877 0.1870804364243952 0.22445519962161598
0.3114421317685441 0.23472705604785915 0.08841904916657484
0.34145159717917295 0.2778512938436677 -0.011740993771581998
0.44642451518019755 0.29524506223826563 0.09410325004016329
0.27523450016961704 0.3157993581723133 0.19309502397376832
0.26191161093456117 0.2926012540216334 0.16957919579189706
0.31535502098248 0.22456926281884648 0.11790788167584765
0.8596554778679177 -0.454523160054805 -0.7684959139559595
0.2616443608595631 0.17529415775194934 0.06969196320693527
0.3466649398168471 0.24054277994048334 0.1259642151962055
-0.0008664514080010122 0.36501595181420043 0.546246017116971
0.31585721949623746 0.2539847062555225 0.15308915616651575
0.38801450434129947 0.28336045873153637 0.19638196890562654
0.2844450399096843 0.27701385426121305 0.19280381988259876
0.44333973293163353 0.3140268524169443 0.09284725103593416
0.28158679597882497 0.22031380064106543 0.09393604432605684
0.308082198799724 0.25660114449544835 0.17142356318282737
0.288802847543721 0.23998154133690264 0.18000881853552642
0.22584300906048327 0.29088038436989905 0.1706086676221048
0.2823614165038748 0.21601655874869152 0.14333744174996355
0.2494723857321901 0.29756882857883227 0.24032317661598768
0.35275880446960173 0.2821910225471811 0.26963824592763785
0.40162394922336375 0.22383242164835337 0.31419575965909985
0.28966293807125965 0.2536926966279651 0.18037787328688637
0.25304771972153617 0.21850391515505407 0.16767662936972272
0.275214584364889 0.27637821694229103 0.26122788199349145
0.2529068678715589 0.25390576318272906 0.16504724028351347
0.34260616989848813 0.2702324970774441 -0.01549847350575817
0.35717958288432783 0.19834064140488294 0.11752683172686318
0.4207476415514435 0.20480163630308823 0.2717399602101409
0.301920333736291 0.2301699637808099 0.15835682597021616
0.2337045794953383 0.30017668897654914 0.19995441926323565
0.24469722614803402 0.2811346111434858 0.21171613710129122
0.46293955271434584 0.1307313005094386 0.05045707630736729
0.33287023929423754 0.31267255736457855 -0.00032756413973800136
-0.5966106609616872 0.4151356801133943 1.4863190857338964
0.32467432387730355 0.26055881472761655 0.18985132800440851
0.25516673976159154 0.21990207603855083 0.1273595848318223
0.319372516712221 0.2816005425165713 0.1909775248920198
0.46431177384215516 0.2772429278255686 0.6356370155114348
0.6459917224351557 0.1527380905883291 -0.1050243588724129
0.29861316654566394 0.2649200460941472 0.1671069383861834
0.3258376989651026 0.28786143712383705 0.15751184741218083
0.229020018219245 0.2605766544851633 0.0037547762926521955
0.293559856083931 0.28777303452977776 0.13969631130839844
0.2787675620931509 0.24322911227636723 0.1938664450763241
0.23390029234687404 0.22616056538142004 0.19218494223569849
0.3402036271831719 0.21830740767023826 0.11747709569320364
0.3387512897792533 0.2278813615715194 0.11174580991692551
0.33102869176303784 0.21546836086221788 0.13800919069598194
0.24010736156402857 0.2557718049133655 0.2110940443771483
-0.3894392852945714 0.1833557077820558 0.022969262853877126
1.5153469054448294 0.06175652230854212 -0.9367296146026405
0.3208583334987338 0.2626165678215955 0.14412786541691958
0.30332988952091 0.20319444016092802 0.1834250401886095
0.3087106988875945 0.24473281793294177 0.04842480123022597
0.28766656761082743 0.27719687854725805 0.16761522963773245
0.3025201129420907 0.23224926155242542 0.14634169894603133
0.2842571830963294 0.26180023669715524 0.1805578593328221
0.5762564199060591 -0.6289868842452222 -0.739234710641739
0.2687753807958302 0.2565237887726255 0.25807242737111835
0.2859501654602923 0.23180235062082488 0.26749529613074685
0.2800198519376238 0.27642778010243774 0.17613482646095235
0.31976048660403933 0.2777469124375216 0.20652485972928503
0.15645326907122126 0.3410882603786263 0.32857278797774825
0.3665286957269416 0.29235066079216665 0.1056408470406609
0.27629922491919956 0.27531784649130486 0.13605728966783204
0.1910826673605186 0.29203647550514233 0.20071114701826787
0.3265511607988856 0.2523251239721418 -0.015274346020888174
0.3457111856301367 0.20742839396169188 0.1438028587430722
0.305267107649982 0.2628909148660341 0.13037193085736476
0.7857656751408229 0.031944405416851396 0.09752545270755775
0.22249977195522774 0.28789142462903783 0.1890076438192807
0.333029151934511 0.2981994425202288 0.14754501756092964
0.3606719402285705 0.34064154243775135 -0.005819413407309071
0.24821762287247395 0.22525666480156303 0.23062648174382616
0.4172136729719256 0.19647748791898323 0.1269303707480276
0.3735565871564006 0.2270700818902469 0.062077841859959904
0.2144274653033591 0.2341260536001215 0.20077141626815376
0.2770056552955822 0.3211095402060664 0.25938168706960596
0.17958944657368647 0.4178345324501862 0.19982204593785013
0.2571315581620013 0.29874916173309884 0.172207955858255
0.30799853858347603 0.2930184978948489 0.20592854789296666
0.24932912043882993 0.20799893379953005 0.13282159769022428
0.3915021313115403 0.2612847274710788 0.05879635744184952
0.32794120971786356 0.2570399832719943 0.1765145622249804
0.3068013047889906 0.27473814781990313 0.18525439759454798
0.3500623477945197 0.1578118484835329 0.31220698900825994
0.27136923521315737 0.267057779265798 0.15420475479402285
0.2966365553736523 0.27198854736960243 0.13535419176385233
0.2942990075211469 0.18344872753758068 -0.016538133526140086
-0.7424999997003283 0.5730419096627628 0.5186255820952823
0.27652371224738204 0.2210209823675484 0.16089560787762025
0.35933826997498386 0.29913490311078306 0.11090106221990936
0.40482310432949475 0.21435250534774752 0.11145222372444152
0.2732274965607928 0.3006316108297824 0.13274028495936818
0.2351525568894317 0.300175848910996 0.22946958404904194
1.5404572839925947 0.026983559236356314 0.9339281031894728
0.47580359907684056 0.31591615766099324 0.04966643949222771
0.24930850670709503 0.28759250399718894 0.333263263330295
0.14026789590687372 0.27610450108429063 0.17361304040787218
0.48715807173948633 0.2700482973926057 0.2448467653660913
0.2883998960006693 0.2597234101761785 0.1478066907553739
0.3187619545911957 0.2861396744995659 0.16844431142456529
0.21200582050451544 0.4111034018223165 0.34022301651009457
0.36393606915555665 0.2511555269521466 0.11703041912491585
0.43289857849161706 0.2083488893520382 0.14349508287347135
0.2348668766438493 0.3060328566317594 0.21336747537711176
0.2726373035838918 0.26925875369791186 0.20064385368591786
0.2955821885967964 0.25863081892144635 0.1623605962441843
0.29110479301030523 0.25156033155423074 0.1803244704816791
0.32190531891679086 0.25458722979017523 0.1609348939467452
0.26050165448071994 0.28378473909273794 0.17565585698770292
0.3208362085480019 0.2834256883234616 0.18507710155572
0.42360539764146665 0.23133279749910685 0.1019047762306684
0.29877649249458216 0.24312670533146274 0.19012967449793905
0.30363652036254507 0.2316341160533284 0.05371508647532153
0.25046774376644976 0.24554668483517617 0.18206883958313824
0.26076718811157207 0.27994287973166365 0.18141602793281209
0.33684855327899754 0.21231790530524108 0.05412944196285707
0.29262089679879466 0.2630679348029048 0.1789105225788319
0.2926386698983947 0.26933029402025 0.18913317163878673
0.21768052252727443 0.19491426429652847 0.25160523086832143
0.3249524661923431 0.22127248111613085 0.33711852920546903
0.2784810117845211 0.270719653871879 0.1993419191044552
0.2744113123862064 0.2823019470648376 0.13443804188658248
0.19578584492982998 0.35464252533375884 0.25858080179435206
0.28895655108703977 0.3031644894824268 0.23148770965438814
0.3567204185618209 0.25557434288597847 0.04210405494259817
0.276450210967937 0.24990251363209381 0.23156313333224432
0.13403445800778968 0.40193050735800284 0.28004005816356425
0.30882415065045166 0.25956420251620216 -0.014434287005997248
0.1769049952272468 0.32487250991414385 0.0749640286012152
0.614708964129548 0.09153437705487022 0.003228009940826837
0.3158488336519838 0.24583132579394373 0.06627765420205378
0.3085044316285632 0.24318087699515445 0.21232117370996662
0.22212141480457603 0.33675518169644647 0.22485584995905583
0.26000566779657674 0.2941850713153258 0.2156328903365079
0.4293542283779459 0.2995489795183346 0.3056355771623913
0.3066172162299097 0.2668271727973206 0.17638204427963444
0.2637531003929041 0.3471005689076776 0.029897995507369046
0.3046684979858867 0.25229779839763466 0.1555691042909899
0.27117231595165947 0.21503120566946166 0.19502245163319287
0.15277499239351755 0.28739940465425207 0.32092661367957476
0.3082121218223506 0.22749501711300013 0.214187912704773
0.38779292376786145 0.1787152124854714 0.13020884882209316
0.27635126570639557 0.2109319861654626 0.18291087549263807
0.25205213248504776 0.22596202342907645 0.21287720928444287
0.26896098401525137 0.2743042700966498 0.17726221806260867
0.31813543235176667 0.26386201042141977 0.12004037559751168
0.24523434524920162 0.26007854265732533 0.24927499052073188
0.3496947337196161 0.21712498182134254 0.1535411624452081
1.5056077383435138 -0.0007347563766302301 0.9718765654443331
0.31102949338037433 0.23985516506215276 0.03307867696101141
0.31528649138554954 0.27967961360269555 0.19341229441687346
0.29752226035012086 0.23950009453015753 0.1744263197387852
0.28037530841986325 0.13876389441915649 0.12977451175935073
0.32439717704289706 0.2252228688361697 0.06626078806156954
0.173177747327955 0.25567782331847866 0.2998184402309505
0.26340649935934835 0.2568985699966788 0.11434640256115358
0.2207628967198616 0.35123481616528807 0.22547710088269923
-0.07464328550121024 0.18924663940693165 0.5720674546023474
0.09584616483077468 0.3797635823999883 0.23266814948900105
0.21676848974649943 0.32530756483316736 0.32448888399312636
0.3133369817444276 0.2576709736574685 0.21538542314569042
0.32332499493016087 0.2225574982899161 0.1011350844667902
0.22018880866551171 0.38597980373727125 0.2237339708675563
0.19961398272567976 0.30251874963052217 0.23602522660550562
0.2629567677401212 0.2787314491556714 0.16716829344760242
0.31010676786374347 0.2353019082064236 0.15587973720670334
0.2233222132101389 0.30636536375621404 0.23894386481407537
0.18769658731091 0.2813293366429832 0.199260474463415
0.24870949322948377 0.28962225045560785 0.20633421229609894
0.3140284971695735 0.28529107436548884 0.05009797301718777
0.2541683056869033 0.26780876893528216 0.19022529711890002
0.30696770809754526 0.30607662311737727 0.16396978477671098
0.216459799090444 0.3001464265742868 0.2077511385239177
0.5790845943303395 0.28995507130827036 0.22071004951922646
0.2648622444515638 0.237459178664011 -0.15099178962806548
0.3080180780354169 0.21367269989690385 0.08094175425910066
0.3853160932309265 0.2475652522459484 0.204423836016133
1.193895297500319 -0.9408679020995265 -0.26739947304159273
0.2757557707935945 0.24677994903458966 0.1086275469131266
0.2437202689398532 0.24599927855862802 0.09969056214251282
0.7900936344357774 0.13132931923365732 -0.14121932190832354
0.18354058510107052 0.21624512517392702 0.3112238080228167
0.2847213458409783 0.25797701655932315 0.16217896251806962
0.36496942295985946 0.2579516419255867 0.09907613664819337
0.298749267363533 0.29169916072315516 0.17555807515147137
0.251619778717199 0.27269946666052647 0.11472232893000012
0.2813296358552009 0.2750642699393211 0.18845360342049844
0.40211745240456764 0.23655060762521884 0.04509436656863386
0.23665288465574008 0.26714291471957097 0.1921115647238878
0.26524429240717495 0.28329377370909015 0.18010570797665082
0.27440715181010944 0.2703498703615139 0.15726117841964538
0.32281709481456744 0.2576754319938459 0.1345105523313066
0.2565273762417064 0.1921690817898707 0.17063714618984704
0.32400945959815886 0.22051016915176547 0.043590711715012276
0.2845102698676101 0.26553850358077113 0.1722899235362263
0.3069247238507842 0.2521006547844564 0.2068648983792798
0.28868876420305867 0.2679773310711653 0.16416510060759038
0.374254255740766 0.1619356484904415 0.11196736217118541
0.37800196983226897 0.25433041190265726 0.04782442842366663
0.6494488122663427 0.31510393292074923 0.06478353317075403
0.32824634515637285 0.10624557966775683 0.28891118129078563
0.27382091603209346 0.266262669299266 0.17911813407579302
-0.8351212766858112 1.0685919758598743 0.9218494701071336
0.2206117357933124 0.3650660956315619 0.2514273484503349
0.23188016855669957 0.2240633932041618 0.1505785332740146
0.34005766775915447 0.25030722759416335 0.09172096590674528
0.21544444176166166 0.24494121069933783 0.20441975831109005
0.33219579913728126 0.2062102529490346 0.10101637631873928
0.3508978949697763 0.2796165817106271 0.15282535926772312
0.3243901568775982 0.26068130472603457 0.23625443325296658
0.274467806449735 0.33540023287750387 0.17862776531566738
0.24374157409488362 0.21365592812193768 0.2850201492178144
0.31402862506374163 0.2468152299816495 0.1649491721099139
0.4960663922122279 0.20647460410270924 0.5947640755636456
0.3011974060929674 0.24743624835467415 0.15863374392043283
0.283689067808524 0.21607461630935632 0.034877517434821925
0.3672111693558122 0.25037440190084226 0.129270624013472
0.3025940596894259 0.30274972330835226 0.2281922798628102
0.4589898042158609 0.2632253665810538 0.12519738613590903
0.12971060682001223 0.3330448165885258 0.6427450830653925
0.31994270702662675 0.26857862881357164 0.17474611538625595
0.3340031433681645 0.24639756887552267 0.11246637746012311
0.34854986331698967 0.20948288795003123 0.12341725493411104
-0.5043722228819263 0.035144003012362646 0.32492132610548197
0.29719597596628944 0.2571197535410761 0.1771590766428659
0.1987458027335265 0.3877449776446298 0.2388282216778066
0.36053400753895914 0.4232681522948667 0.17116793220269244
0.40929260910209564 0.4640666594167584 0.39783238553297906
0.44271315717810467 0.2958136594527616 0.037791138252515566
0.25563079529754873 0.29236081660681634 0.20426952875934035
0.29559205629524854 0.22239661789393494 0.15493380242443777
0.4191735389397735 0.26995188927959646 0.10134995289250526
0.27417377111849817 0.26646716616568256 0.18755674441311498
0.33746990190992676 0.21740887801871622 0.2789790743738365
0.2973380748741761 0.2741942595191347 0.16240971486277544
0.2926154993000978 0.2682887174873372 0.1755731800622442
0.34237646566637636 0.283188955476362 0.17544577645359993
0.3038591931950805 0.23939916676340545 0.17811063113012437
0.35049197398865317 0.19064985895377617 0.16685842348874758
0.2621530712783908 0.20310625365155488 0.08594592405000867
0.2864642358215974 0.27862307961987653 0.1750071001756197
0.40173285628571875 0.19556974564881102 0.2425126329224554
0.3116938420736517 0.2771819676245997 0.1683487665366954
0.24925783458067485 0.28070034116109355 0.13371353831036004
0.344742347917105 0.24790503962309174 0.19834911714295345
0.2635854550021861 0.2731618367251514 0.1719150472567037
0.3078617015601566 0.24835386722989483 0.15078789662496206
0.2872861887838667 0.2937273810463523 0.18593771257660308
0.2805702145115845 0.2618241683657061 0.17051803583370884
0.29711832245072856 0.2858909584484479 0.09915636020618024
0.2819046149737119 0.2593801756136429 0.1246134780837167
0.2730990773561359 0.2924267143777115 0.010831556791316643
0.28717523484095864 0.26573411369889754 0.2082792336546504
0.16727048549809354 0.2848366631444321 0.2380471842899965
0.417479825089913 0.41464167820402054 0.671775498629998
0.21149234609211476 0.21948541055701298 -0.01803596816913
0.2568930753347445 0.25242074867378506 0.094372402680591
0.39548468778727397 0.25178876736237044 0.21861350714054595
0.27800705687700145 0.26994812792938205 0.12599741427244737
1.5310272996562588 0.020397674641955632 0.9423657392570135
