# .PCD v0.7 - Point Cloud Data file format
VERSION .7
FIELDS x y z
SIZE 4 4 4 
TYPE F F F 
COUNT 1 1 1 
WIDTH 813
HEIGHT 1 
VIEWPOINT 0 0 0 1 0 0 0 
POINTS 813
DATA ascii 
0.280997770540111 0.30113376110338663 0.1915277046009578
0.2892981946663724 0.10494433878031373 0.30300930330631104
0.2887604188116768 0.2718622850505028 0.08543588221738219
0.8213288051327368 0.1299650356257871 -0.11511742931119784
0.36284898672201393 0.20693921212620126 0.09339464144534304
0.3272613941242497 0.3060175775345897 0.15633475273114072
0.3996614546678643 0.25262674706704047 0.08424112925061422
0.24049762109966366 0.2753888399399358 0.18649889992951785
0.24876764593332723 0.2765000523900909 -0.015187535259826745
0.8508181095533303 0.17206432795815374 -0.009091334399982998
0.3413620615424975 0.2501774666690153 0.13642648143763836
0.2983450720101217 0.24575306603618685 0.19005643045267107
0.5551931917787982 -0.044845846364921726 -0.12369158272078096
0.29012842887064494 0.3083693509584009 0.20368040732958548
0.2920852093168804 0.28432426332156524 0.17147959903445553
0.24228438562937527 0.21611155586364816 0.09990436289885452
0.17222435333539465 0.36697260783621743 0.2736386011946479
0.6340442851310684 -0.09823611658191567 -0.1994288960175652
0.225704502982623 0.3068979785480508 0.1532423771544984
0.2653228959963201 0.3044358124833195 0.22756715190124055
0.3319791605351128 0.23680082676236225 0.15364120966603423
0.30866929364634643 0.2346780754730844 0.11295173507654965
0.3356314416373465 0.2392184074353736 0.3685494000456231
0.30578680963122906 0.2788953410886279 0.198837270420114
0.2645085487203005 0.2819189103655617 0.10474721744543558
0.528658076139692 0.21195143718064458 0.45955599156815197
0.2865384129619599 0.1917757684363437 0.11505188737960736
0.2320180517223207 0.2527416503489661 0.14638756524902874
0.31797972806973007 0.23466959568695245 0.060479870599436936
0.33093747367091453 0.29539961445621543 0.1359059775877256
0.3160531056249454 0.24888113737154072 0.15600582359761006
0.20336975165497506 0.2886578277886258 0.20788545121340007
0.22254926192778157 0.2932243270491597 0.20275559905419982
0.27116388315344864 0.232272794898023 0.24037727276547116
0.24821911417541287 0.2706641953594726 0.19621609033491438
0.19852780478038312 0.27055651324815244 0.19489021190454991
0.19542278738916252 0.28326271597487107 0.25300482447156014
0.2135994915340973 0.3002351704366504 0.09228503090719187
-0.036839903636234794 -0.14456994538056733 0.17598549629437343
0.1979911320421479 0.24128023048855596 0.2339781573815003
0.3197366563012167 0.2585929250290917 0.21607983685629506
0.7081339470171031 0.1263057800667582 0.30690559658279426
0.15124177835360797 0.4257218632766637 0.3219897907985967
0.3149507613149751 0.3046451464823008 0.11359744643293368
0.28527807578542763 0.2600124804530992 0.18568941614354628
0.16545190147625988 0.46813893572817733 0.24927998739909185
0.3450471464930871 0.2592376161488801 0.058277828820124
0.3310995452189047 0.26658939832331896 0.17313912775459528
0.25248007889496193 0.2930934688884008 0.18986481098873753
0.3800641695884224 0.22498717065872142 0.10631420262986069
0.29611005736107643 0.2389560130159225 0.23522170146588905
0.288064551411253 0.27659100985962937 0.20785724725395482
0.164463122860937 0.3070474927051521 0.21431106138791733
0.17105874760497386 0.386882809703593 0.3590780973256642
0.3406715863404344 0.24067041624020646 0.1305879263818781
0.12887101774870757 0.3721322910828775 0.2681764466354366
0.06475435545556252 0.33891229453560356 0.25885790434840317
0.29842857443065895 0.2454121755164067 0.16407166830238396
0.24466075481407756 0.28158459710994066 -0.09557673371108422
0.29037645288842384 0.24515695579492558 0.21872238429006075
0.28416152592711796 0.2513561891307887 0.1727937683265992
0.25017163332030634 0.22521169610158154 0.2754053411113375
0.6983387507352745 0.14517155615995136 -0.25320402073005255
0.31264638896919905 0.30510121188939365 0.11742049620919204
0.3506104987956178 0.20784191633825344 0.0959276514349483
0.23453276584770322 0.2745692379382092 0.19286113792554715
0.3037014364725934 0.2712739675342135 0.1701166642326939
0.301161682708738 0.26520729255949504 0.15114633581347903
0.23996238895819033 0.21602759491874224 0.23267492526531441
0.30434297314704395 0.24174154999478503 0.07279509494199488
0.3730192619946422 0.2445231372618082 0.14582187070780606
0.2827403854151811 0.23722582188992192 0.1062785136960116
0.3727330673055178 0.2772536068633258 0.06464470920994358
0.2916989003247181 0.27320200264838945 0.18522473731640332
0.3122356010552352 0.24540246329186743 -0.04502430165777582
0.06479331704707647 0.3678162300141423 0.20400187868700925
0.34601673693572366 0.2381463714019958 0.16979403277896665
0.2565155268852095 0.28186780457650684 0.24652491087198314
0.25884133167028267 0.27868460419654184 0.1896166891763471
0.8062082738510696 -0.021501078364394743 -0.0656183048503749
0.32304931169845474 0.22714635170254383 0.17741074849284644
0.2432833613682135 0.29890495421602736 0.27635641071705663
0.5232749929628966 0.24915243296013045 0.0632554611819387
0.2877369868901951 0.2805560741644513 0.15941093316519073
0.26353098481271786 0.2662626943839257 0.21105424979324994
0.34109523287108345 0.1759857531280744 0.15539545370683072
0.3555851449181091 0.14436862021925378 0.3344256984061076
0.2604833625713354 0.017328355291454045 0.17155224579045125
0.2814884698166509 0.29887783840199234 0.13937816860101293
0.3098627292581284 0.13858064837765482 0.12240035758664192
0.3016484221123221 0.2685344621614689 0.2302079355654314
0.27558097357240285 0.28984497509409834 0.2317686601826665
1.3747967076270982 -0.26378563285578593 -1.0808280525288865
0.3824009341361716 0.37288208368705966 -0.016338808826105833
0.4056192005376147 0.24578725961339387 0.159330926661994
0.32636937723269455 0.2665426425039641 0.21913645989832276
0.16584330559356886 0.3762150695698949 0.38158928637835743
0.26577356512629535 0.2933002475659805 0.23170702508068075
0.32455398809955227 0.17864193029026865 0.17958572952559848
0.2538512058219453 0.26653526273634043 0.1796772120045631
0.28609811486130354 0.3420542309059158 0.3812372491648546
0.3593613716157904 0.7016613237228171 0.6399939299398056
0.22051815019477772 0.2798212348210143 0.3199220774555158
0.34288387664494735 0.23476215775076525 0.09057169206812432
0.25547010794197433 0.2668394705296322 0.08563485583999864
0.25197015232134845 0.21241073956880996 0.20854353766546296
0.1873090803052122 0.2685862485317472 0.08968674693190337
0.3740580702263401 0.24237250742211813 0.05148636267240647
-1.5999583815237344 0.8952630216359267 1.062974713774338
0.3218164699939905 0.2593498721940648 0.1627272578814143
0.2844878871826211 0.2403801602130642 0.20529736007375732
0.3270977593700479 0.2812024639227815 0.2184894781516391
0.25859503456536004 0.4771569869744212 0.2747206357932157
0.24644172833127698 0.30895908915763926 0.19527336350131463
0.4303103699252233 0.36353246757313684 0.6492531714205967
0.4315554034103002 0.467174782892684 0.7104047872263379
0.29936346539307124 0.23322295974919882 0.18068481837417494
0.3263935130524942 0.2258252297899901 0.1829638694310347
0.6414255817459775 -0.06445295862502576 -0.08546148418673738
0.2548122933891648 0.2884282981312225 0.17787760244679873
0.3188029886794084 0.278295938764046 0.19675583108727324
0.23732116990568386 0.22517874374543112 0.24879366222225485
0.3168490401066322 0.2660006784232678 0.1828518643507806
0.2723902650268002 0.20475517374850938 0.21725420538018625
0.2325504253648205 0.2044454955321413 -0.08308517933372173
0.6754547856369015 0.6116898203541155 0.29932861704617153
0.2997272317108326 0.25740670783713426 0.09957293944435719
0.1407255254624431 0.4030027901986841 0.34334879694660003
0.2944529413255168 0.24572234985092223 0.1807721538107785
0.29021301251405873 0.2835448017955571 0.15872960062088737
0.24447219567893796 0.23133958616242012 0.23786605041055964
0.2216632296585317 0.30303135488095734 0.1453300207917323
0.30668624246372644 0.46170443059716604 0.37323698862672927
0.3578685601086562 0.09695838591025563 0.010661655990119812
0.25226462533396443 0.26145311286438755 0.1829076739379616
0.2787959520238985 0.22612358203807048 0.18410980224382456
0.25798894662003136 0.24197258961690693 0.15627081595830816
0.2267793111383014 0.4976229225311215 0.4217416800449456
0.26429716896637956 0.28924556176406213 0.21799004509321662
0.40092414966791523 0.18935703435171547 0.11856124922573485
0.27710741005125783 0.2565447273918835 0.18781181010803039
0.3385778719698038 0.24545844533724903 0.18315544814979035
0.15050357794893898 0.28016258878471945 0.25878851402887904
0.355858218207203 0.31657805498267066 0.10551742236197015
0.2002065565262967 0.28248427112080776 0.20415761811062794
0.2726324799918416 0.2556944194475932 0.15511495501752393
0.28546442294384633 0.27101884376378393 0.1735478560919148
0.30600290863336 0.29269046290639267 0.17391030878971492
0.33576232198345224 0.2390393034473135 0.1288128936093642
0.2624056500465741 0.28136641687467545 0.18492570126363717
0.3259936840315305 0.23547610812590847 0.10769922375135366
0.11957763098004648 0.07851875034043587 -0.2870167807518129
0.28910274096659805 0.25752572619207115 0.16776454300598687
0.3221045758145067 0.27241524451254406 0.1929291917725493
0.2399449970018992 0.2575314418893555 0.16898930829029268
0.2581081364429423 0.30625616982004544 0.17909060491399487
0.19078828346920318 0.4481130271277891 0.11338623042247775
0.23685465986221743 0.30209886380039563 0.2037261730162072
0.3761082633299253 0.26152238342021406 0.053044959304500594
0.3526004599898016 0.15905786014025125 0.12521484972327812
0.2823509584109729 0.2486526807412872 0.2119971531051874
0.3227765036525625 0.23965494991439584 0.1554708709541046
0.27049070834871713 0.30535157596060003 0.1516490463082505
0.36089626753576454 0.18387744949428964 0.05213438363790601
0.28477339882030606 0.26837006698002597 0.1494259090185892
0.33815589818718195 0.2490488364559127 0.1969345734306529
0.264667455528496 0.268787667879792 0.1364776106220944
0.3323012776346559 0.23574349591083887 0.1635699155684165
0.28466183208146845 0.16838347335973936 0.017893533632630465
0.3145360813331024 0.24968569245095296 0.1143581432635159
0.3504107075508216 0.24731878669408047 0.11124819922824258
0.16575024341420885 0.3088491253481749 0.27474689541912767
0.05155877897900041 0.32594007003638126 0.25960033889322176
0.1551134997978778 0.38898532010520626 0.33506180604041447
0.31230773336946527 0.2536604895355197 0.174496359419976
0.2643725973996709 0.2979234034582703 0.16514169742282547
1.586109383586944 0.23543883829511003 1.4246234678187477
0.29882990798166986 0.32009762744954173 0.2112388888754424
0.287146341887194 0.251629591853856 0.21972596584487292
0.8204944046968592 -0.047410404152344654 -0.11750317896472495
0.3844913872973592 0.2316320058092174 0.06433549585108267
0.06659182017912713 0.0048934095497799035 -0.27898372405161354
0.37115330587738526 0.18849547872767403 0.0869189652729716
0.29362754597795515 0.252255118950103 0.1854947294085605
0.15313358718339032 0.3510669183493462 0.295725529272687
0.29332239663767723 0.3346556568706376 0.043830807155814
0.24949204502829048 0.27019842618622647 0.13285989571734547
0.2256011356248422 0.2912787899584828 0.18714477933444584
0.36759981433490907 0.22265605162822055 0.14847931425018146
0.22968968770663878 0.27972393715680255 0.23783553443868755
0.32943961674337174 0.24290901555065147 0.1417518659053627
0.3576529325328579 0.4351741931770192 0.06600465221362128
0.2877926505559145 0.2681024180405558 0.17741273406983282
0.24448534810565548 0.2892763872819586 0.17991871524714043
0.18806283307326055 0.19637749777068336 0.23271279896988517
0.34495373426892684 0.17968279064454862 -0.040093063943743346
0.27846309518184853 0.26753890062319385 0.13583782774928466
0.2721189409746927 0.2527505899976319 0.1466485942173108
0.2918260319136152 0.2550924344314751 0.17407428049760654
0.28679687429624323 0.27437232544241397 0.19844694525269801
0.23097309589302029 0.2595073980400002 0.21931296277702472
0.2249094733553818 0.3001297760537227 0.21410403210076367
0.2754258956419733 0.1961555341346184 0.24735246869150274
0.25615970550170175 0.27557660683410745 0.17565955258444887
0.26261226245861735 0.27909781502091846 0.17349541592747642
0.31601026985447334 0.285591087064347 0.1587471662353579
0.3008945499168476 0.22826360193266737 0.03907458389181784
0.19943379782124282 0.29014489083866124 0.24799898034844148
0.3057575819304219 0.21884417407343904 0.1747978541493751
0.25650396966068456 0.26681602560563533 0.19293619238064252
0.24790443192679845 0.2443326173293343 0.10956690867510588
0.2949320976625529 0.23706257508263207 0.243461216807475
0.2646498072676309 0.2824858051696708 0.20474885532932774
0.313259044674723 0.26367590159097176 0.18598276237548816
0.24810095717978697 0.3045442868900352 0.19556945280922378
0.536578833318373 -0.25937401334158494 0.16760018446338165
0.2604481343578726 0.2881178318488935 0.1508807106415304
0.29392284690425186 0.23302600340797142 0.02819481221669662
0.28164609956054676 0.292484426040744 0.19277917455411853
0.7638964358279452 -0.12687244112981944 0.060729719227694545
0.28339890096407316 0.2590551170689537 0.1885829874752858
0.2763770295926804 0.2622125610563728 0.1868563914490693
0.2162235163515902 0.281864250202716 0.019938427726259533
0.33096922691433406 0.23799793237807876 0.1705309960709087
0.2625215821286986 0.2540075195272209 0.13104466369777867
0.27346785622424363 0.28128566943475164 0.1961829673174833
0.32011904331915275 0.2409057259602463 0.18211910282667532
0.41478840993634947 0.36824635252582993 -0.01458790995800996
0.2405137973017588 0.28274489855512286 0.23999818249012606
0.35735327129552275 0.23148262858623525 0.09457795399598012
0.3564894567981156 0.22759125212704134 0.17516420710144587
0.27864299505905876 0.26276394555657134 0.18454828813307245
0.25142376947577816 0.26616439849965445 0.2579167740491357
0.24457938173583216 0.2344257103535199 0.10794720123826096
0.25768489910876724 0.2583668378668449 0.1405011196769408
0.2892768777904706 0.2464288997827282 0.13060084120147053
0.2763534467630393 0.2751004677561184 0.18687869576814364
0.2039952692203144 0.2523421547859357 0.20329623230496452
0.27058641209926293 0.22564219775443917 0.20154124060199763
0.351558808727205 0.10555267011764613 0.33307596186347155
0.7930823886489691 -0.38448451258196314 -0.8554904725287429
0.289772181902336 0.2349802441156612 0.23657607360473776
1.629838769371716 -0.2774919669396212 0.2969093084085159
0.2601161023324039 0.24636604437571918 0.13914374743592361
0.27989364491438096 0.2619346545496626 0.19614952138933006
0.17915455905783517 0.2723250336845524 0.20713045242928274
0.2198306744887475 0.25908455150548093 0.17299970703669487
0.09318923877481211 0.2453814460922672 0.43681004586802885
0.31671328155633205 0.1662697847874881 0.11213251565274618
0.2797875993360748 0.2913240652784168 0.23070361213189017
0.3082932967458021 0.2570368024840519 0.030603528512273215
0.1950243388451156 0.30637161599045726 0.19158501500902503
0.7022185162451109 0.2808119505912714 -0.18260958909905867
0.3065258216613529 0.2961432466714058 0.2522507425400278
0.3021423492351687 0.19526255269730086 0.1766311068839741
0.2672135027867455 0.28407412295266 0.1592325276460258
0.7738467456132412 -0.6799359965500713 -0.4481312049586279
0.6974139201193026 -0.15914265019449658 -0.012104469809813168
0.2880083223785448 0.25570872640940934 0.1826396792231577
0.33528606059419985 0.2424393435889698 0.18935157984967077
0.03811774018207359 0.24493438285153957 0.1642015655610578
0.278353156487384 0.28801163648796546 0.1117450842210701
0.3799491578728862 0.2949814265407724 0.20786404211099807
0.314625184117034 0.2663097768086118 0.16301516341808053
0.35590781728318177 0.27388888865638705 0.0989379278890965
0.31454852555006596 0.24269227855576503 0.09152881378375355
0.27584585919740334 0.27424978832439706 0.24234216943347064
0.30633229441494336 0.28826100598367077 0.21074965451012417
0.38327760653325527 0.20918286124842211 0.09166474555368609
0.2004906097398873 0.3194345055738381 0.11616604730465951
0.3982826063737832 1.3169714271685677 1.0680540848437516
0.20199983959557244 0.25870140503056405 0.18257753355359796
0.3450381132187914 0.24069861672506931 0.11645507101533781
0.2747084347093818 0.2885253773673071 0.22485061347745727
0.3010067096037119 0.26728276387549954 0.16127726492854322
0.20274487853933465 0.3868452621151448 0.040482329172107256
0.2440705487156123 0.2759408712890661 0.07639668250118348
0.22924976639495753 0.36565905648490116 0.25463244072400926
0.18755636257345998 0.23528859851103334 0.0069381101464642825
0.13641092392214205 0.33454070722191886 0.2892049559412726
0.2804370360130264 0.2557444402673923 0.23751303662353962
0.21170204367351175 0.29171500458167543 0.19096755136200727
1.3345248950191717 1.020149131687532 1.1870876032055548
0.1624903479849138 0.320761814724392 0.2889462068952042
0.37873706860465006 0.22072981346273934 0.0668973834899873
0.24599020681509387 0.29933088979692 -0.05352282460404467
0.23712080921924894 0.27815454831480224 0.3765924515375332
0.28260018899931083 0.27549701838952956 0.21655502427452689
0.09069936127556844 0.3669092830846239 0.2085608290915104
0.19776346636763265 0.23879401540290246 0.025568069383183456
0.18379655758582203 0.26499766700433725 0.24345601092140612
0.264900850098968 0.30032101819614354 0.2174013106321695
0.2826432660496039 0.2549999643762817 0.1425437570437964
0.04328922318605066 0.34025082834969567 0.2616652784980431
0.33156631616832044 0.20964301030818433 0.07989431401269087
0.29362653257905436 0.24897442370867395 0.16148036874913885
0.29700960045875036 0.29808704964085564 0.2570846240433866
0.2169624621955677 0.29830368381854555 0.1653533812109913
0.3121908995350253 0.20546921291423814 0.14349417168205036
-0.5407437732502984 0.19987016032837346 -0.05631560693782944
0.1606944873059888 0.383044288316583 0.2319814224995298
0.3514554853883567 0.2509768741314531 0.15167084350734683
0.2683072918979974 0.22231615033507524 -0.045106659559621676
0.24741218742062188 0.30057449177931517 0.12377353050209194
0.27405949830023246 0.291689234248139 0.16402408654397505
0.0985557734684619 0.37028375751077647 0.155350323231346
0.36323621362672043 0.2142159640328316 0.11055585921164379
0.25837179870703153 0.2591189250623245 0.15000746367803686
0.10118489839578615 0.28158156937416834 0.08505390968888094
0.315158977709487 0.2366800293002882 0.013196026308321507
0.2494295093967338 0.25728249004421855 0.23157235343231264
0.3291530494190624 0.22405990638668527 0.11209148709480132
0.27037381822992756 0.218076023544171 0.0975495314549164
0.31392333818185136 0.39631634893594025 0.11049699466218499
0.3377322699182912 0.22443254325287398 0.22267178101590446
0.30489735729905476 0.207133143452225 0.1617352191802297
0.27629483443408276 0.25984395244492475 0.17582778384192466
0.20051488571094467 0.3360088763486715 0.16061360122319002
0.29881379535453334 0.2204432150080038 0.11350534384388311
0.2625917681006342 0.3405748326135125 0.18546965875377452
0.1652519190351427 0.3363271461879975 0.21007855594518787
0.2773246069110513 0.22773736021682112 0.2113319573652177
0.19864333522676247 0.30318286543774775 0.18244631385557852
0.3707143443784986 0.1965509024869334 0.024081850571079144
0.3418261824417357 0.200036215937331 0.09608989126249412
0.27389430260046765 0.24065733739737993 0.26211109618289186
0.2364327333540075 0.2677394539772564 0.2529683911156013
0.1333433319845767 0.08848727601262851 0.08013036194299161
0.8727022355643896 -0.09397571558069728 0.2537193039088095
0.2690921290661663 0.26111273483988384 0.21032892477714427
0.28033837444328924 0.21732178172872807 0.006769713083613738
0.18336393649448723 0.38187776720747024 0.34947272769989013
0.45995346370776247 0.2128858630428141 0.13610008708769783
0.24169609465653252 0.2739102073820163 0.16881387183403262
0.27248792627108287 0.2515299382027365 0.2102127987033242
0.40294381037321614 0.28046842114878245 0.09967721792375528
0.24683659320021434 0.19078357524060152 0.10034063765937162
0.349923729801219 0.2597762648633477 0.13010340049314095
0.2774452335595754 0.208621130832924 0.10585633909505532
0.41048995900720797 0.19531084412443533 0.07596671714040326
0.2080237305770396 0.29899779218420974 0.22286701907573558
0.3498271061630476 0.2057914127613003 0.08144642363933485
0.2837877559238393 0.30947880082622703 0.15961706688601396
0.39154394400844694 0.19224178459081998 -0.007072849738165132
0.38543244455431136 0.21097733361654036 -0.0011249900659890955
0.41032270436292606 0.16653061653360623 0.10047038027391864
0.3635705007876169 0.19622304097292442 0.17615897239755895
0.2983948735069646 0.4000514386353302 0.07773132347719525
0.24258832048454337 0.25136575741879597 0.18046001445141258
0.12674537538445918 0.2578475289949438 0.382424143405359
0.42632597268138284 0.20280494895182244 0.255337562455793
0.25400646248962744 0.28998742366688646 0.17891737230550575
0.11997270947728111 0.17202800553735642 0.18920468118025724
0.28547570715015524 0.22124533481860453 0.17343725842894742
0.23740561726910414 0.34996718920817216 0.1683645053510361
0.3829694438801994 0.19051532207407718 0.12832358924697473
0.3003308042356565 0.24736597004374516 0.17768213233571828
0.17597231154711324 0.35713893773464633 0.16955915152041712
0.2510242041566926 0.21559235705697688 0.20842547579147208
0.14412940881456393 0.28837004468124405 0.2628586285584191
0.6760796078413023 -0.14456279213897005 0.04015374612748701
0.24667918614844098 0.18770529299038685 0.08785676665007713
0.2557793618064892 0.2612289826801941 0.07712830755998823
0.2794470341508486 0.27486901878526737 0.199753035836153
0.34517696979378343 0.23907035629301276 0.05926413375664197
0.3359865140828333 0.24734549707564213 0.10698428635350865
0.2525368068548062 0.26994817420703043 0.1584281639817391
0.21914574987684432 0.23776078403170686 0.24342630545604038
0.27508509873919706 0.2768364008140054 0.19036079206421164
0.2267555770742149 0.21067058026592633 0.18425130785587385
0.3350972632527487 0.2179777810107737 0.12595147863785883
0.1731699515322589 0.4174556028474399 0.3251757615466033
0.24031696822991933 0.2873650803187502 0.2837767149383694
0.47423085609661086 0.18470761546058156 0.20339235088172813
0.30484697923907333 0.23753124787884872 0.07692295656296722
0.33016956943691866 0.2761247565173619 0.07065356036358139
0.19422753949640992 0.29672644767784107 0.2107099958935521
0.29940944988047136 0.2518027696107197 0.19431132050885935
0.3287511987934124 0.17239108179921914 0.16203519331921257
0.42620880193882726 0.23069623144616003 0.030564573253684557
0.2692338915542223 0.2967454595527954 0.17354224317404032
0.2983819351901502 0.24344034883111476 0.018502037922132786
0.20959906620097968 0.2643729040761542 0.21113762126503843
0.29161784416672276 0.27799955038145185 0.2182031842550316
0.2154864009543047 0.26861718473870155 0.1420632874760912
0.3644783099248059 0.19962931447250298 0.10305494703649742
0.2820281098886426 0.2675230446600949 0.1725927532535252
0.3575578978547327 0.26266482860418705 0.2185530587006923
0.38083428387786 0.23199441135889742 -0.02187400829410535
0.26004245973641105 0.2619625723955039 0.14549357047593503
0.2793834950797702 0.26085627940855716 0.23709622925031226
0.3515220705951094 0.27140631385671554 0.15275443224044238
0.29518548706828085 0.2806125722459569 0.07498398512531423
0.2815117518542678 0.29231972955943775 0.132648473378282
0.14253668499162586 0.5968731852688052 0.47865319275727813
0.29033964417453717 0.24107056136811877 0.1558863214587376
0.25584681401281273 0.29365301183739234 0.19507199215497906
0.27983523127338117 0.28989105587754693 0.2019275474720672
0.32126740758151584 0.26821057961447536 0.12620478867079044
0.28887946247527907 0.27437754880364196 0.2480578683425989
0.3132886087039424 0.24677822166373176 0.15806028439840247
0.30544197256875805 0.24589827160593813 0.09889179175152663
-0.006597942145674551 0.12639705582630256 0.5680106522464854
0.2660656427316326 0.2525820854444305 0.18579469953280636
0.30251354298206934 0.25342586945484413 0.15472926123730701
0.1764416286959687 0.2027044060052674 0.06120747254394132
0.3301246318489035 0.2767683463501953 0.1440144417435647
0.31734212115166827 0.24953997256621108 0.16592000618945235
0.2800023105443472 0.2731339414836782 0.18585707818458275
0.29001965924376805 0.26384391064128465 0.17609971413611447
0.25801741341315676 0.3011518115498717 0.23575257793299897
0.16963644204446382 0.40457321591765094 0.34689648290347463
0.2693796526946528 0.28752782833946355 0.20277256640530084
0.317817599064 0.2830654892454447 0.1457656323717913
0.3139228775712013 0.2496077348546919 0.17182540676736835
0.2801905306360766 0.2523302979645621 0.17774460784707458
0.273242704659566 0.2702606428493368 0.15692189658491884
0.3049246182764165 0.23898842515998808 0.1480626740668214
0.24191579699574106 0.2679441947450556 0.23267314250620075
0.29227488700041704 0.24165546102429403 0.21245406031138714
0.2779226148798841 0.2203683019040028 0.18714826971370258
0.38052164214138884 0.23951108245405806 0.030546387340507408
0.35667051689497953 0.2011968973286571 0.17193799498210183
0.18867564344313337 0.2557998045023453 0.00259611251823344
0.28262493909977593 0.27565478574160807 0.10286281123471497
0.31542890262568335 0.20231373567986566 0.12987829161247078
0.30241576686364624 0.24201730783414632 0.1743151285199076
0.41986869603086063 0.28564931723529696 0.11205691618357605
0.4529744965964966 0.29647431178267425 0.038497909869732894
0.2966451520835278 0.2692492984693047 0.18349657909786288
0.35464324526867586 0.19540589743479586 0.15116644071065366
0.25740714719040625 0.2501972074631311 0.14547058553395686
0.25097072833814593 0.5075773783185866 0.48539252955347933
0.29561122640338056 0.22542091922424845 0.15926142880437055
0.3071040566609611 0.06855875514477816 0.279981635641974
0.38342787238102005 0.22824564201809494 0.01383504886115361
0.35953347030974214 0.18128733939886388 0.10610834444804595
0.24486789665303377 0.27051304872877324 0.16376297649307503
0.26773917500483435 0.270018388061942 0.20240269141075373
0.31570745141414136 0.2554166842161436 0.19931970205931293
0.3304165781267727 0.22699966227953894 0.10472550821609161
0.28644594421001557 0.2697279605834666 0.19770213687615978
0.21332163168715113 0.2633260665809303 -0.0023061743023617964
0.3964254921936856 0.19614069914726429 0.631948276239541
0.37732198920281235 0.21991526836862363 0.0752957667288996
0.26461561245831433 0.2128580329123082 0.21518785400405704
0.4951786048107465 0.0873968775673859 0.27437250882954345
0.15556919753231568 0.41563933025437905 0.26725614436534784
0.28294456953341296 0.30973503626569254 0.19553002878247128
-0.4371949108973183 -0.003789728109410362 -0.0009911659682160234
0.32604850306165645 0.27608250803834267 0.24439663730686334
0.34417683708629454 0.19203862359765367 0.14207698259042445
0.2994851107201555 0.24860024420358684 0.14123875828551036
0.2904003688671537 0.2436436276022107 0.18661721733357695
0.5363588585034051 0.2896316302221891 0.6232051463524044
0.33524430293383034 0.18953149985699724 0.13099876468851335
0.24052971019992242 0.3107747281403874 0.2562980797955561
0.2334566805832594 0.2532330792058133 0.20236480797694867
0.2939661121441475 0.24820197956519507 0.10785494724228784
0.2925341310427143 0.25730970216305593 0.17040184367120048
0.16448859157915763 0.15467072140441473 0.31810495828416663
0.2588071509219674 0.22141406361288318 0.018488263926769832
0.4578180794844968 0.48950038415486574 0.701561417981523
0.3388962857205797 0.2281130133318925 0.09471716580900136
0.27592537793194083 0.25298711702042453 0.15862289284098097
0.6649400138093 0.1765109316641542 -0.14901862737606564
1.5901151926247792 0.11224758139562141 0.9626634589490379
0.2657865719117609 0.25524909815561614 0.16596511046542162
-0.013712902227609902 0.3110717915791952 0.21411524083305267
1.1130019677027434 0.6874917482240903 0.6437840811314715
0.24107155729180363 0.24111827169039657 0.18142305522221136
0.2969928216822666 0.2864943219338727 0.1961041052895638
0.3791718587449395 0.2107885602861188 0.09673512520780037
0.2063665688525873 0.26819832258019005 0.21309022355201535
0.3171974910934523 0.2235805237553592 0.14245697458407847
0.7168789807311953 0.19230004079432206 -0.21573647144541042
0.16635836679633087 0.45633019836417077 0.31831641222134976
0.30546324523002966 0.23114594412629685 0.21254292791047646
0.3185015347473694 0.2725728893016708 0.2006505778007579
0.24802697982727295 0.24155799853824078 0.1644699334413673
0.2903493172063065 0.27186838097449595 0.1912093419832388
0.2783341270527444 0.23743846646532063 -0.023261325203804972
0.2757100849471641 0.2607490885201713 0.216252303628778
0.3136133077130694 0.25259078810186963 0.13879110238950432
0.24187479323643402 0.25812485146514064 0.15130098734010744
0.3087876388212152 0.2559827035710782 0.1363222395737438
0.23481385823602352 0.28113434359212874 0.12860976318198425
0.2790272690156428 0.24602835387955224 0.18895782324288746
0.3262141505798297 0.2064985549796745 0.1175697234907318
0.3008982940883982 0.2736116773643005 0.23946728736095224
0.3242139589482633 0.25959427859370976 0.10926125762148331
0.3231882487708191 0.2641942584128856 0.1791689248594821
0.27942349887528906 0.27653560685541834 0.19802277650092037
0.31023139989682136 0.24971840466101014 0.15965135972192002
0.2566844456186175 0.002046493764808588 0.30004420261414566
0.4136819905685911 0.22200912937921657 0.17769175116562508
0.39616787361208594 0.20274455840747407 0.10721368651340413
0.27811579849870327 0.2624486987671446 0.15071829243100865
0.2958656091145002 0.26658592060364583 0.1904765551005596
0.27612642027642664 0.2587388452048458 0.19508773293179615
0.28879606550638925 0.22215924211911897 0.1499655272452003
0.2801859162678113 0.2247285300927757 0.16258505728649197
0.6026909764616448 0.19304963073845727 -0.07960608200616548
0.4500143261900291 0.429166014884828 0.5652133700517652
0.18187933752487595 0.20439024465818534 0.2024369476164054
0.16974154720065826 0.28016441924648916 0.13163241423919203
0.28102722013481696 0.267749080768823 0.21898420931557894
0.1370089031331645 0.40821652479742454 0.1866637684718171
0.34088131732167426 0.2164296089743516 0.10989863691921187
0.29433343725625605 0.2398847204761978 0.18508066856696814
0.3207071520975262 0.2253205095835824 0.18820080067226286
0.32787799275612883 0.2444685031575773 0.19953112694508945
0.2304540374465205 0.28540899990099433 0.17396791992750593
0.2877867840490467 0.26337853123422406 0.17731323186147563
0.31653319258515467 0.2791448228219622 0.24765985884620534
0.22983665661061536 0.27364333691500065 0.11769730445024607
0.3020675064169893 0.25622194562356526 0.151772003483714
0.5984860940482548 0.09189877415710157 -0.03954747479109244
0.24703312721830173 0.28785185586130524 0.155865739760344
0.2928720175338668 0.2747393806193088 0.22187946173252726
0.2815815001179658 0.20501366445191138 0.2508045663269627
0.30322512280218916 0.304632626811852 0.2135592679116769
0.22152447734146108 0.2035933948781974 0.19146397460703213
0.27667369316981194 0.37523796721808367 0.13686490820782637
0.2856954882459206 0.2574248340860379 0.17925450769965323
0.2850458549815187 0.26661357115284545 0.18420057043793747
0.27667764740090206 0.28908635173442576 0.2296356124421095
0.13593002357828254 0.38790744218295004 0.3234664169127939
0.2994788871905314 0.25394995788242625 0.15523430522833337
0.29734668819992294 0.26369639148980184 0.22238512223685802
0.29792808084935984 0.2791007061829305 0.22311137737392528
0.12004439296136127 0.34314149207170885 0.1792823974372908
0.14824418095287228 0.44826995142877024 0.25008460762349216
0.23130837413619076 0.2447351658266257 0.141423099558466
0.28549134919160224 0.24284143168171113 0.169517046724053
0.2974068452495686 0.3220959186425887 0.18052989909504902
0.5274113662034949 0.2714385786637763 0.12681053225944083
0.33923460514465376 0.24149995148701464 0.1490654189947378
0.3789426908342364 0.22832751947933616 0.1408945366415395
0.2539750452650935 0.292201913398884 0.23752882966547872
0.24840761709154435 0.2845047131337992 0.2335011236755804
0.2709195039767991 0.2571058040767298 0.19297922908188525
0.082409655638088 0.3336557032107237 0.23052263907629822
0.240689862773948 0.2793156089769582 0.2623410639832997
0.23420113376278096 0.2661701960666676 0.16816946076077954
0.34878758605981375 0.2084057551342653 0.031564452326122705
0.40101257709156357 0.08372364640035812 -0.07057703089893153
0.3131362747595716 0.24181974683347107 0.14308999271136713
0.30622133639712956 0.23002852795542594 0.12352129858521721
0.24804051172148434 0.29945982369993374 0.10277735757151163
0.26865025438556245 0.3326234833649693 0.1970364966234257
0.24793346657946813 0.2782174300315887 0.11954777064731559
0.2965593947053975 0.30717473473256973 0.38660132290016236
0.27181957773049703 0.2682394871527265 0.19101160895667135
0.30068090605082887 0.270211742902859 0.12070347991273422
0.3611863444134542 0.14098663726780103 0.12136018535021265
0.33030216621330055 0.23471894314120334 0.12095135813410707
0.25460905589397953 0.2832222105172093 0.18337122755556834
0.2887330241316448 0.27792846893896694 0.1893395975087202
0.22654293121239277 0.2946148623084639 0.19457456818747687
0.2524391467647149 0.2994159137431609 0.20845472183557945
0.2861205776613076 0.30590656613856027 0.11074263230619863
0.30284252869600436 0.28493608626533273 0.1848524664447524
0.28217104127342907 0.25138238182670136 0.1836653166352562
0.4308345984607769 0.2583242096550009 0.13229835115311062
0.3258994357320262 0.22183637357602493 0.11146339694602148
0.24631546070918375 0.2694005606878136 0.24665799043839343
0.2516109985459565 0.2866440394960108 0.20730091512376703
0.26609612153711737 0.2652537016097938 0.18253437050233856
0.2743845507217202 0.27510341180664 0.1676736630919322
0.31358110822219487 0.2536152863088148 0.16691871413084414
0.2927293200370116 0.24273196014746645 0.18189958280305518
0.4888652230385162 0.17224076320798076 0.1142219492996901
0.16935063253177418 0.27364703487565123 0.2891160463205722
0.33195225998508704 0.2665636827961606 0.13348623460345266
0.48867477396322556 0.3004107716543558 0.5800355226136844
0.23983555359373554 0.2089929838050466 0.24228536978648663
0.24311008051087413 0.26080801752473803 0.20877625353401186
0.39373260146101074 0.2167543922363393 0.08669501241806188
0.18188187213182516 0.30033429047553284 0.29679894008771157
0.29974751045529047 0.28246101153237646 0.1699989685205594
0.20500599251082008 0.27594400097106586 0.2200782708387834
0.3854855613771946 0.26093981521069054 0.19207348294236226
0.469977272486247 0.14737573517935232 0.04629110308630402
0.22268907629913315 0.3020510636068252 0.2617354495025097
0.3356539439452888 0.2546034573763478 0.114511804406078
0.2693306264429225 0.2923604331340357 0.23274498535261046
0.28613748623047286 0.25199024958816096 0.18057534636301398
0.255190093695262 0.17864979888099697 -0.017472215385311074
0.5024811324406642 0.21082664445928856 0.08965942414393169
0.2820885638628283 0.23420229471321363 0.19908003925118578
0.24943345433422337 0.27445873381060437 0.21280912343533487
0.24828149450277692 0.27923975274043755 0.2084424216005516
0.1464621189788744 0.3521539314706956 0.20091188731269938
0.3462326188528664 0.2323423744204547 0.17333092033101138
0.3113383513300789 0.2780917894353365 0.2756154202265293
0.31167615945575733 0.2460475399295774 0.1255108184565472
0.29013495352015184 0.3092664666038729 0.2154723957093978
0.26582469538202247 0.29019041827754677 0.22889633301082313
0.34003948402505557 0.17578772051783176 0.19385111851752868
0.28030692103340016 0.3067615339511178 0.2347172901487795
0.2441134844511197 0.22441422812084966 0.20503078726883928
0.3477478242842551 0.23462779139143208 0.13559133400811163
0.2842498502648283 0.2585656056926666 0.2648262500140959
0.19683870519574498 0.2691381289290291 0.18310785576468902
0.2756561501534094 0.24602146573595007 0.18407102883416826
0.36883839569841825 0.26100103281868314 0.09075601854925708
0.27670707000244477 0.3088859984935084 0.1676684881830397
0.3628503596557948 0.23744231900843715 0.17859015520053845
0.2161612722332933 0.2860268570484834 0.17711758629977226
0.30423318710867875 0.2700140752107245 0.11486795903084612
0.3125282279901427 0.3124561309759599 0.21205794341298656
-0.33288180713716997 -0.04848579392751162 0.9390292268081737
0.4096895399558207 0.25761971801757966 0.12916792001203703
0.2759110531285245 0.13230817396727446 0.09811959355377553
0.2687680274665212 0.2609883172369081 0.18520294951710525
0.45655887600483425 0.27258931337352976 -0.005810214772850486
0.26080915285467654 0.24437539028969013 0.20065197210266206
0.3807741818796444 0.21422852111123802 0.06851487767666242
0.31285827433799795 0.2586791425100614 0.23204016874895217
0.35885461782712014 0.2234641691078707 0.10321737018904287
0.8020133180836808 0.09020762942812155 -0.11797769915982315
0.2842370003147323 0.2573134301564295 0.18561857033415663
0.2864622471166314 0.17107501906566824 0.1303830322538886
0.36079140969243895 0.20797825614309318 0.1206505484740461
0.42947426802734867 0.35819757011064723 0.2520374949619395
0.32923070559456846 0.22472351298092974 0.20487465677504701
0.28032298330430194 0.2895964694595534 0.16523910547130072
0.26631489329824376 0.24731117867858643 0.14010844632647945
0.2783816567311703 0.2560792994705139 0.14844163046709014
0.23175378559795945 0.28692412108514986 0.14221899969697915
0.37391681057113146 0.22689501209583796 0.1807815550662042
0.29576739464999946 0.2824298448941107 0.19390749703268284
0.21744131835502856 0.20185978405527294 0.21101270088607293
0.30254180432429223 0.25444050962914844 0.20307933186356308
0.36201059314063855 0.21800924375371267 0.18845159316410331
0.3030405583721745 0.25858454428059474 0.18243163974210574
0.21947925735361196 0.3007833390165615 0.16180628342358716
0.2360994274341266 0.4557242559411634 0.15766512167007818
0.20974395740856266 0.2115770282854328 0.2641751167914208
0.4425297652389304 0.20648041357569014 0.11553291729271109
0.22543589256207497 0.3873962452430959 0.2625677915110032
-0.8900291312439492 2.0083232493110614 1.102112159872064
0.28977914904871227 0.25121773331233044 0.1903116139562968
0.41150094419262473 0.11743412482763915 -0.007926637403841141
0.23684558337635053 0.2862769740124236 0.23968279244434143
0.2888077764650063 0.24683054137165072 0.19330580727282154
0.31747119921254807 0.2255961397156483 0.1889901920611834
0.30261901941969427 0.3291433373672703 0.09208353860231
0.37123329641551095 0.22839435901812521 0.13317158705774546
0.5333234046750306 0.1177931151802909 0.12521463367690444
0.19472782110941012 0.3739687188195262 0.266203422124903
0.33168054733727104 0.2548830260852526 0.2079673544482432
0.2758014585475621 0.2777952554508971 0.18541003652791233
0.3530155061586555 0.21093222182685167 0.09741999425872905
0.29925431427570004 0.2522086395426868 0.1765748879056872
0.2764386467169686 0.2808519628116528 0.1730497186350135
0.3798494651137787 0.20374439898814956 0.09041154560772213
0.4306558519907355 0.2177434649153298 0.0032111257659153125
0.34221283088618293 0.2088219618296847 0.11255254554743033
0.27081720209643834 0.317411899325009 0.17372649765175652
0.2308794474922422 0.2982827872063041 0.17307274837736486
0.3369556471538431 0.19429255701570014 0.08328866264257329
0.32973208288126443 0.2647443467633508 0.13359573055132046
0.2526645694450025 0.2735705688420751 0.1768670412174771
0.37526575544086427 0.4624014331712658 0.5143609490715733
0.3265943799874549 0.28672604108237465 0.12544260980962463
0.488456776031299 0.1752114019154476 0.09872156456913217
0.09672594233134646 0.3513875187106379 0.3328123654948456
0.2723939933764967 0.25422458140164395 0.17017907166676594
0.1866615372383933 0.20634289046329002 0.12987943969329763
0.20103955235438775 0.31438551723393005 0.2683119578576907
0.6937671093131428 -0.21369619846956311 0.04263431588603339
0.30955552011380405 0.21622691796235927 0.2671890448987284
0.2870128469303097 0.2418014416720098 0.22502712548421755
0.2665057071102126 0.3870948665125127 0.06958576475298628
0.25966398133093094 0.21096985174833094 0.2177589055280862
0.1089136175223473 0.36643964810072305 0.24349305877962024
0.3273069853782715 0.22436656487434448 0.19993409804963846
0.5638267692239083 0.3089358231695911 0.18196433252498423
0.3678244998399691 0.2247276416650834 0.08807732808583069
0.8043586770095885 0.012517915108730904 0.02846202942144771
0.2238211296595125 0.3152800347392599 0.145515881010283
0.3331109020106169 0.25157042972880106 0.0800056601762833
0.2164543578860787 0.2825121032985436 0.15972040888924255
0.14806543181484244 0.3177859209880012 0.32743819359549775
0.34466560979669225 0.3351960229505835 -0.07132537678944573
0.374415615432099 0.14539620074000936 0.004681973699234732
0.24963151505733094 0.2750192836605265 0.23188325040035807
0.14255822651671224 0.29630248603467635 0.23802684960705278
0.25844066463579907 0.2844848626826888 0.19037968128080252
0.2544545765735222 0.2898167788712698 0.2188570592013548
0.2115547904956685 0.23419008411880782 0.20779542953015095
0.2792181711342039 0.19497985794153294 0.0595722273811532
0.27571263616616193 0.28964416749030875 0.2079464875874919
0.47937395632274615 0.15577452278479598 0.06068163208507826
0.20563724442712328 0.3003097393734322 0.19725710806997654
0.32791944458827516 0.22226280580200353 0.090913854188301
0.2389720475585193 0.26762847986907445 0.1301087145362203
0.37638119964555017 0.24335404057276833 0.14194961176153242
0.2805200801835781 0.2676869396360644 0.17682321862483263
0.28448471956579624 0.1900690290155751 0.25477792510429254
0.1404579229434546 0.31235518906802895 0.29244805225567916
0.2807866429142365 0.2533533659606775 0.16550330199265773
0.17969666365226544 0.23392310356072699 0.1029978595319676
0.2994428097613877 0.2555279421967498 0.16266733177765502
0.39173281665688364 0.19496153850769815 0.048034252874131766
0.20403835673135973 0.26623734185959336 0.201405479093566
0.2980974126937497 0.22144241960629074 0.04796996101477191
0.21814890278071175 0.2767079975192388 0.1429886502156137
0.27721784869528676 0.19139901438663287 -0.02492401257416077
0.25798342838632493 0.3016481589255875 0.16289136377250202
0.28790599242532267 0.2635248598484736 0.19113301828855356
0.30207646951798495 0.27692393385419223 0.23503931671541523
0.29935628370529344 0.277276951660383 0.2236219527642902
0.29123265837054646 0.28493163064251803 0.19540499066658867
0.23368325145168 0.2039948766440034 0.1750577482321347
0.2089482938593079 0.25845382568675745 0.18371945852666727
0.2674267707952538 0.23053933498563595 0.17688103930015586
0.28489689747964064 0.25059324886677814 0.14598042298578662
0.26043335733979234 0.27602802012945915 0.3523000221943562
0.26952638435460585 0.262766709460422 0.10144165474011402
0.13023177467327685 0.40643869528568644 0.2914553008644134
0.2033619595481042 0.24803509031025328 0.2545205660974261
0.26464927834126684 0.2533130392337455 0.20937945570378247
0.25662136690837656 0.2717186631576851 0.1294907815150026
0.28310482276891946 0.27595914796324905 0.2215895350080359
0.3018718556400444 0.29629938586955973 0.21858087790386094
0.2467363361410122 0.2866110169115643 0.1998211336915574
0.4530592958163595 -0.1960565396255447 0.15491940194543474
0.3157962661299649 0.22436603961141088 0.05574451361613342
0.4606317637852442 0.21961634131773167 -0.033418406347564655
0.3161944698460246 0.20596900079401337 0.1350879286210045
0.3481308188196408 0.2456118397149396 0.2071134708150737
0.24284115708545073 0.309101381770887 0.1934443269955466
0.2735784172770508 0.30113003810987493 0.20088926869209445
0.34776113712746337 0.42730135156054416 0.6860025294267444
-0.22467017792837396 0.25191735417260475 0.9456513672620304
0.34803237800348086 0.2696045735505379 0.2152756344778055
0.2682910381161321 0.3264955943975849 0.12501914837093864
0.27936916090291675 0.29916643730527426 0.11286705498591232
0.23528311873224084 0.25963824383362066 0.06804504817068846
0.2533316345801069 0.2608053316319001 0.22553436279490313
0.29811977358963304 0.23901175182366785 0.17987579778375107
0.3376745270050492 0.256218730088392 0.12385556726249547
0.3033305080008404 0.23528126375626357 0.1489531535242179
0.2711036599448846 0.2750044016697757 0.16597722395087544
0.2251455458487044 0.2805533237767861 0.19475691707219767
0.36630370758234676 0.1164907770765069 0.1281749841488562
0.30102062756134274 0.25860595648200047 0.2024498116299469
0.27195948209056553 0.25919600192813164 0.1632793164460793
0.3515437065653373 0.22230068169335482 0.09917286067329201
0.25836219447469944 0.2304963325998699 0.14310990820240477
0.30124724268060277 0.17950143684915076 0.02031682988162231
0.3774064523137781 0.3043395590185014 0.11296194896041811
0.3449782286354832 0.22821555232292212 0.1435391445336336
0.30764716819203386 0.25897643837110706 0.1507640926902809
0.1784145640665855 0.20875855397748921 0.26224397901235363
0.2685227252074469 0.2678758956764682 0.013903139157235955
0.34542337737325113 0.3407332188377552 0.11526133387246773
0.38165725414694407 0.35702481996608526 0.02142769669809752
0.25794480696114874 0.29309018298096134 0.16634027234483995
0.25939877781954124 0.23651196040428601 0.16781988636816436
0.28680408927547774 0.2749939676443631 0.08854380673039941
0.38757471696891344 0.15664219479656083 0.09445861898129237
0.273034737833342 0.26234309961608915 0.20720536763715813
0.05521036069470142 0.3049663968234029 0.21421405697030593
0.2751334228607476 0.27202599018880846 0.20093415385647972
0.33411666037997634 0.21991647729581132 0.14761382088192931
0.30401660474589676 0.24722386155382026 0.23596751649205316
0.34939457253247497 0.30241161906897673 0.4789663151696999
0.2808938752970107 0.25332414226393496 0.17484503950035446
2.1798076998310876 -0.9488519774448605 1.367339348302849
1.6056713948643875 0.089744909584482 0.9451923482934035
0.2967040061537034 0.27546780194401776 0.19521539856698666
0.26096337747119946 0.27994121096620006 0.13258910547966707
0.3130939192617461 0.2475975374809991 0.12574492136923254
0.29759811283078363 0.25748794721842216 0.05704166272326461
0.30254958772984253 0.26883459210597493 0.242654861215442
0.28196704517458215 0.25874655806623537 0.18186205925943
0.1910786934539317 0.28651991366648133 0.03240819036108178
0.40879273110797953 0.2988650819847578 0.09331288917343272
0.30476729786224155 0.2837601687805318 0.23253505978819078
0.4044373769369116 0.15526522488153205 0.06733287922546083
0.26639064783873323 0.26912269508950715 0.24746369477131225
0.2304974275400724 0.25228529883835904 0.26065408659707145
0.2607338778011581 0.3259513098166025 0.13509659255953466
0.30558711820587803 0.2957517317215803 0.2270127943882585
0.0434640420779715 0.10574886832398533 -0.22363167592388322
0.15177853613232628 0.3024205662292587 0.09603833697281061
0.31674667891331865 0.2138907819413305 0.2769140937902961
0.24427642837025587 0.28837426127222443 0.1766692033159245
0.2724830615331655 0.275199459393491 0.10991677230445873
0.303566763526959 0.20753496136377692 0.11889019965009595
0.5399425203938222 0.2691599020048727 0.09628133899943236
0.44984477093589703 0.23936831642406275 0.030870045050008343
0.3304135378204336 0.3331532393560792 0.2278113662551391
0.2143705015925832 0.29643109113854393 0.18704013929088603
0.2642802316576933 0.26514694055666155 0.22264038151331533
0.326968239975173 0.2734282314577001 0.15053282180673477
0.2679867532703213 0.2969285072600485 0.5099011556146422
0.2668622096682185 0.24444548020522916 0.17735940360361724
0.2673854496997876 0.2711184673738387 0.19547285435047002
0.27781199647826327 0.2333546599237195 0.20831994453504876
0.23938480198600587 0.304246466314126 0.23744074116434888
0.2941223710631675 0.21389139335292384 0.10856129054147345
0.24667118184304115 0.3042586599406718 0.23788074852882346
0.30224482107485073 0.2709325014441788 0.20746691301320652
0.2802415480615821 0.23698649951471396 0.12173971715228049
0.3012966048771375 0.26809914059916196 0.12641928199818153
0.23303383788027077 0.26438086694696494 0.13668811895909982
0.23621799727247605 0.16986144836343442 0.22720372513805387
0.29499221528477904 0.2853841985314034 0.13885359032147448
