# .PCD v0.7 - Point Cloud Data file format
VERSION .7
FIELDS x y z
SIZE 4 4 4 
TYPE F F F 
COUNT 1 1 1 
WIDTH 812
HEIGHT 1 
VIEWPOINT 0 0 0 1 0 0 0 
POINTS 812
DATA ascii 
0.28146298859178387 0.31423279687530226 0.27498843082521773
0.29252777473394076 0.24222464197700333 0.10492533299125739
0.19917925544112336 0.31049849016432063 0.2105036981194246
0.29582298218420533 0.2827864048691424 0.23210201565873945
0.2314500858156947 0.30688382638429346 0.24098755227419133
0.3232964120186921 0.2403584893294095 0.1377511243208005
0.2942838968096737 0.26804037124988156 0.15560924432631396
0.16977524037984892 0.29868781946916556 0.17501392475460875
0.27542464979313763 0.31486078866596756 0.1588630297923146
0.268819534680091 0.23111210802369442 0.09584293839901648
0.2874890884055503 0.2597849823887657 0.14000668577219244
0.8356333273306404 -0.2026369490962736 -0.02879532642774052
0.13010177717426075 0.187446501782091 0.09556261979523129
0.14269569858035425 0.38061123036985123 0.45176283984548604
0.30511986903094623 0.3567451885315336 0.13327409633399157
0.1893077226883122 0.3209511784500023 0.19371397699873683
0.2884063998241402 0.26276535155993486 0.13987442581107246
0.2771307939406995 0.22595494251034154 0.1568014205806776
0.256343470889135 0.28467147087022227 0.21296027471143475
0.2638730329393013 0.2812326861629657 0.18772634430303015
0.3194031868058289 0.2830511211121518 0.0947335405780052
0.29346973301549895 0.22601945709487836 0.1266576251061764
0.30266893938939177 0.26390418874537147 0.15754020858727813
0.3398234952592105 0.18723726675806063 -0.016050210684596777
0.2936725567859355 0.26674837553866837 0.18112769584688238
0.2654653353051373 0.2609098502252891 0.24987467891845938
0.3964113756780847 0.2281418114900049 0.0028811440897982266
0.28180452025517866 0.31386902019919205 0.20741748033563567
0.3641954897562414 0.17414167106279876 -0.013691837642312521
0.4043602002232234 0.048528796937887364 0.11573238119918017
0.3051004497335157 0.19541072129689496 0.2025615150345743
0.30384029381596633 0.2745442261253004 0.18065758467665205
0.27095149422163445 0.2919227644237026 0.2466779951107867
0.2649277475642293 0.2590280617289977 0.25932208610088026
0.39799367960202403 0.11147391349101099 0.07183230817693698
0.30318359761471925 0.242884990861711 0.12893671533132078
0.3981385520866354 0.22394962489374848 0.07124410387746138
0.4602889046004037 0.3291938595325661 -0.008972247664786437
0.4527308963064911 0.26157655687303816 0.06921164605648755
0.33474270681054463 0.2476124386854508 0.14838867344690243
0.3480604851355622 0.21738270043854868 0.09321599137309988
0.2863063405662416 0.26634679258745564 0.14969189264955673
0.32730769587070085 0.22039515676729593 0.19568200431196203
0.29825098972503383 0.28471158736874713 0.23035857745745147
0.30334617457469903 0.2386230983914004 0.09866766196927301
0.3338157988799111 0.22756992318448965 0.2135668401411408
0.3320233768734795 0.2305765194257674 0.1469870108342377
0.31124547605517705 0.26592468926376966 0.16603837825613255
0.3182180185637833 0.21358627734599622 0.18171785712411292
0.25742004661469764 0.18713004805832156 0.1359650440082305
0.34949618712229835 0.19788759022492286 0.054528479725462375
0.2355720259161842 0.2566127131312612 0.21599476440459853
0.2962907750467991 0.2812020175803269 0.09223461937997968
1.7010150367107713 0.27294034565952074 0.9763334363468772
0.30135308451781384 0.28230034100627677 0.18954036150866216
0.38817692935739956 0.2538653996141136 0.19421263000282352
0.325667241618703 0.28986273631798554 0.13948282379661237
0.34639806623766844 0.2071143078074158 0.16530524377688494
1.6765994641307884 0.2992577520466 1.000866830231388
0.33510565895528543 0.3330921555526061 0.07297912757044855
0.29684144039524085 0.252578285640908 0.10526373931929811
0.2806762984578768 0.30778035891577815 0.2272298334039391
0.3027624375753817 0.21717068795314276 0.19050939558096047
0.22946255832462725 0.2851278276197746 0.1354997976780794
0.28920316357204 0.262292130368337 0.1963675103038156
0.335726040058546 0.23502048832133937 0.3065273865087619
0.11710514607025857 0.49653978301392954 0.216741564267096
0.2985462647977215 0.24596903820146565 0.1523002411790202
0.2791983803196274 0.2505956050791127 0.1445388591508987
0.46414518130296756 0.16552050351731395 0.08236047115684642
0.6204072056505368 -0.19802088894800818 -0.03859304474298142
0.32339759889690356 0.25926004837793926 0.12505686582437647
0.2805168605295023 0.2515765500160967 0.14082658132740278
0.23042804432111552 0.34388049106910046 0.27590633113618424
0.39677538157043557 0.22715290667831312 0.30172718740325877
0.21978680444192378 0.2947631283590084 0.33859059994219365
0.34528643386400404 0.22112463374125468 0.12086584346948825
0.2495000565744192 0.3223854556239587 0.15684957834687907
0.1639313732814287 0.3027944787322383 0.14689914065029086
0.27110475383162225 0.25561644492000823 0.16649941057590922
0.276840186696262 0.2662346842137566 0.1583595398579689
0.33599599102387856 0.28217942798754336 0.19351942093112484
0.22646127297440444 0.296605316715727 0.2096641571028215
0.3110360868992075 0.2055155062606957 0.08911901191520144
0.25664756148132994 0.28675237284886634 0.1805985409994264
0.3091256234797015 0.20478034257914146 0.07242797442032156
0.1814920413677612 0.24236641765683942 0.15477162710081416
0.29069174585718827 0.30458727550930575 0.12852789931113762
0.34071262148952997 0.2579559389183572 0.18279376555837246
0.2790925572770675 0.2874169512222693 0.1941202448566628
0.18873952626717028 0.22827733168868747 0.20664129389761854
0.27568402730400976 0.20843309741151472 0.30254655339490455
1.4587288520871482 -0.6758291748468537 -0.9213620200215047
0.2413877817227359 0.25896042501885574 0.2077844257255208
0.08617661480516858 0.39950181109189487 0.06911273892795577
0.41492468199444943 0.33993888320286203 0.2536550222185099
0.30562336456134176 0.32729500622845364 0.24076643222417715
0.3596669778413144 0.16577386553711904 0.09809115943012614
0.28222212245171363 0.24640794988030734 0.1321908278234929
-0.28329764353125597 0.32621757268077545 0.23314105945701158
0.2599618720331023 0.3104177209423824 0.20406052442679368
0.25376450256527505 0.25377949964992297 0.2801249063615785
0.30066917316420927 0.24461231338743517 0.14818002474994785
0.7697236125595168 1.3147697758880383 0.2502649142346485
0.3091379311522644 0.22377580983683742 0.15857046094222937
0.14591096436933526 0.30877613012319216 0.19601043671443108
0.3035937665225532 0.2243244094144643 0.09511892123479981
0.2839767510253637 0.3005546285635319 0.20628370501128757
0.18805142901453564 0.37262710980269276 0.32845756816098515
0.3128723132874711 0.2579742130598959 0.10268857690098798
0.3065721720439285 0.25178726383596484 0.13158342901965625
0.34912182669907565 0.26319553787314476 0.17148204342504414
0.24815494286252715 0.29900997560784504 0.21108555316976663
0.29753846265643347 0.23086460639305528 0.12399513407737572
0.3091986022559752 0.3088397546350734 0.19729280449305975
0.2814199033095406 0.24950842408885876 0.18016867329529873
0.23890655254157878 0.28025978197180734 0.1829673039220836
0.2824296110046447 0.30461334737802304 0.17960805370006483
0.3962297661329046 0.3115435366288324 0.14400617116669423
0.31187519588921475 0.29947140353746704 0.19625830864266902
0.2696988277062218 0.27398176404022934 0.1960695783143933
0.19990318014171748 0.15251232722968666 0.23059186713787483
0.3606401974732165 0.26597860777056326 0.11051900800912051
0.30663418207890913 0.24980328585726852 0.10903817731113463
0.4455250905387089 0.24052771198640244 0.002807002204392006
0.280304121588415 0.23975656438484805 0.09585189257487059
0.30496205889099315 0.25671184620607335 0.12494110852478002
0.2988848707272638 0.2667172228622974 0.15887272707107059
0.2888111591670679 0.27742022725098536 0.1657773539735814
0.19025934106653608 0.26505313481527537 -0.12590486461368755
0.3350697537704548 0.24114340699989611 0.11519366211683746
0.2934538427077058 0.19041923072913391 0.14438084920666938
0.3011797686995408 0.27552738163842605 0.16474667271748444
0.2992791434587616 0.2658285574445358 0.15233079550415596
1.663120304457152 0.28823567707368625 1.024541393343199
0.153870509461683 0.11414139260416789 -0.045987275630551494
0.16763648900433736 0.25448147420550526 0.1676396166666052
0.3124229069713351 0.30635049742288345 0.17373848184317353
0.2626303755088202 0.2985658905269162 0.17666029615432421
0.3653409324568315 0.23790178694230235 0.08133141037333758
0.2520341908833359 0.3184869498778937 0.15737107516864057
0.2542423892640784 0.3088088377587894 0.23269214548093942
0.2729480186663409 0.26888022924228494 0.15982928767645888
0.29685459479460974 0.20688089306719348 0.1298293983642651
0.2870119269256719 0.2579987881342447 0.1641308841594764
0.0871548510839375 0.3348387051924817 0.025744284519376492
0.5260068012801753 -0.0007610906540946871 0.044676093609723466
0.28663698902225576 0.24200446499504835 0.14968328956291543
0.3227691532118371 0.25322728838872877 0.13449956197408142
0.2905599040282425 0.2758494288915756 0.21676004708535856
0.15985702339912677 0.2009735498465659 0.2120369871499861
0.3196215907524049 0.2190386746502213 0.039033369515891536
0.24596687879750334 0.25980237843410237 0.12333202197169157
0.36534700724723734 0.20048291614318714 0.11851187305198607
0.2830012252884728 0.27732237295494144 0.14104277339802707
0.3757610388805688 0.20961717939772484 0.18391827688840579
0.27569413561909073 0.1689598038221618 0.14134298259712352
0.41138100246703857 0.26613636873929636 -0.034655748786263985
0.27631384195498754 0.269414747221532 0.18362492488317628
0.31193835279245263 0.2217190640807587 0.24728841708559912
0.2757452009216763 0.2571044204657653 0.07541878227141297
0.3325503055861958 0.28000336912219836 0.21533056683094287
0.34191484781531756 0.3255647899964913 0.027192737831825298
0.171160690691039 0.31457426013247414 0.21705921319282595
0.28299519075800106 0.250689469119294 0.19392667531117525
0.20367646693506458 0.3046489016101077 0.2112476656102018
0.28087029329705615 0.2115626234356398 0.12229789750071518
0.18212336955451747 0.30392408222606093 0.1909346210429277
0.10591514264754665 0.14034733304058022 0.21175488443402912
0.3959563187068227 0.2334922788688516 0.2476300963684821
0.2738998079895083 0.1713800819066762 0.18265569312335117
0.33129441102326496 0.23832878501848143 0.09847577325010093
0.2937553356131559 0.25276276743983317 0.1297677228490386
0.3104394377864992 0.26138040638170423 0.14012464520281753
0.08299841757411741 0.23063457570495416 0.17214273727712737
0.27849352172384556 0.27559131900578393 0.07544913603921088
0.4824504884562373 0.020344047399234455 -0.20855961145448987
0.267655936815828 0.27198306156989815 0.2408338783627073
0.31359407849366505 0.25438090450612094 0.1421043093659904
0.28980335259382173 0.24937933390114608 0.08121857008833899
0.32163103824437655 0.2447012389683323 0.16338387249162167
0.3152316073804968 0.3064016662865896 0.1745678768542973
0.24154573130324763 0.2194318677738636 0.26061460471612463
0.3047445857074962 0.2697318186004338 0.1309929508259131
0.2883420524853051 0.26538102809826114 0.2307363876861359
0.30511355152106034 0.22233127281211296 0.09150335906461748
0.27075459794878043 0.23612340555945366 0.2046122989167145
0.44555198015859787 0.22895776151122504 0.1766192855206441
0.3292247094078107 0.24400431869605654 0.09505950914346784
0.299428451491508 0.2617062094840037 0.14733301955678257
0.3947390183781181 0.222345002695846 0.14014716732430088
0.3585521929722688 0.2725995932072891 0.07188808073775022
0.3565566004943008 0.2691666950237277 -0.07892616981763467
0.32147666260448204 0.26358131268182206 0.11856118139661476
0.4064098746114837 0.12922759274627538 0.0758294831180848
0.2646488280063579 0.32432712868767055 0.1402976466579844
0.26627586868016806 0.26643958604464046 0.06441541372149118
0.33402586651823185 0.2501207817812201 0.17044111204310752
0.2836149761349418 0.1583986408584792 -0.028522406827789837
0.22319947900214743 0.25019179811670256 0.327631370876432
0.24853334267777427 0.4621071858283301 0.3913027029902594
0.34754751251514904 0.3052094782476331 0.08383892128397008
0.27797398754738367 0.27019425986824785 0.11122447393304924
0.33178355163661877 0.24690039043373702 0.199693117614828
0.30491028451426416 0.2061859264622541 0.17917841275674107
0.3050510355016627 0.304932683670188 0.1934528054500788
0.20898428292005633 0.3308289846854251 0.23838402288791372
0.3430477127462126 0.18917116742854034 0.15666444026359727
0.3171405159634446 0.23446631980971233 0.1837787828602444
0.30570575529583266 0.26227555943594894 0.15219371484458577
0.3029904714155407 0.11281236074566436 0.21038256110681175
0.3001271768214764 0.20952423971550616 0.22661178619604527
0.25249497946578003 0.26007949759227245 0.11072485913463481
0.4558230483164891 0.40092563585902496 0.4497280363614067
0.3664768290233553 0.22183089819364454 0.11214806332780825
0.3712017925664952 0.35621198378932206 -0.005421791193256809
0.1982587633141577 0.40019799595680183 0.10637318075464464
0.2897550196132954 0.2525848130161137 0.1836807634119566
0.33605834484298214 0.27576967952752796 0.275550346595395
0.3019002951963614 0.25768731467836403 0.14938327253332773
0.43562648898716816 0.1359404541757243 0.15657958744716893
0.1098887948964773 0.15605894498260398 0.24683054309653585
0.29361490651871236 0.23359389355081817 0.18690989732093044
0.4492106893983987 0.23746434684923656 0.00497114272525323
0.28924258133908154 0.2739068218451166 0.18914276950943076
0.3519668701823093 0.22787860572771024 0.17209068302527442
0.29840684327132294 0.27178094322796653 0.14543287473017585
0.3370004126558257 0.21769028967582926 0.16226551329718575
0.2904216026119002 0.306596454356594 0.09631873247985823
0.29071701220313173 0.28555706461960995 0.13779021044979345
0.30174106026902336 0.29991661054845054 0.07857348360785466
0.20897019894694324 0.2214072947579382 0.247154635142266
0.21231119550529343 0.2995552271581232 0.24828777598440865
0.3136729395595239 0.2692350082281223 0.17721280900809688
0.23651902857237417 0.3158656244079907 0.29518892183899936
0.38640838139997413 0.03218194395822138 0.13709433542354077
0.8052172580354977 -0.06554169768469364 0.0604103372553908
0.38543353381143675 0.15385082552580798 0.05275163894521029
0.29015976140595967 0.25551369544157865 0.16734094585282833
0.304386419428738 0.21013383022477683 0.15686783035999952
0.2964236611564388 0.2531413168104848 0.11534243065987937
0.2848547617974617 0.2770917198788254 0.10006680567548187
0.33001176199306315 0.2615087302284991 0.16921753657661043
0.3105300181569248 0.29000401739307335 0.20458686315892294
0.25669564966386815 0.2991813513695689 0.19023280804557885
0.20501807946590134 0.27959770332135747 0.2141209946839524
0.1791753481876981 0.27565431934176843 0.27335736262216415
0.2918197454532958 0.25715342285276677 0.14078925642922968
0.2271367261824082 0.2561071071474714 0.20245119356039254
0.27526060216916903 0.26456876611756286 0.12130489533205946
0.8961413818098549 0.17700123475060536 -0.1800139788790318
0.18013571193789346 0.32051276839729326 0.22823592237094203
0.27337063444807086 0.33677644077356206 0.20276314887971125
0.32088508664432425 0.24810315395330917 0.11894835481197674
0.2930606636932396 0.2183543741894738 0.12222436285534855
0.30737358865290787 0.2549417800320839 0.11132520972216753
0.38810231256198335 0.17427757468411187 0.002582995739956573
0.31732442944598915 0.2164495331965952 0.10231874607322311
0.26600165787422725 0.23287798011952532 0.05651303669631602
0.26579053952919196 0.23552565157139327 0.12006627451327745
0.325130245103054 0.23322024224086135 0.09900832835086248
0.29434939868050947 0.25740768816021387 0.1472094796982475
0.30086385596757736 0.2650909847467915 0.10615681384504683
0.2693274806942725 0.2799740529376322 0.19692070307256415
0.36506573234629514 0.2078712113314083 0.10575098926406667
0.22044132499294733 0.34104437225425954 0.22016465726881052
0.3549464464491905 0.21572666112378158 0.14264884940294564
0.336050124784407 0.26185213540640007 0.18819092850559116
0.30370464983883494 0.20283445793509713 0.15165830394072088
0.38264707995197966 0.1901992298335955 0.13613522038789938
0.315014640655761 0.225689558599953 0.25637460240939447
0.3843578951363895 0.2668847098680942 0.08658022435625412
0.3063494019924775 0.24576180519673585 0.21756615490345155
0.2797825887870715 0.25747066405537566 0.1268110524219992
0.3729069278374624 0.24525823678976622 0.1418332708129526
0.22714361277698458 0.3118414398046525 0.17269951995075417
0.31151527339228835 0.3023360606292158 0.1538025793926181
0.30902896764858667 0.26480803094185035 0.17108234903005837
0.23714462596521457 0.3219966424764067 0.20032555843532407
0.10806613979431745 0.3581099469129754 0.12417708577459052
0.21196645146886794 0.3913402846106919 -0.036632777535416494
0.3014584660522246 0.14449869228008083 0.12041167777417172
0.28630312569376315 0.24683211512444814 0.13715040504641252
0.23607961019536106 0.240809264471892 0.08723915555478357
0.279260507179373 0.26267727001312835 0.1030248355030352
0.2972474994195693 0.2714950789056161 0.17979593448905007
0.30043450581550246 0.3400515017209784 0.23180091327060381
0.2282291704259478 0.29680223322397126 0.1809616003114911
0.3599066962558197 0.29768486026449636 -0.04594645481000725
0.2864460174534713 0.22567744349825603 0.12612940558130958
0.5225221734247896 -0.05947563948616619 0.02975249955197512
0.3254665639433938 0.27862648189196193 0.11977276417607641
0.33955828014414635 0.2562394979963898 0.04217247441567906
0.29918360285145695 0.26882012463775595 0.13493071001758494
0.3097993048716603 0.24852825226483333 0.06747756337972532
0.30459424203976937 0.2678981098057278 0.09268452400024785
0.351799694304205 0.20627149471613393 0.1108383744631567
0.15346002478153764 0.3116174774888094 0.13314063671371912
0.2684048614863599 0.5221713806744219 0.37639967764003757
0.3386786021661692 0.24397471774733503 0.13311044040669628
0.2711655591661781 0.24541995518956128 0.29824671926886026
0.29767819514296434 0.26544093501186694 0.17917946221676573
0.4736753791685544 0.17099415148689445 0.10410540616271646
0.2383954144695224 0.2919128026026101 0.1260828861175014
0.28558151995437697 0.26086171009148984 0.18400503470209628
0.16700935719612175 0.2734935566033414 0.15227511013556239
0.26181442158650725 0.2758617136121302 0.2020255830872486
0.28003005282062077 0.2865030137176916 0.144416197585727
0.2675063160884008 0.30649815841272243 0.20984345919251268
1.3249181182361411 1.384747736906263 -0.5961945873860657
0.3591433516040041 0.310317243329564 0.1401157325567226
0.28180913008438324 0.24096835218921342 0.12201466544524919
0.06804938740761202 0.39100637095589263 0.3716315123188565
0.27228022650730566 0.2702072201483645 0.26166759594239863
0.3049430728548259 0.2717423417441438 0.21322496993259676
0.5453397891381826 0.3266671829113932 0.6867927604382089
0.283974756269771 0.23147919954791973 0.12108756116253971
0.3084401730241666 0.250685309276264 0.140964932012821
0.28357695219889933 0.30134058120711416 0.21090206589796878
0.31947757957384226 0.30347658759735907 0.27359507911729963
0.3684272796554353 0.23157345258212558 0.17122883926784027
0.31701150963702673 0.11542408434715412 0.16417879925694479
0.3369979185663112 0.2446480168648293 0.1229399317537343
0.2166350648658124 0.27787442626505765 0.23844379915566094
0.3522287838651863 0.16590066697571615 0.15288877406491963
0.31743020777037145 0.23713793719193177 0.06835961713682082
0.24836298095364384 0.26154469830328253 0.2450427231896981
0.30457477425008506 0.24157878181297576 0.1470163960219395
0.27250536143715465 0.2854178595513588 0.15201269758026115
0.3921547475935654 0.21540601560619166 -0.0038220617198447826
0.2036732414001392 0.29495644133703536 0.2518684455291833
0.2980209046617688 0.2697294657091618 0.16948045102870424
0.29529582230139795 0.27028577510014884 0.11541707521331546
0.3139781876063239 0.2496680005731946 0.19641927289947603
0.3533061639943895 0.21102756019593016 0.12697056844467625
0.2801146690357541 0.28593056511471104 0.2125908200350466
0.35295129893992794 0.3112589770273928 0.12606980857074745
0.24385904835369843 0.23207787820314252 0.12634081069302283
0.27280314558254304 0.2175372340148698 0.13611507220610974
0.31646629262336035 0.22282286878542834 0.0836505310417266
0.3904024802037611 0.06016780009855438 -0.07129215334592232
0.3090255415188352 0.22232348291470316 0.11504445211913605
0.2916521925176596 0.24783399798846517 0.1293677442543384
0.28687613448701654 0.2488305721286963 0.18579942914529113
-0.014332292863542762 0.19859103049444116 0.6625274273274044
0.4514529249392467 0.1889757724426886 0.36979755292460936
0.2918709761141258 0.26497413667351566 0.136722107385026
0.3062394471011203 0.6833273278100762 0.5383446314284726
0.31269935924984793 0.2256891647138417 0.06298198365276164
0.18261231335642947 0.3081190059388348 0.15618121249625005
0.30024501260194825 0.23197517419598057 0.17303575443023078
0.2815747344148747 0.26267943486223544 -0.018075185138712868
0.2797320667713734 0.24442804789968875 0.1786344409580778
0.2794007427559393 0.2960536609916602 0.1696113313643508
0.20677505973722532 0.32645021433519616 0.30985823822868497
-0.2941757733460406 0.2684541182526914 0.13528819522443314
0.29429691400535773 0.27633737592591956 0.14096559530142372
0.2574987379941547 0.31292618527677973 0.018381075881336528
0.2707237412037955 0.19359066594675767 0.16496398809671575
0.19955082877092423 0.15975973017165757 0.25739578083221204
0.3203356027247537 0.3715372109183619 0.0694645364314681
0.9190115843647959 -0.028778135086014345 0.037825100151849256
0.13378417294464384 0.2956985985854601 -0.02719078733355218
0.2924015085396263 0.23870732952551066 0.1569009063832425
0.33296939769829237 0.18739214930586456 0.09842637570822887
0.19853588086601803 0.1473384413778689 0.2475907202464782
0.2658974135293306 0.264409983828898 0.1948489839337526
0.3325691780483311 0.22716202646142847 0.12647279424936642
0.33716652775885336 0.17507434379410824 0.09346589924507498
0.26154909006159244 0.1863020603377663 0.08397012431355222
0.2593250524313646 0.2153888501137402 0.21237064390518867
0.2182908779404329 0.31480952927685735 0.14362814046495487
0.24946833828133208 0.3088764862861666 0.28700325326121856
0.5531683070543636 -0.10594463799756682 -0.12933269657671076
0.342408732548364 0.3137873614248434 0.250351632447817
0.3170892739789508 0.23628530711246754 0.1404359444312746
0.2504027141426661 0.2457239846134769 0.07618170869675112
0.30616290144787683 0.23761562736322617 0.17097894495640276
0.33642269443238604 0.26083482086275467 0.11341388496046534
0.31291925255072783 0.2542289589722202 0.15736761033338098
0.37979564543582 0.39616967645415 -0.014096949602077302
0.3396594713080674 0.12955978715552874 0.3137797725797924
0.2687549423241933 0.293649032545801 0.14763174470945728
0.43190205809288784 0.44915126864721344 0.11001897452956655
0.28887320179417486 0.22901689492351807 0.14254838171930828
0.3214714905674896 0.21226585004319531 0.16660901548603135
0.30795795676849025 0.2560633659113165 0.1484822061337212
0.3885970676823547 0.15450172568237974 0.03275953265617204
0.17136933998727955 0.292159899861133 0.01012797090000106
0.29947262489031345 0.25024197736618703 0.1407480907451628
0.3017842390917167 0.23117647365393168 0.10054045580882587
0.34272595291415087 0.18712750904887798 0.11155610867362498
0.39548869361559014 0.17478963697818983 -0.004998923333403127
0.30180481099051804 0.21802725415091118 0.14771428601977732
0.26703235343157417 0.26652270568928316 0.12227622180358821
0.26147709221818616 0.2744392381940344 0.1772318427747024
0.3058779544979018 0.20814022534531773 0.12820839400686168
0.3412878726562667 0.3002101868310376 0.08491032940887067
0.21663386024167153 0.24439839195918012 0.27340196336710676
0.46027912562146867 0.11526651520746611 0.19874166158069784
0.3506996041297157 0.24531817391461175 0.11564446295633957
0.2779741619217475 0.16176758108187528 0.13658735134322342
0.29474846665127075 0.30347553151082707 0.30423064214409123
0.7009356862147911 -0.11564005392875742 0.3149710244528592
0.3765458647586968 0.2100939625301237 0.10784148184677633
0.3937857408513281 0.2766777487935599 0.2413048649094094
0.38725819488833224 0.19512719722833083 0.17765853777416396
0.22419117677546296 0.25178698435907165 0.18029098384202769
0.2067029021750102 0.3489642063563423 0.19148311280093822
0.2667050499198069 0.23409583860404837 0.21201438983391085
0.3021806245933192 0.2679011857412803 0.11098558819222148
0.2269453666894634 0.3000150143705298 0.1822060238094707
0.3119643834285455 0.22219504449222427 0.11242491192402326
0.37284658355564204 0.2451901301324284 0.11529429296425064
0.4167506832456809 0.27484172693991127 0.4253125791141201
0.13368654913108458 0.3629141249053305 -0.6120856087652982
0.37464465202397434 0.20868857544034825 -0.3372332549378001
0.36509432193373925 0.3216962891145698 0.10125124983366618
0.1329113572995908 0.33403039960487035 0.09709120169344487
0.2758691120946821 0.2908068835727988 0.25445847881300665
0.24766524149080738 0.24076083869076115 0.06925453168386753
0.5416105491616605 0.2217003084572582 0.7031760795797339
0.3117317495813836 0.18886067687796526 0.0025560950414558192
0.30577401455370534 0.21725295330384142 0.12043837486339726
0.2616296652925314 0.24992598137782807 0.08379525888304329
0.18295696228233282 0.31486697431409993 0.06849591889819351
0.3085572858348655 0.257447231041823 0.09958802586936599
0.3062608515567433 0.34584829526420435 0.28735272705236525
0.39024567519878417 0.271768722488531 0.27390805121548567
0.2628709126484523 0.33960968214782383 0.20722430716452322
0.45765121374981277 0.3473327434110871 0.6658942982682277
0.27959230847906724 0.2831509232655236 0.1877140488691964
0.4339152078855335 0.027677586004159593 0.08147413853129137
0.20129221997333957 0.24183701141821246 0.23468535071353358
0.15186245893704609 0.07326079671356922 0.25619404416642055
0.40991833002948397 0.17502121134700133 0.06226491313077531
0.2558855307495378 0.26197632080396716 0.1910783860694778
0.26902582661841734 0.28199735248777813 0.17281494436213052
0.2967089507188234 0.25309442214633293 0.15593782996295147
0.3670761981408788 0.1951547150943611 0.13014975347289237
0.22139343448992577 0.25481359979683305 0.09338115674030689
0.2833046398111492 0.25271331053227186 0.16248597007461285
0.2801440112216369 0.2474523045302135 0.14010045930390902
1.0922071476005328 -0.9226644340550649 -0.5281068146831274
0.18949534233988174 0.40808440938184276 0.22181075271922168
0.29005785986961996 0.2978526808495303 0.22157926132337025
0.8411197544228344 -0.14243029098645366 0.07536631922995696
0.30017646667155873 0.323044197238346 0.19747451719359788
0.31251239453092694 0.22854214828529962 0.09543753064713201
0.28828721635721877 0.27911291311758646 0.1436779758783473
0.3053719062265259 0.22031663949580604 0.1460799877882124
0.3734544990544464 0.21532152783109382 0.030287172263371076
0.3323084544568644 0.25272117909833014 0.13916711285531846
0.29890888936006377 0.25530134318204034 0.10941916039671185
0.3241964517421252 0.23254065513060596 0.1293585777403905
0.2696745976322461 0.3041285630208108 0.19196922154267781
0.2785123796118967 0.2830202751309514 0.21661180009309078
0.35009168145251124 0.15577691678498695 -0.0008966150283526986
0.21859497114714088 0.27216070517880553 0.17105984517351658
0.378689601238662 0.18857382833274983 -0.015066462264258007
0.30819085283199854 0.1586666281017841 0.07404843715133325
0.26299637001601184 0.28517210744786325 0.14496478657747502
0.33207031009359866 0.12791393372496884 0.009293820646135487
0.3118172819481515 0.2606147006211472 0.10258093641348864
0.32522310802926313 0.2368468556833676 0.055929003770586405
0.2999707063456185 0.21183824630745107 0.14266844356725983
0.34370695023646647 0.2575690086753184 0.10772568621490564
0.35947804479120293 0.2606036494102142 0.16803083962808785
0.3445148406357532 0.25699540080054817 0.1124588206931918
0.11529095226774189 0.3221639531158331 0.1928844717368463
0.33413662184914017 0.24714868927758005 0.2220819928452613
0.29040031416478485 0.2342090267211887 0.17921387919278686
0.31860748776725245 0.28779220438478603 0.15475405939204734
0.14645606003728062 0.30629775636651857 0.15580184191824742
0.20386202910950146 0.3463246131377531 0.1564355730811826
0.26336228761755365 0.2867272940557939 0.08311512299184187
0.29050738327318015 0.31672612724764804 0.14006181128209505
0.27043632257860395 0.21274684232538732 0.08208611800023391
0.4749603676574168 0.39929193947499186 0.23976321823438695
0.28900332260013784 0.29679485772190617 0.20465636436011891
0.31611583134250054 0.20978045878618445 0.03648751333911093
0.3741782404107994 0.23824633434212217 0.2869158403939025
0.3448001884040366 0.25629535486694976 0.2033693024800698
0.19774126387038393 0.2745711604721066 0.17537044606052632
0.24842692545006173 0.3005087071440329 0.328126915695762
0.2906489276337112 0.25755521020639094 0.16222011933626845
0.23478448702286414 0.2735686208895345 0.15242288241017832
0.29715053779386835 0.34291830377563315 0.16017460391068994
0.3213625413313963 0.2803552116689332 0.1252123434136081
0.31238567118145966 0.24234119916873453 0.12338959106170933
0.3150981391437284 0.1963685887533302 0.06569499847455518
0.29202150985295816 0.2748123066042609 0.21413967164403402
0.1863074000910956 0.287805958528935 0.19385191058431417
-0.5304515126135385 -0.06557769702263272 1.9619957077026413
0.24390384778976681 0.24119892337647286 0.20528655170892307
0.5431745536499761 -0.018981552255183942 0.34934979630341445
0.226308198846624 0.2900144835110723 0.2911836447318592
0.2952678039228118 0.2661969322903275 0.14759779482849922
0.33015200317325366 0.28441716007623086 0.1683597824170988
0.27807900703786004 0.31611068823434607 0.21152714848247456
0.25760508383885394 0.21257674138360017 0.11947308267590984
0.4934065987291234 0.41833946864427674 0.6225596605350461
0.3223008648828909 0.23391352018921907 0.1541591366432442
0.44652712989325494 0.27942396661316593 -0.10646056874770693
0.2993187230160288 0.2681591385842239 0.16432839242702357
0.30557702238411366 0.27662347201180637 0.19754672809142448
0.2702829052582558 0.29609041777240463 0.19797536622061784
0.27788866107985655 0.2749694286879105 0.12282556303928516
0.4128303276326477 0.12510509227655575 0.11973967303754307
0.31937576211468865 0.2367795851947676 0.3059610702676139
0.2630848467742908 0.2824866618076669 0.24184684361839004
0.3115612085777997 0.21616423125666984 0.06834671585301066
0.4105036688067685 0.23980638526832365 0.2794336758433076
0.39859246108179036 0.1893449665027731 0.02976731908044883
0.25515692867583084 0.27963053726251985 0.21349843946578062
0.3668530938603993 0.2324302410698067 0.03985919488528111
0.2785268189737451 0.2577499474523961 0.17432927662980546
0.5130917547177489 0.26504381678330446 -0.044829889483651186
0.24269059678179872 0.19470050652680015 0.18326275299304484
0.04170835832255193 0.3127896133815966 0.4258987093296014
0.32347312649558546 0.3202735664036709 0.16957333945399
0.3251952158096856 0.2501539898400722 0.1323814020970957
0.26613891541873613 0.24722994181698255 0.12362197299196964
0.19533856018801998 0.3877166103765717 0.2658866115104246
0.2884457120173636 0.28042974563359735 0.15398433733321326
0.28463141400692393 0.2884553213902734 0.11798007999016136
0.3505140865972294 0.19145312413229476 0.15507697056588654
0.23392712068573474 0.3279128391054087 0.3108102908482948
0.306204066277175 0.2591788682305207 0.19054420102233394
0.322921776527636 0.25750508586159526 0.1156265046004421
1.9385589457893957 -0.3726524780748548 0.30271894462408966
0.4276803613452529 0.2376395360332424 0.10550129368269268
0.39302567547991885 0.19777515294336467 0.05005948679055905
0.21351553626976738 0.28533494050685704 0.22196573655641316
0.342594585339441 0.2348915355106982 0.13592289699917615
0.39727009187544127 0.13445755527936853 0.10980888493692476
0.3265520467705585 0.27512813783320667 0.16845210003313582
0.37065033951434145 0.23555614337644215 0.14019662473509698
0.313794099679896 0.20929086781939077 0.1933418553655457
0.38342280744743107 0.2847177380552921 0.15749155740971332
0.5583072905849775 0.256643107360901 0.6656294400931415
0.30991466999896033 0.22089463498930684 0.12722943113705298
0.2925041966064583 0.2523653849752492 0.16402904612704106
0.3158747825441566 0.2742499494913204 0.13550220780118138
0.16319131936445785 0.4053445853106439 0.0497281227693378
0.4876524542539187 0.19870555791268885 0.049572389791222804
0.3109826564746072 0.2475283550380709 0.09951086472001691
0.30022109334760216 0.2183736913775931 0.1600336047496853
0.2924130575970594 0.2940656197973368 0.09282603016180246
0.3641409984289936 0.23803653656423762 0.18269137921996048
0.3491007463266129 0.25027193870903375 0.17456794080774785
0.4402507397517468 0.07902778819388345 0.023603251697664973
0.2665278330728995 0.31295097394095706 0.24499813487324218
0.3081399542768395 0.25363872394976283 0.15441382683749794
0.30590519046882036 0.300096763436116 0.19613161937294876
0.3454978410471057 0.14615609208206592 0.08896597022436481
0.3253947128733614 0.2532449323841348 0.22240239047249588
0.3248134682606576 0.21456714873255578 0.21060851784258716
0.22303327232992842 0.32896245377263256 0.2105555264555221
0.2321165101055982 0.331194954137743 0.19576042606436772
0.2652224568491306 0.25878465798925276 0.1640694129277449
0.36553201220976916 0.3215315412434734 0.2821887571693651
0.2759037307133809 0.27694986128528853 0.1623500645831939
0.3373766322003888 0.23432645379789108 0.04337948877781628
0.2866744136060788 0.30349295179576075 0.170968352028396
0.37858015077999596 0.20309101516454575 0.21550590166575034
0.24071657599031937 0.30748283187054426 0.17101666780484948
0.34066627236902036 0.23697350953275986 0.10413508922982828
0.30823513206946984 0.17497949551326997 0.11002201512050647
0.3323061284901314 0.2606843326582293 0.1743586891321911
0.3324162223641167 0.2837859351576242 0.20331256067058234
0.2938058483975112 0.2757702272243989 0.14921690478635696
0.24236246579664567 0.26178057946913214 0.1138458473433559
0.28457355782742866 0.2298969311279393 0.10915506387647156
0.20243102856736073 0.31646819755090405 0.30665454326606323
0.3048780809627374 0.25888455161475576 0.14935073152949485
0.30896855873602647 0.27056361132468965 0.15023683251943964
0.3296437965900765 0.2604465587121467 0.31509294269838506
1.6497739379463496 0.2764447019762173 1.0305337599349542
0.26216363217776006 0.27715393039565583 0.15549275519936145
0.24921813376184332 -0.04839167529263477 0.17526375834985686
0.1732122052570162 0.30863416322878834 0.12582627585257455
0.33468585713002597 0.20694465990465005 0.19592329279768705
0.18638572404911713 0.33916918232023363 0.3707711043422819
0.3085399335897563 0.2676638023955604 0.15639087997371348
0.2972453500077563 0.2547137598470215 0.14767221233030625
0.2607611742019458 0.2871441941223054 0.19980964459203676
0.35523153112936257 0.22240112495134667 0.08975384000218867
0.26758266227267313 0.2929557189408172 0.11362813705808605
0.31189536372549753 0.34565442802528423 0.26916943735723464
0.31167308151205475 0.25474181804599993 0.1579779103471708
0.2891720197468999 0.26804716644930693 0.12159764001498274
0.3333506896359637 0.34894484270137127 0.14748856925746168
0.519668732110631 0.12391000902640315 0.0735607528602884
0.31694589951405305 0.26292128700032436 0.16962246344638743
0.30465361222167076 0.2370899660786563 0.10414175389317393
0.3756203272753851 0.0987482474064052 0.11063741822553652
0.2819590202015263 0.27987723587907 0.14134340746940666
0.4208115639849268 0.18535446039609837 0.036432731740745794
0.31038745123642286 0.23964878907105458 0.14372550259028571
0.2887987807336998 0.25288002709598345 0.27852811208897776
0.3147274930153401 0.35928892589305406 -0.16202174314045692
0.2113044875509047 0.26072946320510937 0.20637038865933732
0.3017643862063295 0.26148050456286853 0.11563552861403537
0.2965840618715845 0.25595338078043994 0.14571295166608422
0.23905990787670817 0.2483988386497913 0.03784600530281068
0.1674598863814083 0.2686772978065193 0.1635627527358281
-1.0997969610873781 -0.139573720025723 0.6706569567609222
0.28291830963317466 0.23805808334500966 0.14151103661686193
0.4130136537109905 0.4547258518321087 -0.10526440374513868
0.27613434601488507 0.2733204339409241 0.1639709006179686
0.4149570326851233 0.23116354903115166 0.04116099320432909
0.42284122910842825 -0.2489163620057866 -0.3572847521798508
0.41342868272430167 0.2258219226806233 0.048539164507275245
0.12715365138545565 0.26204761472749283 0.3055745655903763
0.2808372317339263 0.21844638514244252 0.13559253053495013
0.33195364887291134 0.25189705930282 0.11980336854810503
0.7094835126338523 -0.028834422148918293 -0.03969274916983068
0.4055879140790921 0.22108219988948008 -0.012118585596255116
0.18503570508373457 0.19162490059176207 0.2636916200616355
0.26581897276352606 0.26841036182560174 0.18808158970773547
0.24076600791710234 0.26966847050297815 0.15075429546521946
0.3469103983310191 0.23921387076310907 0.1670887092295743
0.29113453598361616 0.2857627006208645 0.2162632537776119
0.36976399602339427 0.21251676073239878 0.07004366382261651
0.23920068191561938 0.3273550157842493 0.1681890340809531
0.22416041844030588 1.1901073360752434 0.617273322182669
0.4387557568295932 0.34706603642203504 0.11201267299696838
0.17210332726786248 0.38019810554027345 0.4592965976262633
0.28636212519776905 0.25376431993035453 0.11626044280730241
0.41702861181869366 0.19831643433502677 0.15504257980184377
0.3723524433127352 0.22699228300503194 0.12717701953300775
0.31939263404457563 0.2967816273427957 0.09882348968292831
0.3184080413579693 0.22225988788983386 0.11195627123086638
0.26453323578806476 0.2591369555077563 0.1265149794901106
0.2696495846503524 0.3152074176793178 0.24108681066861948
0.272209965093424 0.2822029203300218 0.10708739438413772
0.29890985549975824 0.33419578113509374 0.06987420644806264
0.2720879584727527 0.27655641294381894 0.20913037584358563
0.02905394021716745 0.41397918214893537 0.3220663453401471
0.26835734979010795 0.2711178797208902 0.15687160575433268
0.3377903694727422 0.22790959411175038 -0.02037283278887969
0.3542681498918512 0.23324054944040995 0.21624542790650025
0.25718985760062196 0.21746077129724029 0.18579173303334073
0.1647475946550685 0.3569612028371836 0.3025175134685867
0.3444678977845683 0.21221492311150314 0.19039935647914774
0.26593554151298804 0.318486845654661 0.17598336736715225
0.27910124863259966 0.18386637218426927 0.2042290074232369
0.2870541552764223 0.18629120237255847 -0.022270161430526514
0.2757497256743022 0.2247030181287073 0.1568108968225772
0.2840418805699585 0.155320862249539 0.05667849925433188
0.2714709853796222 0.28024657523403107 0.18770570048371837
0.2773676812961696 0.28049431570107686 0.20045149498579917
0.29427730576126976 0.30605730033548184 0.15165939812192164
0.26735896272251125 0.1786710384646426 0.16230540631117663
0.305489047727022 0.2311880151176524 0.15284018654489273
0.23272312444903775 0.3465769575590656 0.19449288392362973
0.2767747308107289 0.2821725343314654 0.09060566053740615
0.33322254829768383 0.22689385204307655 0.13588638143703236
0.3273862577112254 0.25284275326592365 0.1911958559041551
0.3950262038117671 0.1184043213002326 0.05643773958385623
0.28812088387404344 0.24145818396274876 0.21060892502555362
0.21508191644429075 0.28774889610174625 0.17797337808192992
-0.5474403480847911 0.11080059781963314 -0.4859146571172346
0.34322094884976195 0.23641661176978346 0.11294626840835065
0.27437394022760486 0.28993242564260413 0.19827288334590776
0.3382658501734852 0.22381610885119585 0.13127004466437597
0.2857493801303974 0.2749049024855452 0.29845609856208455
0.29292479809438987 0.24989231966580405 0.14672773866487887
0.3910369708292478 0.2123257309197868 0.09594815156359005
0.3478002846579358 0.22175001727035237 0.12792029715777176
0.2607993209852566 0.3030375424061731 0.2520746096696769
0.3041734716807696 0.2402747362856985 0.15001242454876262
0.32621030965174214 0.2085061914656734 0.1742871167092659
0.296523541444941 0.26398762766618233 0.12634110960317457
0.31931076691931537 0.23474694782356664 0.14361796754946
0.25634030749927206 0.2698892172327163 0.23390691109099748
0.23378852433074826 0.31509362688632336 0.1682107353497031
0.27381831548990476 0.28713943829242794 0.19294847211691035
0.39239716411225345 0.22786263666691298 0.18998411349363664
0.37023047531081943 0.24796807893957862 0.10277006899647745
0.4370912221458241 0.1085732169098037 -0.0846289456667364
0.3399242875334352 0.23285283701747517 0.15043547250901668
0.299371208003933 0.2545351376228382 0.11858777106647267
0.28685533921358797 0.25351997476582255 0.1743667866332146
0.6229447450298835 -0.18408372751447644 0.017090083582061766
0.3906496501790713 0.17227787669961003 0.15065595031131807
0.2870578433821862 0.2586916280849323 0.12201698789635884
0.13866612176227022 0.3420063685747863 0.18567914908447847
0.28236072819794344 0.2687122659295085 0.27208266229679623
0.3255014056939274 0.31067312366745625 0.08819748444290099
0.30585663847540445 0.24712423198465672 0.10747454662009659
0.36748707156819194 0.23911767777346427 0.13687036223984705
0.34569685538234296 0.36669866701353726 0.11882010697827639
0.6781596679781785 0.33259495529570415 -0.03819533399345687
0.24451183226703677 0.2864440146945668 0.23327871810739964
0.2910486833975199 0.29551731865626607 0.22121496717099376
0.3276030621452861 0.28395873687418316 0.16325673648535144
0.29031641800872876 0.27494560786061584 0.1781256860003566
0.13638934558609606 0.2893311983291653 0.23414024474298856
0.27582076211754725 0.2559231983721588 0.17446471201765235
0.22040548199150578 0.2621716649302783 0.21380473732891403
0.3559176654400744 0.1913761517016752 0.16003306417481156
0.2582070130582679 0.30478157286032115 0.17877034588198626
0.3363166660038672 0.28216166955627386 0.1462339088331106
0.30940004996220694 0.2804557199315383 0.1874756577180392
0.26291362197267176 0.14916120659052012 0.07875513466983364
0.33835408242143217 0.20293866567151042 0.16672925902108204
0.3210819649606833 0.221113043793423 0.16128692832201352
0.2730348804720677 0.23158867622194634 0.15437697968744146
0.3841580588799616 0.2746446879251607 0.2895571279972273
0.11849650750937712 0.4468129638530911 0.2595241115887177
0.25161483789815975 0.25036091621802825 0.19024247318013465
0.3168010955067473 0.24072769293914575 0.02040168335645376
0.332938365133316 0.2633521682716946 0.06669979074939647
0.31944213242485375 0.2204403408936173 0.12060607464576378
0.32464910430020666 0.2304330013779463 0.19942669789995193
0.2870721703991137 0.25558698387919776 0.1757548444747954
0.3056356134877092 0.2626014359569808 0.15962797233945025
0.2845613201685353 0.32911251269395336 0.2136460261570221
0.27030608795305966 0.27281586227742594 0.1663757706816682
0.28362237392218503 0.3025524973966327 0.14297067498250726
0.22987933211473432 0.2744255334186789 0.19730786006959988
0.24943244694978262 0.28494777038800123 0.18928524125962554
0.32601773837782844 0.31002831766552674 0.2041604753111841
0.19375820617500494 0.35631005143847005 0.2507655720240223
0.2826742304533809 0.27359359265904004 0.14490523172281655
0.3072369013174949 0.23159515510923256 0.11005187033782704
0.2496184501695211 0.26471189347617496 0.08209064720533377
0.2813439009787828 0.2326676121030289 0.07125804340697073
0.3303356920940814 0.30873463078367536 0.0723100191698336
0.7012753484278562 -0.5751056699435395 -1.101977135386619
0.9904013213168383 -0.40028839325384524 -0.3830830069788078
0.2668352583834377 0.24251514518937256 0.1822613086178535
0.26381576798002015 0.2782674580885782 0.30315966821612506
0.3137065381999662 0.21023709348288833 0.11848748843182477
0.3597913461162534 0.21703248856465507 -0.034341509287074246
0.2520885074930277 0.29137173168237496 0.13727598578311984
0.41508232965080083 0.09663002741120863 0.15982786625309586
0.20858096257620673 0.26052314544466526 0.2542082579277576
0.28840192732533865 0.24170415259789024 0.18200036543640863
0.3118381073281995 0.2348482302753041 0.14368907629696537
0.28169780986354453 0.3165469756315673 0.19223811657622036
0.3054054469797052 0.2796565808660887 0.1518400564084459
0.32558464444852575 0.2751589771574743 0.1247719640374072
0.3266910853729428 0.29286374427915973 0.08044983624799329
0.42929212122152194 0.17710596460263162 0.06043680289329245
0.30896791571115045 0.19154901284233006 0.13891921265926044
0.26358183377038813 0.23365613282194886 0.13769923051785327
0.2899073147465856 0.2723516170788969 0.16681887005023555
0.3650649652492177 0.18400413066129317 0.08813220043572301
0.1653641713523939 0.29256794756653903 0.17096322440140455
0.3006034521990699 0.21592628845453987 0.05210509061909363
0.2812560660409531 0.22205707288604515 0.14928014337564832
0.31386081858147463 0.26474417487432333 0.23939326216699897
0.29452853693915415 0.2697799709637394 0.23230883990100892
0.41559294310397377 0.2638596321618536 0.33434713741016253
0.30545193199995424 0.24496434056892724 0.11957136855883732
0.33684423154858223 0.1436542632126958 0.07067181537976808
0.15273511146133956 0.2477153567919288 0.2263483212399109
0.3044301589727354 0.2891184746321187 0.27175377698320347
0.21093567271442737 0.25334805259579696 0.20571283326036394
0.3238033685880026 0.258021459507205 0.16276792915290628
0.31427303087016867 0.27013099131343665 0.1892858638789363
0.31515875506778457 0.24938722807672775 0.14939399491106542
0.345879541140647 0.30312795139565196 0.046561408455943365
0.24436719928402795 0.29662265028861157 0.224597721948399
0.1660491916876481 0.20980825258217806 0.01548672535139417
0.2572663088249101 0.260138115210637 -0.0729141287812638
0.28401373099990224 0.2397497434740501 0.14961399895020122
0.3030010421039293 0.2630702279247572 0.16345302712477405
0.34170050909990834 0.23065706444900513 0.16031918830830705
0.24965706782197117 0.29778113436049125 0.21641295589378728
0.15300911197130063 0.24445313519950673 0.166665205643028
0.4078895041816111 0.24292052951773258 -0.030469580755536185
0.38056179622698494 0.09869494406882495 0.14339879568782976
0.257658449644353 0.2765408463095014 0.14569371647505136
0.28650922902073717 0.26069272836365087 0.18410734700543685
0.3014333990353748 0.25293458541084135 0.13419619240445968
0.2799618313358394 0.28667566664323374 0.14118394576362903
0.28654627480983663 0.27035121222294833 0.176021874087553
0.27812906648104274 0.27620779338190005 0.2022626015127429
0.3839829459774222 0.23888407825850777 0.11766701992823414
0.27064845545305616 0.3012108112996259 0.23630998756233623
0.3231734673410642 0.24676792482017618 0.12130516631771115
0.3670208125634531 0.25856333255219965 0.15202404716843887
0.34385625866514147 0.22999299548106933 0.1751119317630554
0.25981064319780955 0.27416679081156303 0.19927796672163822
0.2885525694453861 0.2388898445172174 0.10340269950719971
0.20534098881289253 0.3615794334736506 0.3169745369947776
0.24293309429239685 0.24045465151083079 0.20932762041023523
0.1498642702353834 0.3137716485845772 0.27552399420781626
0.30954033233911105 0.22505608731678706 0.13614210189442133
0.3191239145000253 0.29584938658470605 0.19258936358258438
0.26748256937578674 0.25247647495334036 0.16551741829013622
0.28636143604268227 0.2721016162782206 0.12014354490966639
0.3028342966203894 0.24640181852515752 0.14760807813144083
0.27108929430856676 0.2547262626423503 0.16041338138350625
0.5040454853187839 0.1495038629960561 0.09803913824032406
0.30276180476934655 0.26480257584753986 0.12594225270045456
0.3139410673945662 0.25476411896349305 0.2300772265854789
0.31034317368832376 0.27244490241255903 0.125962047801238
0.28591012620123024 0.2703175762060539 0.15173965577130843
0.31373034662581745 0.2322554433420123 0.19209613425999805
0.2869883101602113 0.2996691602972419 0.2020862632539604
0.27311554014411854 0.24950714868992918 0.17003791688495085
0.3023477287958798 0.2376296796671511 0.0960702312253261
0.8748357089139205 -0.11560454646880203 0.031681556388221566
0.2557175258537967 0.27690725108378444 0.15386545093568316
0.23689074907629504 0.23786902418642342 0.2245513615808079
-0.6490826544684296 0.07507479865633115 -0.12585403916764903
0.3306219939516808 0.2586904215988852 0.25139243197450867
