# .PCD v0.7 - Point Cloud Data file format
VERSION .7
FIELDS x y z
SIZE 4 4 4 
TYPE F F F 
COUNT 1 1 1 
WIDTH 813
HEIGHT 1 
VIEWPOINT 0 0 0 1 0 0 0 
POINTS 813
DATA ascii 
0.37703811537878096 0.25981678228694705 0.20248758209393714
0.2833090912837548 0.26723679348535256 0.11816530270056091
0.19514649305885712 0.3183873682745286 0.2514133965880774
0.32568837618251223 0.2697374398485124 0.1470969237074371
0.0670697609002957 -0.0851469906872353 0.4484917790551606
0.29002518799495647 0.15865768109654255 0.2136921023652576
0.27821638319606734 0.2777174037362755 0.05287589333718756
0.33038139414976797 0.22005195464763005 0.1169039965044476
0.3742128417679851 0.21917256121724904 0.18905079894710752
0.5060491873969113 0.0746481694804686 0.22458684477766155
0.3039741024547311 0.25000720073639116 0.15682515683354836
0.309145554798846 0.2517447877379766 0.15436735774690646
0.2910898908951083 0.23716012106413586 0.07359893755918279
0.3391607427582528 0.27041376117711025 0.2825908684853857
0.28518595902036736 0.24758393202014872 0.23541872876820946
0.2696539700152698 0.26724446480940856 0.15105537829444415
0.3210269570795248 0.2550011112099497 0.10499617624222424
0.3327491561064164 0.17909600032771777 0.03710676297096427
0.2996084575063094 0.22819067982302954 0.1136429461444095
0.2971758910416895 0.23816997471594448 0.11129837687349209
0.2717357854943998 0.25947013400308094 0.21599419595513325
0.2876011201557276 0.2531962421660978 0.15810051078472043
0.30258770758969433 0.28972777280374373 0.11874081406794801
0.23528271434319947 0.2973847922883124 0.18168551465998917
0.33971872886158394 0.25247788618318623 0.11862167801788814
0.3047762088238102 0.20932384019580752 0.10967886079032496
0.41317032429984124 0.1864998487203593 -0.0014611104657689111
0.5687470712665572 -0.09286708306467517 -0.06845980398487939
0.3139229433459434 0.25248989610000194 0.24545121406197268
0.2569721770281035 0.28232938508352845 0.2738284944401528
0.3050506618331781 0.24187274531638536 0.161379660557202
0.30677667273698717 0.27016774192354376 0.1852582076477205
0.34754817246871994 0.21037714577822442 0.04544126318039332
0.27595892871302397 0.24461622500615476 0.14337138986962827
0.370590097517848 0.21426066299105173 0.07531507716069541
0.2840444434097833 0.09353007762781829 0.22228946686894346
0.4431661410859249 0.23588587947475048 -0.033960837319767734
0.3173105345639584 0.2485298301114085 0.146757690215793
0.19457685100184108 0.24677710704679612 0.21624975737796603
0.3585813119327952 0.1923754420267869 0.05458029183570545
0.13283881342161408 0.5387392047350659 0.016760671407368477
0.31760843816843476 0.20836026032642962 0.1703766877676003
0.29929120307184576 0.27439556626400474 0.18168920281547685
0.32412170702281173 0.26508847402621427 0.12715729934043907
0.3085977130764661 0.281871683700615 0.1899360885878707
0.3588419601393298 0.2711193261555991 0.1833521827859954
0.2906983018000915 0.3169104344030558 0.29650788196117617
0.29554424779286137 0.26977071558179944 0.15074831576514214
0.34637608597159897 0.27457963747805536 0.16731710410682865
0.2998409746223416 0.2506330216327797 0.15687913588423896
0.3308972353089814 0.16742902061540121 0.09717769452829828
0.3308291694220884 0.29360927104808354 0.14563197157278296
0.33135074928985375 0.21500894187096264 0.13666378233354237
0.22963536104981586 0.31532924062250345 0.187097593825456
0.28443645624599867 0.24311053131893345 0.1460072453682102
0.33376152271095805 0.2854932125966627 0.19176859005234803
0.34449937525974406 0.23654349439826206 0.06517276794755844
0.26395580736129887 0.24833585103306177 0.14149350846717823
0.2987178800696597 0.2516126560081773 0.10674171158518675
0.3086758715914897 0.196998799552361 0.0325157122699693
0.3621068173099786 0.17944030218589546 0.17933673701509178
0.21397994221085526 0.3260297500978879 0.29020034912221604
0.1780973254186904 0.37004070836115943 0.3376076670223398
0.3174578431172108 0.31179167226605387 0.2446310205355502
0.34652000279784545 0.2502321815714197 0.20282977801817026
0.17106772085239186 0.33541769150471623 0.4157408360335353
0.26469987245363313 0.18088010595502624 0.08208910458967011
0.3250789077268337 0.24314279341948009 0.1375698364645359
0.2984078746813168 0.3054303384654702 0.17260655848326678
0.3160145339908951 0.30054140459087364 0.11507595167995532
0.21198543696590377 0.24718052962239767 0.2791389569566718
0.2859630900729968 0.28257788890584834 0.24115856130279667
0.3347912403484372 0.48515867432151083 0.13829679856650046
0.3406535362571219 0.2926648387307438 0.1701184590104532
0.24777381816363686 0.27960304843514905 0.23004125183908286
0.23725034792067845 0.2123565701625978 0.11009751004050372
0.3222145630589637 0.26458231219710626 0.2018274882769333
0.2982482090246492 0.15764899808762323 0.15431917209316737
0.32280159723002555 0.2310666789710183 0.17027699640274818
0.41234247062192253 0.263947204577363 0.014749446198663918
0.341787122091489 0.2579515865385531 0.09806958564013257
0.1932751183476995 0.22043115775591104 0.11211250297026254
0.2950550244067074 0.24548926893464795 0.17293464223763522
0.2764190521670713 0.3530108933562133 0.20916645953661828
0.32159741460483815 0.23745604773466766 0.09054711875579358
0.2988169639799878 0.23060557314174446 0.10595074862101228
0.6782335759977514 0.25229484509608824 0.6717112437533501
0.33686654508872493 0.2507210057217719 0.17437302884252404
0.2673253380193614 0.22115889805277789 0.14243677291524648
0.29058661349753834 0.307333470033484 0.2654890560105656
0.5636786997348509 0.07046688499563913 0.13192079084832642
0.3229828542218627 0.24943676071367804 0.06776456998079539
0.29370575308203684 0.24943695605087157 0.1237533857223383
0.3121697296970183 0.2725344707925643 0.13419572270640856
0.3138664416981243 0.16897039126700975 0.0729988488188269
0.33583881563406237 0.23649319166830196 0.22948929094121695
0.2784511698387746 0.32906966979408026 0.2495860876415179
0.3524853354059587 0.25274120772823494 0.0569886115672773
0.32047945126481636 0.21977694658198743 0.1314193167756912
0.2647139377720009 0.27402450810693324 0.19557285416195214
0.2536361863382268 0.2065995872665667 0.2749918139108303
0.3787248476224363 0.22232136184464935 0.09784858238296579
0.3028123707609751 0.26302084697078953 0.17077781262624114
0.33063336765434315 0.26013399877300003 0.18648216147232688
0.3065124135303279 0.2482888365593965 0.15641594564587535
0.30216031674045496 0.054563795753495015 0.2023873944941954
0.00713439838658303 0.40864094992033984 -0.16597188012374886
0.3214878657518909 0.24456892068502611 0.13102509190161982
0.23813130522648862 0.23453132417479594 0.22152807255773155
0.3083457628522268 0.2478613771690732 0.136029793565541
0.2815532199399229 0.30289356550517255 0.19221302207516544
0.34812480584179184 0.21090595738365892 0.07174459149985069
0.3375938329602377 0.23915559583410584 0.13613197546609968
0.39944090674740096 0.2502157676695447 0.058063493771953745
0.2792823858506779 0.28090794403190955 0.2251211443160912
0.32309172803084607 0.21276155804224572 0.08473292478073802
0.375768213069648 0.2013426182791136 0.16587358775061034
0.3190844555126944 0.2481380398843811 0.1667873071342001
0.3188130808535732 0.30487764081037483 0.16114985661329229
0.47810629971411345 0.13685355638679653 0.18900325188722888
0.21529414078773357 0.32978145984984053 0.3736937533942779
0.3730323508718527 0.1701718140193691 0.09447340495157164
0.32195423017472535 0.20054420840102694 0.07174120426584807
0.30120465943878116 0.25311983182520237 0.22790551972397566
0.24429181534452482 0.15502959239336178 0.19685877320559086
0.27254112020921184 0.3029582914288653 0.1921313864016838
0.3696125483944286 0.21623004772708043 0.0045580133503193565
0.3414623474105838 0.25459904510759657 0.12560067760693983
0.4046886039090509 0.1926206752347781 0.1584038483323411
0.2790447177956139 0.259437048011705 0.14778228188549747
0.2514923349946656 0.6644882258269149 0.22426865121190076
0.28589894971018737 0.25139043550122153 0.1764817894234767
0.3871356546092386 0.20908974059008756 0.07923886221749399
0.4624049339926586 -0.022768079472456293 -0.03705083752120686
0.28606474817254934 0.20781630763997327 0.14546466451548667
0.19328187730855007 0.28041276887105937 0.12094476144838495
0.5384240499555091 -0.0758143489314449 -0.3633462545922015
0.2598060275835792 0.3182797106910584 0.24475181020157777
0.34534617088149844 0.21775509515816793 0.1153456599349596
0.28923918467252463 0.24581895873372162 0.16858640309042983
0.36006043892044204 0.18835862753084598 0.06679669802394983
0.31059394148944364 0.2511540386925901 0.1359023542020168
0.29193942978258747 0.24452765974569957 0.052453645700609286
0.29725777724542013 0.22011603774575406 0.13263307506893796
0.34677436231399383 0.19209421289116335 0.007629911606926498
0.1256272950996049 0.2219281639521853 0.2457303579319614
0.31677814518533864 0.2387131841953476 0.1116414428162642
0.3470616692986539 0.21377450849391266 0.11541234224360153
0.3725899083821247 0.29508987599297143 0.20219101889099989
0.3423707360186796 0.24787991365681705 0.12714028085932227
0.25306867593401705 0.34419180442564823 0.17051865578218894
0.4344231736311599 0.5284926326327906 0.1975688744168309
0.363359255557981 0.2853331548874962 0.17994928933738663
0.32290287300904197 0.23880704757698368 0.13289249139049275
0.34239601659425034 0.28848490266116755 0.25536955812577844
0.15028244993595763 0.5298368477382667 0.46998559097426096
0.42764076519630123 0.18436142169352365 0.06104363778335653
0.3422550569871845 0.24909626078633096 0.1462835896970489
0.3294905727327091 0.2730345211267604 0.22322960250613733
0.32907235518300126 0.21831247268045217 0.12544743432007976
0.24078710350256927 0.2653112595805567 0.23142680053128117
0.28173795809290425 0.2707187381137288 0.19172447284279315
0.19453372213226316 0.3681590604188756 0.12979773065167421
0.29656613499932405 0.2351465861092379 0.23100632504363716
0.2518753850708322 0.2792340607917083 0.19830035264070034
0.4054502708943204 0.21320434825258872 0.010482861174480718
0.3732789459332366 0.2098948505217919 0.017483039837969727
0.277920669237119 0.29367519623903604 0.2094929600007589
0.34744000360663563 0.21336011416978806 0.056208967419408395
0.3093796333958778 0.23676993958164871 0.14881099021148714
0.32298985322755414 0.3135629192029228 0.17224119324335163
0.31861173608798765 0.25642719144465786 0.16566796491488844
0.21774282455763228 0.2538083094506476 0.264248716154583
0.3989754510086243 0.19039687970882824 0.11742565714416742
0.32980476265811376 0.24820826686023167 0.15132208434951622
0.25924351046158733 0.25332736757131613 0.027541170209602228
0.27810681899057954 0.2719917750626024 0.2151458289971373
0.29194483191345455 0.12593309946660725 0.07122664192911543
0.23314006428351775 0.25906709597251165 0.03712474264321486
0.3524269648776368 0.26817503972395684 0.20626329386968223
0.3030904627751738 0.2492807201447107 0.12755437732404573
0.32079242568215705 0.2040436302837918 0.16176478287331975
0.33366885617085984 0.23899910240882605 0.10483978638080771
0.30231339146297387 0.2350030194988193 0.145139096889622
0.28597170874385824 0.2704319455115183 0.1293648561955365
0.28192133463767277 0.2504923754722057 0.16874546751324715
0.2890611696196004 0.28336625347053257 0.222355778364431
0.29820975271840666 0.25246503796263653 0.1545302675575897
0.37943005455683476 0.2295088781457082 0.07704642468017653
0.2756521385038724 0.3449961429976014 0.23098078884673612
0.35492412213855573 0.2134585655535659 0.105388529508474
0.3297364516471646 0.2441777374682914 0.14945634757714288
0.27621916882233677 0.30762958776358573 0.14305902868879627
0.30414331143555273 0.6197649795068969 0.3050336747809581
0.3851423661250237 0.22613026894561017 0.060165004982792425
0.12134564281097937 0.4890149052326649 -0.11475072745231785
0.3626859996456915 0.23768783431418683 0.08994334154382955
0.3485986370562273 0.1418782760528785 -0.0735156421417571
0.5024080054703575 -0.1134532053915791 0.2565828492699893
0.2602490113094973 0.3009705880685516 0.2973195551984702
0.3371534040941526 0.26958460126272143 0.1592685247386214
1.8010114641224675 -0.6565211799692179 -0.018805010514427067
0.3027370052853655 0.3221671672134647 0.14330018475519068
0.3475964539474745 0.24230383524945864 0.1230435605705793
0.24149672076471518 0.29108706810407625 0.1933896578703127
0.1471196870881215 0.25052444574055244 0.25656734443418827
0.3437771281944464 0.2328353284560336 0.12455728664792787
0.3567103200146704 0.20854344366568967 0.04530200156483488
0.2742839761625646 0.2675897618976535 0.10522406728229328
0.3019748528230366 0.24265371943178593 0.09020926051965716
0.26111723567511547 0.22446781117277226 0.14935056661730073
0.27487348548430646 0.2526060730162101 0.14502036807493823
0.2360343509789402 0.4913125809271577 0.2834185987181286
0.24227212652471053 0.3171611627974613 0.12003610261282915
0.7087595260501445 0.06378153004615683 -0.007798755757519871
0.3891754366131863 0.2085753323907653 0.0912282638679045
0.18159725204040456 0.4928132005795476 0.3828621218448802
0.3505106234564437 0.25291910769387016 0.12045477073081656
0.3525839561054056 0.26842208701606296 0.164265461627906
0.2835929225750107 0.25068033861572303 0.20421118528435045
0.37727289774193196 0.23747367378391004 0.15147804952893296
0.247268876482309 0.33209823233967484 0.1907674874257168
0.3052474124276898 0.23771379255326508 0.16575012614745788
0.21848294804968305 0.2632633671561422 0.19483091461256663
0.27315912397853026 0.21806124240313807 0.13528554815739824
0.26227019296365484 0.2650424037424983 0.15937897925725508
0.22084230431656238 0.5547017788209843 0.46192127107774184
0.3176423389413827 0.3030141695770112 0.1179609759702771
0.3224668140233291 0.24767581714658604 0.14920090119341012
0.30878939389313587 0.261935547415419 0.13307774341194545
0.327114930737082 0.23531498416932095 0.09543545955253308
0.30044657318332213 0.2429781606853112 0.09888500187717852
0.2704147845031173 0.2789329942373229 0.16365909583069538
0.3295960881324618 0.2544385329212844 0.12419354351602863
0.30543139202328007 0.24533528835615925 0.10885007750843556
0.30200885339807826 0.3248289293078841 0.15586423048742404
0.30665793694268473 0.2789691948014763 0.16815485635493133
0.354582882820381 0.32416612305374315 0.055359179336349484
0.30019660631714373 0.2536394827461663 0.17615002435027804
0.3410689056477736 0.24775744698214908 0.04965763611011198
0.3113719794896497 0.21646804721054025 0.03437259514868174
0.31395364577588225 0.23041723822156257 0.15198911905011414
0.4306795960863923 0.1383819385658569 0.0732669485565367
0.27942087906905044 0.14361133335677323 0.051798774647380696
0.32791782481729115 0.24916261715833343 0.1339712587931956
0.45276259364879934 0.21127590560203657 0.1951957774147246
1.581628421021179 1.6785456820967397 -0.0924197147534187
0.2290393085196456 0.2092375294034241 0.28971119097126063
0.25479836025857594 0.2523997932245976 0.1708987234698327
0.04971015511483756 0.5455236978671962 0.4819305373524685
0.34672360255370904 0.21181180497792695 0.0921041436879193
0.3060144757368448 0.20310325377138838 0.04697879986940734
0.296510755443137 0.3193068610104888 0.1926447617168492
0.2899478514146665 0.3103016954681834 0.2204318151074034
0.4307918371058008 0.1775966557084132 0.11324099099191187
0.264544230980988 0.2947742824756858 0.126592776583351
0.31087022988509716 0.24853272388173764 0.18592591955794546
0.323204557236096 0.2419809641054229 0.14597632242114855
0.3421476292164982 0.2396096414130966 0.1233927803800583
0.2874957257316453 0.25558456565795495 0.1796857317633851
0.3167140882818842 0.237745309665371 0.17563002021746854
0.33344447727111515 0.2223959731052787 0.06681873801126414
0.2986054576744266 0.24040380796093075 0.09334303913048814
0.29833711772360516 0.2542614034752688 0.20011064668162248
0.29448568689019794 0.2226739637964954 0.09164134391743062
0.25831504423794627 0.3296339302002309 0.14445654206822667
0.27940170795838526 0.23476733404460504 0.1344594080557613
0.4187288783412271 0.16501687073909466 0.04147979576580951
0.2742537382345063 0.25984442571194677 0.17235419112404315
0.2958508813618721 0.19815022146184447 0.08785942955643122
0.29509277493690433 0.23026132862803195 0.051116198842464655
0.2866095030753115 0.26991025255750856 0.1825213908044958
0.2876064183816709 0.23287568962001615 0.15567619040153602
0.10052429319597422 0.42497472298072125 0.1316201768873242
0.33206650529405124 0.2232009475454788 0.09129908379054541
0.3356906749063455 0.24558459007076294 0.13797858848136002
0.27617135033328566 0.25823517119081885 0.24770673692185596
0.32446150125443296 0.2590984130646774 0.14830112266480455
0.3218684762279622 0.2382100779096703 0.0983221177051945
0.19289305321618144 0.2726375822755358 0.1414587873734945
0.24208532190797882 0.2600585401627882 0.151679569693286
0.33014232634135965 0.22714925045183065 0.14385164194330002
0.43298172565016557 0.1285266883259908 0.18542374351861213
0.28180897732778476 0.2495602207311549 0.13646216521894416
0.3133443952201276 0.27808677416933847 0.24038253319650948
0.19944710612462302 0.315954182032371 0.2892642994631274
0.31479615440586883 0.25313837100271996 0.15309562607592397
0.3399085834619484 0.2489943202714926 0.14945111288875523
0.18634555095505334 0.2838661588860134 0.25912206661730863
0.33519793155940647 0.25884028587316266 0.1771996803281013
0.23489380213155187 0.19090166952702248 0.05839523214918074
0.3350866862516284 0.2502865718089424 0.1785053911994794
0.33018810078405636 0.23333524372226577 0.1338220544258064
0.31270897190655944 0.19996326412157828 0.05506591528656202
0.3393142109899543 0.24043775827344405 0.11767116305207992
0.29255618187210075 0.3298627640560312 0.16817644970120682
0.3185016252713808 0.25102020362785993 0.1647556473071745
0.31900719126949184 0.23850193912252848 0.11768982785505955
0.2874199018738466 0.2736391707103678 0.19318334529572212
0.3178186018966187 0.23992132511747855 0.13731595720241785
0.39536495019086715 0.23007016249785295 0.06593268696353505
0.3580870393162172 0.2361955596402936 0.13258312926245708
0.3185942360213545 0.24594654312301145 0.22768241139053202
0.1896594543933361 0.27914673314489846 0.2758379265494
0.2652508714406281 0.20873258978019749 0.03372799094417189
0.3466693656283155 0.24798078582199423 0.19570324847541087
0.2874702307314294 0.2381130786583867 0.11436108434317305
0.4356083413588294 0.12777120592414803 0.13328639818233512
0.22365799648835605 0.4000910289638142 0.3348678512782044
0.38880590710652996 0.23011960322530456 0.15739258224027708
0.2798413889444902 0.2704149789561683 0.20149053142841922
0.3238295229238872 0.2389192162150522 0.20629643223284688
0.3116243744144356 0.3026796305693864 0.17553449500553597
0.2954727919487823 0.2370215898219783 0.1263677952189255
0.1988018875133548 0.3434126918373579 0.29176548987808815
0.29490482669459084 0.21573122285994373 0.13528675898839992
0.27405617727984577 0.296229570021211 0.17260692664117983
0.22323700457688744 0.3115990916587066 0.3953594449778848
0.2569920650474842 0.2580640994196557 0.14281150201659898
0.33697286570597385 0.13560952881599064 0.09840735126797995
0.38324646688982966 0.2554838192963018 0.1480301047489263
0.3172445825319983 0.3226352574576765 0.12662720201831235
0.28207122364935344 0.3348842072782503 0.16570089391065324
0.28115516302217713 0.25237013234084316 0.22476628823784495
0.3001139385153522 0.33196100732440925 0.2231780680193367
1.363346256537838 0.32374723854900367 0.037419871642867975
0.32367678832495983 0.21510079935362114 0.1610308427072198
0.31459049315782295 0.23763521305195923 0.08483926504342776
0.31701058626165945 0.24104597943571093 0.16669859049071079
0.27518538424108385 0.2408440620876462 0.239276083356728
-2.6591073881881755 -0.0836004590214543 0.8312976625505257
0.2200335258019379 0.31036041461959485 0.29314184194186055
0.3779023026617523 0.2176699843000165 0.13644222344088064
0.34522228552556555 0.2650188862228049 0.07286552895321563
0.30995797182711726 0.2691999485658698 0.1402900376568823
0.4057934781548056 0.29724479574454676 -0.04333590276101518
0.3304541534973282 0.24447718284213238 0.017404019790348002
0.360336490880627 0.20074721173222088 0.05279624278574602
0.36379569561705694 0.23279141477027565 0.10700094564364804
0.4179432774557199 0.17467873499529674 0.018481449440415076
0.3588718713909316 0.18400696268611227 0.057807338565183386
0.6519947418007348 0.4497612683321961 0.20167036597850085
0.35419697342629775 0.24426910942382563 0.13896251236946
0.3110684867196767 0.2790347185770372 0.20297942877677144
0.19751225044400655 0.1310934988626684 0.6118212750214695
0.3128783375301083 0.19240565247110908 0.1592912382099172
0.31461794432732404 0.2599339311312576 0.08171995216207506
0.17433398216024898 0.43766026230284183 0.15477527824739923
0.26921883902693367 0.2948341850493108 0.2092975351471864
0.20834589198241815 0.4302284164885748 0.35326076972782516
0.3642156328776025 0.2682826798085216 0.18064045302911325
0.4007234845301042 0.49886019184009456 0.4995647978029183
0.3474197715316052 0.21040606393118821 0.03461751815237335
0.3459516778694649 0.22724755264832197 0.14120373800582797
0.2935484049771162 0.26684483764427114 0.17668826700402462
0.2691964496720658 0.28428310146462366 0.12769577488384698
0.3053997064696432 0.24190904557258364 0.155487969399843
0.29354668980954557 0.24112650744802977 0.14000875485902498
0.361523285698496 0.22793829005406963 0.11911017284342051
0.331979392264941 0.17838215320296058 0.07221240956015151
0.30074395773323204 0.2710754536750528 0.16115581669930634
0.31708371867895835 0.263101775473217 0.1876799677731924
0.2988226122987214 0.251845890185038 0.18475822443170387
0.17091478366927504 0.2829916516521678 0.2649326913903849
0.3329973587047448 0.24094849557937437 0.10162701881117187
0.363097253821806 0.25106469334363624 0.11057291599466623
0.29691181898388663 0.2974789427004225 0.17704574546792173
0.32366434048321935 0.2288961031307224 0.12107091496424971
0.33633329566778514 0.27244579613386577 0.16919130075049793
0.3361193673391938 0.22328464666267678 0.12956801311625554
0.2849274792072265 0.33397594374096684 0.2875887314575323
0.11704261341074584 0.33249714043620315 0.21204595339597176
0.35555264184866076 0.23059924537083987 0.1374596534820114
0.461101914636302 0.17646750272798783 0.14594427335107696
1.7020712083819944 0.5345906715769644 1.054560561019457
0.6916023621327554 -0.01938657257720422 -0.541810548452645
-0.15962153203970786 -0.14295039926480513 0.40854648202868304
0.31931237285964187 0.2591975218566631 0.1876967208410747
0.2980855934291924 0.1909965501830584 0.07711392100810599
0.36157021267926837 0.21554653965677062 0.17175515509318018
0.33430859233286014 0.15777937412691756 0.05244573596925761
0.3794231101689718 0.2685729399203609 0.08881964262256759
0.2879887505687435 0.250328586547937 0.07322215385497088
0.2888043175393591 0.24526052944764842 0.16227904869806764
0.3266061926935464 0.18471781747669525 0.19189024528705545
0.3225195841954758 0.23733063961728362 0.19753498018548044
0.306106175384258 0.2533864781591433 0.02815649345674842
0.2761180416418938 0.19712271825903827 0.1259471654969957
0.3072996548377631 0.31629412474387664 0.2496591959289276
0.3012290721456168 0.2242755149636224 0.13089150742374045
0.3592283838641208 0.23921825135829522 0.06437038171227982
0.3471837062284351 0.2474727519841622 0.11936000115679235
0.30789427662904245 0.22776169268566093 0.15727694046125862
0.2955968520719239 0.23071082636053575 0.13288132461511282
0.3313523916946792 0.22707388412089813 0.12726720399848546
0.3169382578834359 0.2475434116018107 0.11738680421940728
-0.20613173717637778 0.5396528386471431 0.11235657539364752
0.29508653665092766 0.2502711381108895 0.18844898396375243
0.2835584411299408 0.2630499754641278 0.11376329015335784
0.3224446667739187 0.2789311606674545 0.32296575053095467
0.3629265955283927 0.24296653921311417 0.11166561338825431
0.37458492669986754 0.12065698986255313 -0.5559338620793284
0.3026775923600127 0.2364789634476665 0.14234127882926373
0.2862210222714623 0.2576752018238153 0.20319462878627803
0.31068896978106864 0.2899965419176169 0.20031046404542963
0.33307883839225383 0.231119581050649 0.15725058373330114
0.26092104174693986 0.3096231915005063 0.2531803770926615
0.3021692428269773 0.2227686171677874 0.09951823562724371
0.37945804339554456 0.18470440182542802 0.10851451707827664
0.2697492508316657 0.26882980593987327 0.13975336988180231
0.310842800054445 0.25072129442965263 0.15883769335488296
0.3102481836429263 0.2434219771318311 0.14916147992755668
0.39183772473651857 0.21684613355320437 0.09156043534257208
0.3413095943502924 0.27784306918292145 0.1551913834972396
0.2855682054992883 0.23787329755758435 0.2052455851154491
0.33247917430391283 0.25862307411492225 0.11659270431275104
0.3137013947428784 0.21571963211300726 0.18513946991645014
0.3753724342774376 0.13531673069346084 -0.0041911555383364885
0.3384771464255891 0.2418409477332233 0.1831450492136355
0.23939943482250214 0.22312125800070248 0.05950996750279103
0.3529071693913295 0.16882778009721733 -0.09443324113405538
0.3274367853626927 0.25177658001224756 0.14992508047244257
0.3742651713535281 0.28923990564419455 0.24632475764857986
0.3240085762550109 0.27464333797965423 0.2238087737317187
0.31247914148488576 0.20953695499781588 0.11156538610846667
0.3167001768305937 0.2768940205786805 0.26105217733342556
0.39309571983886826 0.20991912342483943 0.1341920131143297
0.30632851236109104 0.25145027242541573 0.2327126772371173
0.2409664984705131 0.2847590164053315 0.18251660849801965
0.28398812555650466 0.2784814671826723 0.27849951182706434
0.2829902024202795 0.2895784921058464 0.12318253468565388
0.2386446967268938 0.4176533240402449 0.16233060467646965
0.3123055700626054 0.24116325230320967 0.14219037303888626
0.3017551569174941 0.2612640792038121 0.13354337083103474
0.33139929191604267 0.2270418801911802 0.10717620047398668
0.31023918507970905 0.281563282089067 0.23511630241526404
0.041234992070059207 0.15339046504442422 0.18272476147517125
0.3068000329951417 0.24532413257188068 0.18547809728386255
0.3125653386762366 0.24259327735363456 0.3865087016596931
0.31541350373184684 0.2617456661723736 0.11327498967619931
0.2973291732596408 0.2686934460860755 0.08186111286289588
0.31965646504089307 0.23854228975480396 0.11951951336550337
0.4699114429888027 0.11090997810353542 0.09011866824447168
0.35086709404615135 0.20730454802816212 0.15178193103068338
0.3136075410179586 0.10520007946891496 0.03227790388854146
1.1690338354957248 -1.3495228152109178 -0.6087250162841258
0.12182962195019797 0.35395404517322504 0.18555356894950137
0.8214001603631118 -0.11595159918300624 -0.2028425135062264
-1.0778787333781281 2.8964628260189187 1.3651412396096703
0.3558007461685406 0.2231044150907877 0.06270910386709261
0.31964631267487675 0.29381071025829897 0.10656929529861259
0.3431055229342945 0.3671737374916546 0.20484141395168365
0.5081696981443429 0.1692906790764539 0.3204911200659524
0.27175036689234844 0.2797372381622978 0.1676949387222777
0.3466609336321369 0.20328918685692088 0.29327702837886704
0.1845560105317361 0.38810956988308476 0.14311349080230684
0.4366851157983831 0.13587036173274214 -0.0012249335936473926
0.2780502186683407 0.28073212227236866 0.22620650244596163
0.38391828973378495 0.1837257195502957 0.09006201200506325
0.35845548945081873 0.22525659395938646 0.09165193107645564
0.33081707156279094 0.24856192859709836 0.15445840506674813
0.29672600430478724 0.2538309150882583 0.15580381446530112
0.3113898389280081 0.27881485581013976 0.14003989670918315
0.3065576431396835 0.31975084435015333 0.2096913817182724
0.4947422496063325 0.1646127548697507 0.1614433203480985
0.18569752580215493 0.3668370875862763 0.2274114174561106
0.3807536844930155 0.21501586694353136 0.1948839032017986
0.24112043820488793 0.2554624588791228 0.22373504507370967
0.2841420290440908 0.24620425774324417 0.17619657767805563
0.3230400612823985 0.2214754966742305 0.17763864402968466
0.3630360135639421 0.09296555582342592 0.017776066417127367
0.3730217429075111 0.21833393360216746 0.12410404574137601
0.2781224801755826 0.25802973064985224 0.15406758470329862
0.4105730538933301 0.23498564427389113 0.20923710184894162
0.3967046655496631 0.23094889073776415 0.210905244599914
1.2548987094017434 2.3765832243755654 0.22235949422639578
0.3192199082064917 0.24598335418232864 0.0565145721027136
0.3923700536693957 0.23327154744492873 0.08787313776325334
0.2790318977929189 0.2849586462926368 0.1489082866589655
0.30967580227864744 0.2768659193589258 0.22267632457607078
0.3476069290351802 0.23826682366579632 0.17480464939718843
0.25568508837068293 0.3384398743321668 0.13977754987367064
0.3467178724897053 0.24329657921651915 0.1708160635627678
0.15712865802170484 0.02999089209757244 0.5231151826767046
0.29801000025969415 0.25134661506263 0.11086276667764139
0.29053689030486396 0.2615494583539828 0.18402765302442958
0.1496599360643387 0.4012755623376023 0.18324787799133446
0.12791902715773062 -0.5030280956611932 -0.5884752448821473
0.682315864840433 0.3173005840357348 0.640319178886358
0.28238787115311936 0.2252617209271648 0.12254585635642457
0.2719849439779978 0.24941235322009447 0.17223311144940112
0.3595895914978513 0.1641517299893991 0.07505857463812049
0.3140822307646829 0.24558531732131428 0.11035986731590697
0.27066869064088905 0.28848158574700733 0.24484834890201057
0.3467487807145062 0.09117850472031819 0.16175495036833354
0.34663579033919234 0.22790592956559408 0.11403603281442543
0.2922592365959247 0.18661047891254157 0.1435795053675406
0.22664026496664746 0.35339503313019804 0.3726470529399535
0.3163085853160794 0.23760115597718823 0.126801594448537
0.19629827250597032 0.30112980241770515 0.29932940014360554
0.27714399563754455 0.27143735572076366 0.2061050893817935
0.1776158406338766 0.22932902252344434 0.21407436799864854
0.3103046306495685 0.24975178251182228 0.13471853993843297
0.052957366839137876 0.5630116152122469 0.3084546587275838
0.251616353330121 0.3095287655708603 0.15998309912443176
0.26666979860195283 0.24670048390862576 0.21119939891744366
0.3238871518614417 0.22987656256073308 0.13930110313626187
0.24676668762457155 0.2843755846380702 0.11568033853296811
0.3118537783699651 0.25148998498696074 0.12154306216291388
0.32573416661998067 0.2740726162143403 0.21884929862574154
0.31773079106241653 0.23717121525584162 0.1381336755457454
0.3048838308636874 0.2506972017303468 0.1478584470891917
0.31039973885539496 0.21070387059539541 0.11597219924672686
0.2845426282638783 0.5120627579775601 0.44249303999337997
0.06474038134686566 0.3870779821649819 0.15515995585272435
0.3635235526299141 0.29433749948202603 0.19829659656173249
0.27616106416822106 0.24648374713461862 0.1599295889330392
0.5856012629550946 0.3232647572600911 0.4402694723250846
0.5225857577795381 0.4942503804972773 -0.5988514426440759
0.2909349320249959 0.2345758079498097 0.13405590079656804
0.31604604163815964 0.2033280267772568 0.12694234520657233
0.25881036415499636 0.2514749651212753 0.17706167630186087
0.3007129830143356 0.21876223046098175 0.17538737717887898
0.2315737260094295 0.33066048218873334 0.2848052579936109
0.41671873685407945 0.15718457687120235 0.04005762626219678
0.24207126240115429 0.30027403472260517 0.2311215557545836
0.30664618481912953 0.26291686487556376 0.188028879491128
0.36795495648209453 0.2233934109368363 0.07685223406053865
0.3118290857784132 0.2951005455002331 0.17472116961234008
0.26320511118545653 0.2675150438109597 0.1599004288615049
0.3266747689755505 0.2893977918086108 0.17820383905657877
0.4066010667626472 0.08472537489615206 0.15607787242879567
0.3057549649380462 0.21490504357144857 0.2425214112875409
0.3723979702750313 0.2839581060171241 0.10953299810708472
-0.2737775987127975 0.20095029671611542 1.4673013758900169
0.32400774903086926 0.29106708651139 0.21097284781325243
0.3779306076202289 0.2136447913741506 0.05877343863096485
0.3266316627843082 0.24393915619991446 0.18802162167649783
0.3876761869919392 0.13526090943463487 0.05196686579191123
0.32662163373908015 0.3405587270512598 0.19003580679201093
0.21475728735231314 0.30562267449357705 0.15730971452390463
0.3424657682542147 0.20271120580648017 0.08570356529364176
0.15236767778613114 0.44834323729489256 0.43025847782705284
0.300230974658831 0.2371831655561607 0.16690835407842997
0.3336803766130032 0.27722516864065483 0.1962810264358552
0.3115701613690476 0.26467722160498397 0.16763911401945109
0.3947761310854361 0.19823880807734895 -0.026416770249795718
0.3198884864764011 0.23139603142922738 0.13717504882916387
0.45654616177320406 0.3611973008402174 0.464838631799779
0.24423629400894242 0.33819262938804684 0.20709735367300652
0.2857203184309043 0.28064371290923873 0.1195394276909667
0.28300391740519615 0.2286427533354214 0.07094596502200545
0.2955639548230522 0.2389213870051492 0.0922048631865664
0.31640492594385705 0.264848585505689 0.1368395532907698
0.27022999635116207 0.2357946539897 0.13558032759004846
0.4126499493700919 0.18597605925242533 0.008844018739665671
0.3195649912094325 0.2866324623480949 0.12075633820404619
-0.11065648764090952 -0.1599961127969607 -0.6076167596735615
0.23255685209727517 0.17871921825135928 0.060240676268122684
0.708013533093947 -0.10212301262613721 -0.0697788187916899
0.32521359419722273 0.1695613070437787 0.1845154185485285
0.22839036419247805 0.3190086142932387 0.21211989128025266
0.3576472424253865 0.29049667596993345 0.1958399415219958
0.18986604746405078 0.23336617470869214 0.13770334491276515
0.3242398112766125 0.24012743344499654 0.10861901579772848
0.30592756720352554 0.19294030270603457 0.19823854374536154
0.24649022279191968 0.2507786581731608 0.20228064182909122
0.32813159221450405 0.21442715415975044 0.15319153053168577
0.33033021564224896 0.20722805118572296 0.10479507323775294
0.3151019294310231 0.23033884196499343 0.1490068487842109
0.2926634314640211 0.26612520173983967 0.0025882075767356127
0.3911523202531555 0.17888636512299172 0.01696954428635422
0.23327547696786155 0.27540356582426284 0.2088108245127387
0.3767738160599521 0.1780826028790159 0.11008427045190672
0.3227697890742718 0.24119903364824324 0.13675353446178917
0.3219249134833433 0.19059409855599085 0.1267122792625912
0.2199540939611495 0.22832090070684785 0.15507981575224505
0.2955750398210313 0.3323415921806827 0.2484502536220532
0.39853767983723287 0.26784631747534604 0.17408066259662291
0.2787810056362474 0.2577675447950867 0.10114980768807413
0.34053188727779116 0.27969601505705555 0.32696416491994285
0.30257765408960324 0.17674408076968007 0.1789576029998159
0.21957552435776506 0.2946763677063018 0.18699779788414617
0.3420102924841899 0.2753322414135937 0.231579066344068
0.24157465424261204 0.19892130813539666 0.18948314131500865
0.32743861870362423 0.2451809085442278 0.11832484577021773
0.35477971225395777 0.16566544058898103 0.011434448792357443
0.3285922275521216 0.24289599952908247 0.11711655988381153
0.32251049006067944 0.16345494000159988 0.18108422509635602
0.35678957707324344 0.239142585021213 0.13996806413214813
-0.12051130964576373 0.29413356848476724 -0.08094291232329454
0.41579848297938327 0.24071720607551583 0.05886680581372161
0.29737560496135984 0.21914515952845193 0.16349117847883576
0.33940886286703176 0.24069484133787 0.10349376294536228
0.3842990305629286 0.15110534308735168 0.09480250504802257
0.33158261391579913 0.2563646419128105 0.10468436136000037
0.35357560372349894 0.27290057534656853 0.052124005474041724
0.33042942981145984 0.29097070430754 0.19896721483382862
0.21381651971675808 0.5026914930542432 -0.177735876913232
0.32390749292503074 0.26498412340427535 0.12136241065823583
0.3337411421684351 0.24429497516391052 0.08354488019602968
0.27774014707216566 0.2705089342763358 0.18278583902927892
0.3171160018004002 0.14453672516728489 0.0839098636920994
0.3698357735355273 0.163487682851013 0.06002508413737928
0.30913946323330777 0.2305297635028296 0.16761718058478436
0.21224970330641213 0.09817240365894975 0.01218604658777167
0.35027287975290733 0.17455269084204872 0.1594078004353321
0.2624571411765828 0.2412337539751661 0.12816187219317499
0.29573867424871025 0.29107935234603133 0.11084181127141335
0.22290748062557952 0.25909060016776664 0.015916463743096187
0.3102284975132079 0.3100502425868257 0.30373663795592165
0.35553565508990914 0.24777516640078545 0.13149247107563156
0.23937214311504817 0.2686136361850089 0.22925066315599452
0.23942944333251148 0.2731573036034831 0.21160463512804029
0.3308032257806417 0.26381808573303545 0.15398940820517737
0.411890843080954 0.17262832307248743 -0.09179546177509224
0.2938139065829546 0.26859804431025225 0.1521128806143679
0.39950817223854074 0.1646665969561525 0.09920405779911334
0.3269965703598814 0.24028656609138466 0.31682300417188003
0.31164732231925996 0.20692630002690748 0.04171673769853612
0.09112736855814774 0.11714212890184683 0.40501077594969104
0.28262300598835566 0.3093332922786942 0.10585782484128003
0.2920079617921374 0.4464099030708155 -0.26272592399027417
0.31567013780679076 0.20050812012070196 0.13347495755151328
0.2008833421907923 0.3004419390366593 0.2531425731028918
0.25961138797075023 0.2048541111584541 0.11436923314028036
0.38929684049681157 0.22399366802292775 0.15224728591491044
0.30971370080982297 0.24582012397485187 0.14164249369738968
0.33161933638989183 0.2328594046857404 0.13652957348045902
0.3498522299949798 0.2572861437259917 0.1323613999858253
0.3438936783408906 0.20397499543790332 0.08664619133759288
0.30972718405632804 0.2371111785098634 0.08040336325437636
0.18813081720205105 0.3245104297861445 0.2857069705317201
0.16866209515720243 0.23877351829102622 0.11657432905604992
0.2942413521140992 0.25645876502997567 0.19101226085700773
0.36506436807067644 0.1827928529092162 0.14831969949362644
0.33160865946047124 0.2851743445162924 0.22602359071575506
0.7512297644388468 -0.14319815406103942 -0.2464414122698031
0.38860268806125475 0.14171689122838416 0.2385833129094408
0.4799995742072696 0.2148051990725719 0.3392852257114072
0.23555845019632216 0.33501121730500927 0.1089262585022226
0.32189098950193795 0.2779926656827314 0.10525870209040988
0.27394496218514064 0.2658289543965111 0.22607842360815766
0.31813432423486177 0.2454740494254395 0.15906129819452985
0.4324201088799384 0.28244524096142243 0.2654394947105061
0.22071312472712634 0.2933823457180722 0.13923658424384655
0.3188888364896627 0.2623326167886546 0.15409328178566284
0.26824890948785196 0.25517949025618236 0.21751763041663708
0.45826072045751687 0.11092981524819834 0.055226141356740754
0.24832393514373052 0.28767674467219706 0.2006297774130843
0.3618153059929341 0.25410141710923995 0.15874981048818881
0.4257734139275158 0.2467008099164616 0.11906213050227166
0.39471430207612457 0.2642257210621324 0.11825618872916266
0.2206512293802234 0.28409118318832327 0.1219935158826786
0.3068407759359957 0.25691076419377623 0.14000328778702453
0.32263404776060156 0.22207094279067974 0.14615547161476172
0.268797322375093 0.2784587848085778 0.2390560584130128
0.18968995125021593 0.28688921935520284 0.26394419065351826
0.2622938199490932 0.24389267255919833 0.18745036570572893
0.3543076615965788 0.22622626162089432 0.13179135680428544
0.3061406412153218 0.2343708458928404 0.14681077393896658
0.3609950100125445 0.28379292860964256 -0.0023998576382098236
0.33504369088964836 0.2806735224470174 0.1934652350629733
0.268555011113051 0.2567544707639655 0.1320612489717803
0.26351530194017414 0.26497980992256487 0.17165597776727282
0.35897053813003765 0.3506314976438034 0.2699157305629143
0.3247659714064355 0.2453555411038053 0.11094971690766897
0.32972429812241444 0.2727431876269577 0.05032608172804487
0.33614074955151807 0.23630820939521868 0.22533678570724192
0.42835697123467753 0.2215907949444187 0.17803969285540688
0.2632157775384343 0.20018022822353032 0.0676221502256169
0.4132323749089153 0.2074739165044548 0.08625842048979848
0.21918445494486605 0.23416190433752604 0.006832335544288526
0.3237788928220908 0.24583310285026982 0.17006566217099817
0.46170159487677154 0.24027401871245502 0.2112207540959048
0.20814160650280655 0.2804923635796541 0.12327432593922083
0.2333102591651368 0.3150725712117719 0.24974572246902937
0.27336629793393286 0.15535367526587152 0.05958953344774898
0.2938117504372002 0.27212617613616885 0.142804103773301
0.32369157730528286 0.2247501672141965 0.1043940779221657
0.3070442004460574 0.24567208705053645 0.0641503712015492
0.26008567112873493 0.2893179312615928 0.18665120180097006
0.2968263950541825 0.24193535671166444 0.12450628737917668
0.32839962521168786 0.2715969095233106 0.1937741672820863
0.3003723319939269 0.23692498153570796 0.10014128653216403
0.2803148376053173 0.2730556710855012 0.18361458836722022
0.46574024905524425 0.11786710764812369 0.23142175434219325
0.3450277309296723 0.18732594332482222 0.149678052904477
0.38407918792063356 0.28495795442496785 0.2363863994466584
0.35032989430089856 0.22750015290949932 0.13578613112022708
-2.328087147598481 0.2827644249350669 2.0824649389776084
0.5442564370755747 0.11817904884232178 0.08054745505091887
0.3203905607835651 0.27729617603094425 0.2571575340625003
0.31891980319039703 0.24258847623200097 0.10148532111992381
0.36607775789420316 0.24371340703170574 0.1455428201395108
0.2706248368774311 0.2546916264655863 0.1510875706302528
0.33684419761672757 0.29069889094829193 0.17010564879190326
0.3154791165422637 0.3399587085392568 0.28017636389660083
0.2585849652786436 0.37456290556986005 0.5698282897672726
0.31823991697956444 0.27137526623633335 0.18056693069266316
0.5943585686698327 0.2028490816545343 0.40060267891900025
0.31416547575555853 0.23965706113203566 0.0883623989331852
0.2362780408274716 0.6304700355618991 0.45206353252841325
0.34863564765399246 0.19475205173722543 0.06518485143985231
0.30719476024520986 0.27124639001874584 0.07210979896673564
0.26455938322149564 0.20850772021333341 0.22600330181469985
0.4511015776895988 0.2453675033765279 0.0049656677549307915
0.3124153992427665 0.2731949172626287 0.1555773386557746
0.27048190828062957 0.2510153670423847 0.10128831162433016
0.32265450863762624 0.2965430193297607 0.22647314473934443
0.18962000853908023 0.22930692745592296 0.26876938975345865
0.326828856140537 0.15040922322589267 0.1359610970278311
0.35547997970434153 0.18220834380426254 0.1323106626221886
0.18539422395662086 0.28347751158023016 0.1432827307664013
0.25101531702208035 0.2049707419394622 0.12540793397454308
0.3408348697095107 0.2331113104526139 0.1790711021766498
0.33210386103432654 0.24872814699043033 0.16012815103138678
0.47402167095516745 0.1970502446723259 0.11985254047718286
0.2949084176430148 0.22618030491304353 0.07613792376861284
0.3019340139618265 0.25849405311761586 0.037321291651096544
0.3018971547526803 0.21790108078766934 0.25841702096926156
0.018223729959203183 0.4204510945037043 0.03197612295574004
0.33046618831636465 0.16969716461582607 0.07861171817290824
0.30660542586051065 0.22706703654677085 0.23361128136781417
0.2988800240985796 0.07323536914678641 0.004275442658865813
0.36531223838187543 0.2920845615740717 0.20842139973430562
0.32978905110942947 0.15180534089660114 0.12634022987356275
0.04590930364884116 0.4355131211785306 0.3452843372680974
0.2605448775157413 0.255198358256564 0.3111373822114416
0.3019624733381079 0.2414635385506756 0.14676894614053992
0.3003641202266749 0.25927080915082 0.19024502438296054
0.26283463718237954 0.2797998479320398 0.05158649222158829
1.6829127112256117 0.5456746296534618 1.0749920240282194
0.2902321912793866 0.2510327976132629 0.1546067499196795
0.4215649435455333 0.15326684252356415 0.08828805601807233
0.3247273880932653 0.2289073502154082 0.11467131122635976
0.3484686049574748 0.3051738159687716 0.2120461542515102
0.3065093342635521 0.3035361957349778 0.21709854646047688
0.8266983876416134 -0.23536229646794027 -0.35619472741313984
0.44989152658212106 0.17560402916214457 0.29349421178415014
0.3717213437586224 0.2367427069492578 0.1590749121753845
0.33105983496130875 0.22565585497051188 0.17223573048516982
0.29661944788524863 0.24617837913064022 0.14054030458061106
0.24423082336579682 0.3139677621810222 0.16838443997207264
0.3626894424280067 0.28245708462364405 0.12596306717780692
0.3078674308031566 0.2529227921356636 0.20802193432925264
0.3496999469488742 0.3242694669848447 0.1995137389459387
0.24150933353180903 0.35920111609530636 0.3414452916917696
0.2747146313178348 0.2687907257875395 0.2205126123220964
0.2990012954453505 0.24244431369388053 0.148661305834338
0.22572101443242332 0.2386267742566588 0.18325403945118524
0.2803195273938144 0.27966936242549423 0.16743626427242475
1.2213207526530425 -1.213087495166505 -0.5486084701143596
0.2839413084095952 0.23368861726376622 0.052185125549783606
0.3844784087450819 0.2635042476215972 0.07238647626120098
0.24987187266863486 0.22785520610133858 0.16536232548639873
0.2881958235191604 0.3243633954795939 0.2044518756057414
0.29528288534176284 0.3693572079284735 0.2027301674120281
0.050494518635957775 0.37044566929310463 0.33574746845738446
0.27994062527741903 0.252535936668977 0.16113300911696626
0.3474361053174846 0.1553520742756973 0.16286821424607467
0.2649646954528464 0.27671468800672017 0.18485372868818217
0.2931951214338113 0.24373837663361542 0.12378759512094462
0.34556197258629595 0.3019028569914326 0.12761154370133454
0.3172332099407953 0.27215573879823296 0.12723019715571127
0.30491372496551605 0.05682817162252718 0.2571050139425637
0.33900166462180437 0.24014183760111507 0.23006698150564375
0.2835059628611134 0.26493914148727526 0.2385578040443761
0.33023451615127897 0.26404817610065834 0.13439352991625242
0.24909926187275744 0.2887880686234894 0.11565625924018264
0.35040549260327225 0.2883322865361322 0.18800391455292242
0.3948468012453077 0.13048443143932786 0.04167868921511797
0.29082697155985215 0.3046583878104485 0.19477985293012523
0.3137600677651733 0.19388276442154506 0.04376432926983398
0.3329250724205224 0.22451299239287437 0.11600387642147325
0.33458572184378 0.27124655825090827 0.12278750476230016
0.3836971012212871 0.22880779984434696 0.12589232414589446
0.33224468508969096 0.2765606356038006 0.24436051196789776
0.3267268365219991 0.22368579092101015 0.09547674169022002
0.050388845085933553 0.3155904346109537 0.13063366470809967
0.20949962807816291 0.34636379762466163 0.29994514597692046
0.32208403528969143 0.2360603209347687 0.1758581561209951
0.26835634294405963 0.2617816295440605 0.2054888288436132
0.2944728520691626 0.28837189122612017 0.15746241657832627
0.35910163859401223 0.27975764038851025 0.19052673365966655
0.23917068706359146 0.2739329988654333 0.1301493620518812
0.31766661073606883 0.2665379537835548 0.0715316768887817
0.2928396980887271 0.24849566133673306 0.12193843185306719
1.7132378014892424 0.48891158467230866 1.1074796892585823
0.23516108346765918 0.2537408570098876 0.1073056726276036
0.12907899558813085 -0.09240698582118512 -0.3181143479376374
0.3272554701911474 0.26811471937398323 0.1527570332869601
0.289868122513667 0.26511431961395715 0.21560132772495422
0.5282957340364618 0.20622736226454208 -0.03607240633834863
0.6368256643391703 0.004811508333744996 0.2905776302978609
0.3193599486937586 0.2106325022709541 0.09181017216454279
0.35529702719857426 0.23409846945496326 0.1528212860300897
0.35459282626766253 0.24452589519665935 0.07409608404850587
0.3304041435610401 0.2817541654626581 0.13967909504256681
0.30498452764838646 0.36028170369016266 0.21091750275778054
0.4862915136838808 0.15073929048740808 0.10008721285518618
0.30000039242547416 0.23589764797486623 0.14410057537739362
0.2963277343090027 0.25765690484203674 0.1588854780300153
0.37616740895091993 0.26649436684931516 0.048487151914685
0.24798268946808832 0.19287676664532682 0.08888702867716347
0.3173697667530462 0.2968424377336305 0.1622453014658447
0.29873920680053345 0.26958594971172545 0.13712221263949687
0.030938215703287142 0.6124522971976774 0.1699018135190471
0.26872846474405776 0.28789281044001314 0.2587903979352859
0.11697723649655245 0.3932933906934437 -0.11896116756207675
0.34025580639408304 0.2278478546000997 0.10016888138881086
0.3180175191488388 0.24513341965169388 0.17553306109908817
0.2966902646140568 0.27759698718965353 0.22849249048826437
