# .PCD v0.7 - Point Cloud Data file format
VERSION .7
FIELDS x y z
SIZE 4 4 4 
TYPE F F F 
COUNT 1 1 1 
WIDTH 813
HEIGHT 1 
VIEWPOINT 0 0 0 1 0 0 0 
POINTS 813
DATA ascii 
0.3354585557387395 0.12664544867945438 0.15483387907238466
0.2785166093475766 0.2568520528421203 0.14851858834865084
0.3326630917482021 0.21825827051870306 0.06432285102809487
0.37043993039279144 0.2581821433558389 0.24140962736200322
0.4661397208519986 0.15905106592374807 0.11855325589844767
0.3449594437784924 0.18873848287499584 -0.012309618937649702
0.48454833743619474 0.15739334697084928 0.1573930917407722
0.343885967400297 0.1930425139657359 0.10964240654627133
0.23246637150867855 0.22455667476427266 0.05343654828843114
0.39346408247820364 0.31638843400358496 0.22913184116660545
0.2898473562224524 0.27473329076521225 0.1548816334491363
1.470084498538455 -1.5018596786433278 1.636111223681354
0.23563539151800228 0.4145751828825155 0.2509013758472207
0.3252023879010153 0.22766498733963658 0.06309918279731619
0.3547183978551942 0.3132860282563712 0.21660330545100237
0.3011588716013023 0.23318123332481377 0.0896363644659175
0.2689854370171645 0.2548045429711294 0.2291712956216827
0.311126454035886 0.3006907806527295 0.08662054266871166
0.21115492528670643 0.29563554604506237 0.18161012587542302
0.37307466467973427 0.1618196120412847 0.03411200066861397
0.3507842870059221 0.23934623447408399 0.1570770663298191
0.24944194813593867 0.3996076738239651 0.3898998894327974
0.32814604051924334 0.20373896882011877 0.07158377714877417
0.22168208137266276 0.2816001100425751 0.2081843797080012
0.28443228211924065 0.28184365077628115 0.15415908167128123
0.2800041987862585 0.28588464294439575 0.1583628273333204
0.34419579378274534 0.29791038423108773 0.15265631735206853
0.2209850156202151 0.15865516675137314 0.31099473989382886
0.374305820575799 0.20301893631094003 -0.005303432225275628
0.30666062987513953 0.2515571158320711 0.1612165108749224
0.2947633230792661 0.21652713961722725 0.13091001626060006
0.3232806298047137 0.3054361210656964 0.09185463159818141
0.18946996967488872 0.23525297988953753 0.2269268908759159
0.3391346776650721 0.23762377019041026 0.12420599773378171
0.37068055837636393 0.2391301605192666 0.002666450593750369
0.3306404991389513 0.23941555489643918 0.12663000068539532
0.3364169816961464 0.2759904553201693 0.18590742544981254
0.282667114851165 0.2829445820864862 0.17334154688127512
0.19376172010993287 0.39288972300013825 0.0773522847574668
0.31468656449042953 0.2553121861797081 0.1681942634521505
0.3464116031661746 0.26680123933340383 0.19768742037078368
0.2626065185510811 0.2608553792044006 0.1575863250126588
0.16018970979703795 0.35530089190777403 0.2794171934299783
0.2790255864673554 0.24131308163687493 0.22509798205182108
0.34872290463536615 0.24285997410896698 0.16891267512811226
0.3158581935647078 0.2315026150992452 0.1319992111094166
0.34195458926171796 0.22513304520713007 0.11563132091137618
0.23089105994473869 0.36558701740860045 0.32987596246786666
0.3204876388483484 0.22171560303618776 0.153837191438555
0.2885907300630919 0.2528793937794802 0.1885604157275509
0.29713739016466434 0.17965197008700784 0.06991308661105222
0.4090620446389721 0.19274811759072463 0.02045457030686748
0.3338639847914635 0.36328474265229715 -0.07431708385726665
0.3549512421662939 0.2916168483909871 0.04404230430731104
0.25464602977501727 0.24337501147388707 0.2697052164681111
0.25160357375216336 0.28898617063623533 0.2074241588609027
0.3274586262962771 0.29100944745681545 0.1720217518208642
0.30963963976097375 0.22085058212513786 0.05633511541861935
0.6699149333308299 0.07065859391313722 -0.14210177276929414
0.26380776873702416 0.2741369738454864 0.1363009645004638
0.24596022758538538 0.25133471811514596 0.1594102686431711
0.3328403063516703 0.23184883291898473 0.200349500524041
0.3627265144178011 0.20344356533374253 0.09111019870579184
0.24219459114348751 0.2703673182599289 0.13808109769220778
0.33870937084127206 0.26259280043171884 0.1222776389250555
0.18408547631224792 0.3834853770680411 0.09341816824979787
0.3397866844469206 0.19979837491408148 0.18179105300589526
0.3357690822088273 0.1999718653213165 -0.002707060616671697
0.3879310322903109 0.2262225307210315 0.0006556188895672221
0.2791453544093798 0.21317312408876887 0.06831941000760366
0.3460096432919215 0.2358419207942717 0.09069903860657291
0.26110274494845953 0.26057243906737426 0.17191113986982032
0.32299868262828113 0.21135082564263996 0.005380003932529576
0.1779003907577419 0.3272686091521564 0.01422864445063965
0.2892901282100411 0.2463833343169597 0.0373154769060875
0.3214867177713643 0.20266774706377078 0.13838460703084365
0.33939335781943214 0.23585258684973098 0.13921699345284821
0.3464843783624332 0.24697283548148619 0.11383594618513371
0.4190390016190122 0.23199805833463927 0.21998967304008943
0.20419540610529907 0.30736656728190326 0.2900853262359533
0.3117408608458163 0.21698919910980408 0.05307501485410171
0.33277743666677395 0.29565267807299733 0.20034761173457127
0.33164496314063285 0.24315030328014586 0.10479774335169623
0.2544174739669103 0.23493432916947654 0.18145237153342464
0.15837004314079195 0.5045570604913081 0.37046639361243194
0.3355860270317521 0.18537414603503066 0.13202487716816336
0.3436964568858514 0.29224516397604816 0.22536357461936518
0.3216699327341388 0.2687492597260359 0.15258958369601316
0.3011971300473135 0.2607867198598939 0.09042943418651817
0.14122637075794842 0.4608913839954596 0.15781655444320108
0.3724063365319239 0.17925181567414938 0.15075072729996464
0.3499288655736592 0.23500561231429629 0.14840169044867935
0.3958988310863276 0.3198752759115564 0.20116688616764122
0.339037320024687 0.1992778752532729 0.00403936582800668
0.583446274533344 0.6913848668279314 -0.10363892926008589
0.3082120083452651 0.22109571122855698 0.1310472354685288
0.13656711839479385 0.2738969210844715 0.2865638783582938
0.34957961202437104 0.2860778556913175 0.23661082143976842
0.3634220996342066 0.30560163807436425 0.20200212064288792
0.2988079889832136 0.2562835165115587 0.16189961501453354
0.18369836372903592 0.23065223167725435 0.3141317333203517
0.23373086045535274 0.22057899908358536 0.13656260791036345
0.3589383137840656 0.28598367231140287 0.3223244806146397
0.3003208014047374 0.28333122056983484 0.18207742385712322
0.3148046886123126 0.2136997667736864 0.05650234119289621
0.2419657893326672 0.29668511245540685 0.23201219971085152
0.17269756093639899 0.3850225826664797 -0.027478531597793676
0.3717739699063429 0.23039717887905908 0.09469107341097072
0.33567758614728405 0.22453803339973888 0.11842093805552167
0.3067795541518734 0.2800718783065008 0.2198840526065311
0.36842785824740076 0.26878273614489956 0.04273122544107366
0.3329216917708777 0.19292906238611351 0.14747875270765576
0.3873169125270124 0.2222193985680576 0.09786128099761982
0.22096398418679541 0.31920312990915534 0.11999254781740376
0.2767936265935873 0.299083993532534 0.17218407358095078
0.32903653847822056 0.25471982075299593 0.15842073059613426
0.35891945957598637 0.2584503397767719 0.2535841497180087
0.29430224093565016 0.35764610599477464 0.2603733401334125
0.344436468669187 0.25211783751376515 0.13283249134505581
0.30140360749841477 0.25111648407592213 0.05293447036518728
0.13855591143115475 0.27291739994727493 0.1863977624981885
0.3232121979198581 0.265889799502105 0.135474793194021
0.25655795203118714 0.23179553180864332 0.07350006423527589
0.4315235818986025 0.10426679601664546 0.07983407260796582
0.35439239322548133 0.15301138158386607 0.009394295515107842
0.2945281794300456 0.35474910375930335 0.16791527056668087
0.41723640091731795 0.209941594926093 -0.004925848993366344
0.3156940265479875 0.17442595790069504 0.1693665543918712
0.3196272762145327 0.32582887036015507 0.13830393389871176
0.17066731429852666 0.23348323548245276 0.058615425752464034
0.1756635523277481 0.20971054175458903 0.1958502486313165
0.1614261044318539 0.24345237940764264 0.10592698286592395
0.34958821502355875 0.27541790561325286 0.1700006015335589
0.32292575215521424 0.2052980027246747 0.11173334177325955
0.3066362173935602 0.2540799044618325 0.15507225843745687
0.2309860884615631 0.23704740255195134 0.13654015545643006
0.14531744508909128 0.5198329911329722 0.5084679904919795
0.231115063294979 0.20388229909329425 0.12703758897632156
0.15997423970026148 0.30875035802230855 0.1811102486261973
0.42304036216889074 0.10923774079466853 0.1302726094474309
0.24307961760263197 0.25441304363599215 0.13373663170703765
0.39326736342154334 0.2487226383641712 0.08754130460967247
0.3509022595539051 0.2988617931940212 0.2631349486981236
1.7143029474820537 0.6556346428722861 1.108394883339173
0.2442024772139746 0.2673227967684255 0.20863546315138137
0.326569412157113 0.2311928322863821 0.22383905199220067
0.3294890778322781 0.2538620783957555 0.13780667345035624
0.2682509872668959 0.16874812187521115 0.0398510742504925
0.40466266790674865 0.24036221940262692 0.02566122701202289
0.3334569854399092 0.3125836288250383 0.18518931747203737
0.33539479432502617 0.25044365901860033 0.14280631563727297
0.28845173633607146 0.2611007686857647 0.1985877886338301
0.3564738607556137 0.22667524270050876 0.0437022535916185
0.2723796888216725 0.3057785906384254 0.156106634587573
0.2932585574851032 0.24664325703128043 0.06785355243081881
0.32646020220254 0.5419662493718249 0.42417376652284133
0.30350502594035333 0.22782794253490124 0.12060298409068082
0.27354316704324333 0.266595926714416 0.20884292265213844
0.32761457209738865 0.39802984182321666 0.05591057517423792
0.3046053018515664 0.20729079807622952 0.10164456102428687
0.295821479395201 0.27975962689480127 0.16924139986389264
0.3103200707986673 0.25824878541419594 0.1446802058528931
0.268084499526708 0.2789366704824374 0.2040491228284793
0.09294232935376101 0.25666626057767417 0.24844039815201313
0.31687253707673335 0.22939597747290463 0.14555673035722805
0.3835969768439895 0.15525765841692873 -0.1529267416279083
0.27910697375111226 0.26248815753649524 0.17484696258246402
0.361344638586246 0.2351312543794961 0.15042538956396356
0.3266682571692172 0.21418275632370865 0.04858730885696616
0.22964421088889253 0.28851605462509156 0.1944775981007183
0.27669707867838156 0.23540971528396426 0.04962393888462202
0.26763328612742043 0.27866412524655004 0.17442947084546745
0.3179340336284042 0.2386083895478066 0.1374432975748192
0.42189097878488724 0.11116047946663343 0.044944891002771215
0.25340006723507713 0.3478140412412358 0.12684515183632072
0.39026759245446385 0.23379320171545714 0.12529271977091128
0.304205767111668 0.25717553123746484 0.15640169878558652
0.3314705889155647 0.20432860104236283 0.07525736035935893
0.3313913834401774 0.24704477101910527 0.12050017629883314
0.26866371697495595 0.20593471585543455 0.15159925164005017
0.3074679164707277 0.28796601591263027 0.060029490957845155
0.4389815093293805 0.24660289026351734 0.06314808701910124
0.3114415188018427 0.21546573404600622 0.16827934460657445
0.28144360646535915 0.25357649470939236 0.19067864246443378
0.2508489989666032 0.26780710678133346 0.17710958902394225
0.26520920628399836 0.2640051399466188 0.14381203817430332
0.30925316754206733 0.23177555594587318 0.09110893877431181
0.27851865530006137 0.2206027920339153 0.1067376706142511
0.381763066640616 0.15883634730388962 0.08042901231033284
0.2827347454088027 0.28001137204140036 0.1397942931770899
0.35915655162111193 0.23795738139651235 0.14916173350381712
0.34863612547931666 0.3587460379321641 0.3053893695683172
0.2926470215471113 0.15944070444695058 0.18029723053663815
0.31095864382561444 0.24918467833694535 0.14482386687163284
0.17200013594263908 0.28200026844081094 0.2562529030049916
0.2581990147122326 0.28068889227569116 0.2192904149843855
0.34684859179409955 0.2532214142674434 0.11341874977313182
0.3682999560093805 0.19919352376744826 0.0682197739229764
0.31894819512683625 0.26288200993596433 0.1252147331436504
0.337249152567324 0.2581348409167106 0.054759429018901074
0.3228586707726322 0.24255681624853764 0.11771568427110424
0.3285913580025124 0.17043981081955906 0.14199896949986623
0.32610280664115976 0.23277002178241446 0.1473554302675666
0.1559274074471375 0.1813793305595368 0.043306070417173714
0.3342283066785683 0.21266157314130396 0.107797918210224
0.4490473817109262 0.13595769610023467 0.05518669789957187
0.3407160258701083 0.326662403664983 0.2509404484535054
0.3312663149813204 0.2007708987076029 0.086935642253124
0.2368416265718878 0.26270628557196574 0.2961012705193298
0.313819132153057 0.1934814342057365 0.06194352221166355
0.31519595189875815 0.23470496897654414 0.15843914864163366
0.3453777474970394 0.2905961560638275 0.21756333365938474
0.9471817900044641 -0.22997946900056832 -0.22645695755613815
0.3100930721856514 0.3181341902126178 0.18346486485665991
0.3130480956925794 0.24374050553916504 0.15005780306864835
0.3999169063250889 0.19667053560644376 0.05511494633483949
0.3457050452206829 0.23967652442563292 0.15836857497444612
0.284047365409549 0.2453169612598174 0.18195649893635846
0.3273048161238705 0.25821267562312755 0.14598071930004153
0.9637938302658426 0.3209541274401033 0.4581109378622159
0.3351267842043768 0.2266614834626921 0.02852311368849314
0.3980167359182474 0.042443575513630094 0.16609884496250515
0.3604880657133549 0.3658413440525692 0.13272533050101742
0.3233242875717366 0.1658106838532376 0.16697794778238517
0.16732768737578851 0.25559791842985646 0.32110360601051013
0.07229566789186492 0.43798701287124686 0.4144733675042289
0.3162530873079845 0.22705655070183184 0.1922174572018065
0.31466683351105473 0.21974391081033673 0.022222397591207255
0.28700441005025823 0.26035744404960326 0.14753540389945385
0.3844024622372899 0.09131181512695719 0.10982666386202311
0.357359744004043 0.1392189328964264 0.016691926249535527
0.2230503531216641 0.35308503762323085 0.11126659300164476
0.36026362221602426 0.22608890494869627 0.09717483989865627
0.3486400418620974 0.2511790555218454 0.12533943348107357
0.32381429004627194 0.23439131643910116 0.13834844565893434
0.32890152170978126 0.1826226919365297 0.16605305236808476
0.43600719436750524 0.27660117072156254 0.08307245164785115
0.32398572242408363 0.25760065231960994 0.12837042411351263
0.2889323287523382 0.2687464349345703 0.1418006080994303
0.38856038646918023 0.271344235467879 0.20119048161434705
0.343656818430901 0.31065068266079265 0.18935786470412097
0.3047531720036858 0.21885721943630188 0.15027222314424193
0.3487553786343085 0.23445420108760118 0.12815948218131723
0.2471548189515147 0.2890409439837356 0.1072724967552432
0.29328630888653606 0.24851812172808252 0.08665477951058165
0.2813589278829056 0.2672228945537256 0.18842039720573212
0.327860719355499 0.2661483366068751 0.19102330483767105
0.3366041782660716 0.22377696598121588 0.217092570830431
0.24595390984279675 0.06425162444460852 0.15426956838274464
0.28481193593029275 0.25588621735249717 0.16788701535537598
0.33816636250188026 0.23679962226152895 0.1235210780416196
0.20810515035141464 0.24761897366428798 0.3183496087571598
0.28714426803135495 0.23992893710621388 0.1725941753248037
0.29027769792830327 0.254223707196914 0.18095360093764157
0.5801612635033848 -0.2601888431478301 -0.16189785816038693
0.31136234241131433 0.22358446732314974 0.08273331824454999
0.3525162447256065 0.22366747319993863 0.12534040156998572
0.3426790125409127 0.25920840639956566 0.15627718071149843
0.27911319220712016 0.3279861445564052 0.20174233716790013
0.31990049924009156 0.24095587042674538 0.10576730194969741
0.2575125539025862 0.2436132569968663 0.14986893153259473
0.33093964143013466 0.22566779896783373 0.17884760067772731
0.2621935118875456 0.29945291724928325 0.29592148901912196
0.18436246638788134 0.31082326032608876 0.18050208638643994
0.3496547615214922 0.23414119919843301 0.1377321991236613
0.3369795477606772 0.2639293106300329 0.09803377384042733
0.38428862051753754 0.18227304651188092 0.13464345358920582
0.3366139858557915 0.27061549426412057 0.14681585658648544
0.3523352121379304 0.18408983084972874 0.10989738457865883
0.16187684840355132 0.2380615965398647 -0.2209408962348789
0.26549930129080224 0.3570643091135821 0.32560640772904037
0.37332593806499403 0.1989193471383146 0.12599557437891917
0.08609179978638792 0.7676059538693067 0.020333172270767363
0.3147589940869153 0.24587649373174258 0.13816204009130217
0.22152081545436886 0.37019557075910825 0.30578392701335133
0.40298566192166163 0.12880839620640927 0.1781428035217516
0.3316300243798196 0.2826507807487957 0.20578260469955012
0.1985045577264941 0.2987939998932063 0.09397390988694099
0.366324953662442 0.0961306627282994 0.1470134962790155
0.31124599919617424 0.19343482421778901 0.1155014277085229
0.2673665339418392 0.25188339589865905 0.175022301593728
0.32354338690966244 0.13954401638312675 0.0560744643928075
0.24819035291912428 0.2382472943195637 0.10493259662166565
0.3262906817628277 0.27163568472658994 0.14342883110379034
0.3001970176952682 0.2432830150966936 0.161512705530086
0.2347145570664253 0.31661529461804605 0.240420510187505
0.37735852176021467 0.21038312864109798 0.10424863307922294
0.1572177708088418 0.2296978725378409 0.026867026837550156
0.3536047328846905 0.3071864912641189 0.13846778277442695
0.30962899261932364 0.2515581397383926 0.15667278875204715
0.3026646106323909 0.2571697515943896 0.17686046668276845
0.22307032891978906 0.27432120393821435 0.05089950592295622
0.35518592281755446 0.23175877415683033 0.07711321564909213
0.315045529419109 0.22341479806658526 0.11400968611422968
0.3367537990311149 0.2733267305190168 0.17156892949367375
0.3535318254126736 0.2544281516923377 0.1714854751613899
0.338081379199906 0.15521572388394134 0.19189466389386212
0.4482455195186219 0.06265228317798233 0.002540961752970361
0.2143838223591672 0.32489202779122195 0.16206410641210311
0.3148660607169802 0.21500260483563238 0.07047305642694823
0.3211449474816561 0.19650968156263104 0.09019110048140533
0.1842643783729443 0.25552790589699725 0.2290730995070902
0.350110178081394 0.21151053996052838 0.16187150301584552
0.31999385734133057 0.23866752276069292 0.12020676570460864
0.3600646883234617 0.3601529312397531 0.002067156472151055
0.3215001060697773 0.25190569735279666 0.1460191020822208
0.30967595920532176 0.2434599697877502 0.16304493312598822
0.3271653073775269 0.22701442033215358 0.12392240231328344
0.04853329080967228 0.29230418273607484 0.10466455431681254
0.34684952804192903 0.24260184710617239 0.11054363719847515
0.2933466018594686 0.1961891327813987 0.04485820693591336
0.2978262174569437 0.22442332229897488 0.17025307577647197
0.286043204870694 0.23536335150288323 0.07877725258668988
0.3046232478265125 0.2490377651572402 0.15874452044408827
0.3597218285592021 0.18505274497974256 0.025197558051203828
0.29740122066962726 0.2842347194642798 0.16038573240709297
0.31956062703631005 0.26533590919510175 0.04367703605174711
0.3338732549615884 0.22958976548795818 0.17611259923268108
0.18702153395685173 0.18878851182077483 0.051142176628246716
0.1455565881050802 0.3519770285696495 0.361373682492669
0.2875625954055465 0.24307856902461822 0.019288220894566166
0.3416148416793021 0.20016687557071577 0.13428994308532083
0.2035129361437953 0.2587515286119242 -0.1049407370495885
0.3196944675785005 0.24195553621245836 0.1309400317435916
0.3454626110795118 0.24769440440856272 0.11090666611502797
0.35278068714184485 0.23829326159480502 0.1250789959184999
0.3789796346182186 0.2604212355556399 0.27291425441849526
0.3286832103013779 0.3414501188803172 0.14948328776296194
0.2461757557834119 0.25875791686529226 0.16537739813392704
0.3681624964878978 0.2105422949066167 0.12061129549704219
0.33742541210327204 0.24067078560341315 0.16771936402010112
0.24900045531623505 0.3578920588745973 0.06323931457377796
0.20691703511381832 0.37010950181131363 0.3040400518058277
0.35193229193338027 0.2436057281593378 0.007351609496964784
0.38687034641318974 0.19642975503512616 0.16945497471824922
0.29329144436621846 0.26404699249587793 0.15882063908017585
0.3138640361827356 0.25706854173094484 0.05210477265212887
0.30490276595189414 0.22692053692077252 0.1385929019772334
-0.5830930563153061 -0.26855947053556406 2.4069632301490174
0.28556307202589437 0.2549890140578839 0.18293267564875748
0.30799264880251087 0.21952819292150139 0.1581553962761575
0.3478488329204481 0.18248350989770756 0.10815139651947447
0.32929090597806976 0.25494627933233005 0.18801823919397975
0.36740128581026 0.2102018709829423 0.07195930045594423
0.2922364447414907 0.2432867929584006 0.11237753618621582
0.35283908281597576 0.2601875984762927 0.14012988712360652
0.28067045364203125 0.25330314290597755 0.0496778076687292
0.36035077204593335 0.2673723490611337 0.1671297829510081
0.2669274637547119 0.25873436347650625 0.18447653462808944
0.2733548956904883 0.30352004411835765 0.18706795874460624
0.32310781439679204 0.25582313609993435 0.10188271685005645
0.3756426706260356 0.21219442022783142 0.12677436537251197
0.30984366887085457 0.2349151917090211 0.14072457069892153
0.1203788768983145 0.3800382440321499 0.064211202063305
0.2601658939988738 0.284309722468123 0.14711407571709856
0.3322435344534256 0.2227984498528599 0.10398139766215309
0.31314435769149895 0.1827043903771539 0.0070315900220379035
0.3317635827951335 0.22731207993439284 0.20586279879017866
0.3377960970652083 0.2831318016346529 0.2819312192805512
0.301052698925659 0.24815432034375817 0.10149809347234395
0.33111033423722347 0.23894615093948346 0.17040361011547134
0.2659592804980804 0.263447368580799 0.12131935011134942
0.3497307136487109 0.17576419256121767 0.12045983105450375
0.34518292650258786 0.22522428390514904 0.16067602757176758
0.28837705845606365 0.2851464254238465 0.2221604918723017
0.2783309172387476 0.22732371664521622 0.06545029607417518
0.31557773537861067 0.27957659078914787 0.19694834655452098
0.31588952666720616 0.21808957943716223 0.0752268290153495
0.3250829937781248 0.19796470193870164 0.11601682591515328
0.34017926373491036 0.31084442617705577 0.1347373255327824
0.352845381816536 0.34428234972946825 0.28760729801707896
0.42141247655133895 0.20918763936595042 0.02021561167256891
0.33218590438397655 0.22406787985769938 0.12445207505035683
0.29349257210674295 0.2613054538995101 0.1593001639019036
0.2979797433040403 0.22904760452780693 0.1169362099994089
0.34257419654201726 0.22221194581817372 0.06729470618068945
0.3303244902034237 0.3017073747327004 0.1514322632780818
0.3345319174924839 0.20309387289549363 0.11210090963814423
0.7161166061092388 0.2781630717611847 0.5554613101278107
0.35845430814435986 0.1612481353471651 0.04886486472430818
0.36205536357681467 0.2252771842309187 0.16206077415213826
0.21582061479966796 0.31577433283871414 0.15091455942797438
0.3134576241791365 0.2574914865422784 0.12794896241896936
0.35979946943585617 0.08750633880276837 0.07445343782795533
0.3363094565110316 0.22436432662637174 0.17677121336416235
0.23683526623531748 0.343105989340728 0.18024230573088573
0.347090288102919 0.2356420882478858 0.16799626509774157
0.351114582153059 0.2539218619983217 0.13328213508219733
-1.0134693293920805 0.4025409313366026 0.7224996317938803
0.2795428265704629 0.24985608370768375 0.14415226662924852
0.21285607497503634 0.30048705109132356 0.2676363079906565
0.33095379456918295 0.23896740965047059 0.1415619935290664
0.34444892682464 0.18255424237028706 0.02919150478089705
0.274923979632689 0.22128743999265055 0.17734701494131855
0.3987772526510014 0.04796166006133262 -0.011967348110005105
0.3043445793223185 0.16508661035993555 -0.019708704965353263
0.24600614886766436 0.14081921563331434 0.14258815341668196
0.31804590526822096 0.2315755132430155 0.12185375401581666
0.32172941998182125 0.2532809106083107 0.15421891153050638
0.24599851440072484 0.2041024106044489 0.08747386500085952
0.4162759256816173 0.20625539221562406 0.12355180236434649
0.37974073433893807 0.24776833922832964 0.16267447988508366
0.34346279245482947 0.24515883333727118 0.14018450679591865
0.32947151234203886 0.2478896010790379 0.10685377334448276
0.243606332850959 0.2805346597951939 0.23410130789007155
0.2671878588407992 0.30305299636528105 0.14644723926177505
0.30121942575831895 0.24023057108712464 0.15732132423536882
0.32314791473396554 0.27272318410444996 0.18112894215806818
0.30457760741862216 0.24787567887713635 0.14406546248598318
0.3337759915100236 0.25657186500782814 0.1616701126219766
0.36373494601065204 0.22410174392101112 0.0870357640150985
0.6446153169736419 0.3127418387556986 0.6241595997061609
0.33450365166414997 0.3321943709147348 0.22075308717299436
0.32956916064672725 0.2673304568301802 0.1037958205309053
0.3482513615521299 0.2140567441589667 0.1675862469776348
0.34817091027179004 0.26222982145887386 0.16398223400717882
0.29514846376193304 0.13108831893424622 0.2565823503303477
0.2141190578301746 0.22952170411956274 0.19381108258045288
0.293392409914361 0.31164913393001825 0.18024454927751776
0.26145404669625805 0.23319711326229253 0.0686611460055957
0.38455427269393283 0.202446619398998 0.16456582377131213
0.2087526511213298 0.3037221932888201 0.18001417688046217
0.38443478106299267 0.1324065532508314 0.1914449960332263
0.28906267968221755 0.22784291432364512 0.046143350390735804
0.31673728484025787 0.25189631220334263 0.1272123683259565
0.2998524917973384 0.2672262812951942 0.13159856177682627
0.6663694787948629 0.5910026578477243 -0.2873885213215317
0.31478984537325516 0.24615176139221262 0.14082273509325205
0.2707202384908385 0.22478358046168978 0.18042831940499582
0.39315901241303663 0.20409935890975817 -0.110736971476328
0.3702750613320802 0.20629519925742557 0.11626615380120597
0.3439458271162863 0.19733217385940804 0.07462422552248427
0.41080221714371135 0.248354960536318 0.10922961234946627
0.30084820173220805 0.27636735147618197 0.19211769593306371
0.3223068693361313 0.29816347048335956 0.13829994316935768
0.27281144295784543 0.2270299802861473 0.14721183842840446
0.2939192121823311 0.25046894215245175 0.14716892335016496
0.39327959313979477 0.24678424674979738 0.18506732797266068
0.27584132408151163 0.2423528408371709 0.11105884954274359
0.47513533256500295 0.4064301479382948 -0.20976465976988834
0.26613671734796185 0.2696755078822548 0.16315194322113769
0.287642573045801 0.15597508399038418 0.11076802957342125
0.27462390995134456 0.14918280145292329 0.013261108344551076
0.3328702430963233 0.18114647120623317 0.009527689541585005
0.28950803157414384 0.29089679072600916 0.17127708359348048
0.13108454798420155 0.42214497692822306 0.028906607540506002
0.33822351478551127 0.269915820643746 0.1726854568275087
0.3720546448211195 0.16580878364575824 0.12059383671035562
0.3199385569214712 0.22151620193496058 0.23033399685235167
0.3149984432951669 0.2484336986853748 0.1524590067235465
0.30364442452922447 0.23834709941608878 0.04375782313731236
0.42114831117643803 0.1821455166117687 0.057959902427469956
0.35725347347135994 0.1934631722652398 0.07685217518309173
0.3248964027376644 0.2652534169008618 0.11546885279352637
0.23472301464229872 0.3017013948279441 0.1993413831374511
0.26792109327180924 0.31758662900146817 0.20484137904395538
0.2894554091920014 0.2559470054880535 0.1320104684120622
0.2478786870678107 0.2223061329165148 0.12692456027647836
0.3259189254729904 0.24061157764079155 0.10309266394133942
0.347973703569906 0.14303170523906772 0.15559149423937413
0.384787590422178 0.19373203860857302 0.08621796635740964
0.3719186316081391 0.2069529965918946 0.034567903124255395
0.3624654537473191 0.1820698487736081 0.0913127232938109
0.29016099442962684 0.3325354991317653 0.19275968990136505
0.3231257481618002 0.23933107963198097 0.16843598678843819
0.27529005408908347 0.23846329005455402 0.17383056711884137
0.40206072557839434 0.25694472118840395 0.26200150131651867
0.33786756602768264 0.2352632017186096 0.14979428216057045
0.2752986175225942 0.23947674386057827 0.08790181446101997
0.7241017373110026 0.041951362551714055 -0.18232707435618067
0.2491239175624571 0.24509817538626066 0.21005844030969456
0.29606431035166736 0.3239218614898931 0.12623440842764921
0.34291164394244333 0.7566958682957647 0.09101947763917906
0.33330420409507155 0.22299540230230264 0.10805922338514051
0.3475857521329857 0.22720267777238234 0.08536923387306672
0.33146848332401646 0.2562343224935262 0.20867578270355125
0.3336454375157416 0.23630873509134176 0.10746355098163463
0.31928668905138125 0.24182937481549516 0.14435281427992663
0.36149503021044893 0.2275669740296422 0.009183211165009197
0.423741103255054 0.19060818529622736 0.08267225087618613
0.34159175231246763 0.2533656534503166 0.20538246568358431
0.37705655394654514 0.14462757250473146 0.0019962623401994506
0.32009300885664516 0.23619382305916758 0.13124504669831083
0.4227338511141312 0.2616935494288555 0.15326626714637825
0.4280030603886473 0.20005857107679503 0.027727748864322166
0.3419857042562455 0.2403252062879062 0.13794501854289365
0.2977951601203017 0.22037967156560967 0.1558467380376385
0.2066842472538326 0.36224671494201743 0.11705091138702528
0.3692561713529301 0.3052641855437628 0.24846063369164995
0.3450543984970267 0.26043973291069733 0.1135002803396219
0.3115466380972123 0.23490982740415234 0.14645027558407264
0.32091773486695274 0.2445302054016878 0.14074734668633937
0.332083542248256 0.2695260762370708 0.22469643792717875
0.3315734719887615 0.2915083512490213 0.23486282491829513
0.2443430533198523 0.18852560890360337 0.4450164760742723
0.23605621823151068 0.23759209805001547 0.055878782340570865
0.2978705252440079 0.3141708393438165 0.2297415286504787
0.2950866706507611 0.2158993053479037 0.0828115507179632
0.07366038601192315 0.35013194914178314 0.1817327519444234
0.30607245777005687 0.23387930242145671 0.13064158960519023
0.2821100232729066 0.30129053515415194 0.20877319388142723
0.389853822542392 0.2615694514424547 0.24445701614308746
0.3274480585487254 0.24048402409232494 0.16475703717915735
0.3553477642741143 0.21756917297442158 0.13747669547937846
0.29979162835803663 0.26457606623543484 0.18992105052338104
0.28045519789934303 0.2709280302511843 0.18039584232248274
0.39049797604691605 0.19030915311310537 0.014021168565818698
0.3270538975336308 0.2432934208794535 0.0528114000734945
0.1465453700104291 0.3050856859848352 0.27888251982298584
0.31791990189123 0.21265797344085513 0.1344500487019218
0.23211047856196387 0.3352502463736755 0.25258917446970486
0.3930266186869176 0.24070134488198391 0.1585639434263726
0.3754550186969823 0.14597970665275284 0.13071908059694692
0.36803344925939996 0.1953470499900618 0.10250886793798486
0.25327638316983325 0.3111655777438074 0.27053194169886297
0.3040133330662229 0.3034039691656858 0.2538807300636279
0.31108123064194615 0.20703836893116545 0.07212231594397167
0.2792987200874393 0.2683541887444818 0.152929774244015
0.36906659841127976 0.18438913264719758 0.1522085590623874
0.2764256294786662 0.2059824773493517 0.0729335143770129
0.294625862610161 0.28330045577291685 0.1579351535752096
0.2858021648632132 0.22737543234603663 0.08199569471636892
0.2965178049911401 0.20910528016842989 0.08114214252526608
0.363839570644231 0.21929142901153398 0.16581122220068778
0.31211158648170567 0.24465571462368985 0.1583243459024004
0.3662765447313632 0.23981487624901376 0.08605246770549968
0.2668776911106221 0.31220241041100394 0.1748032327924136
0.27722887755962233 0.2120834821151334 0.10895776257962098
0.13649506871931294 0.49503954828855967 0.31522617179059864
0.3579720099314727 0.2528924720179191 0.15964203086437578
0.37347030204486487 0.16291915658956668 0.019386595105714832
0.29177127552216575 0.2614051863784397 0.195584537059716
0.425850978211912 0.23099427198768296 0.08046549461300856
0.36711609274647117 0.18469710719512022 0.04285496153366353
0.355534399694335 0.2652887646277975 0.12650799074870633
0.3055361435188644 0.2105672011059596 0.11464300792499671
0.25668231168606326 0.26536909428925526 0.12020005492664154
0.30219972919553584 0.2573560699561881 0.15206824755966863
0.4051493443499936 0.13331034249772244 0.1513503041665274
0.3082790935257549 0.24111644029635215 0.16186877826126533
0.3220335374699914 0.25870204205085656 0.16530806176982082
0.35724635822853656 0.7135507148689442 0.3310497582522345
0.2978612979954818 0.22825424899980362 0.08605399945639647
0.26183476448721876 0.27222357687213616 0.09456059375696668
0.04880912848497587 0.4326064690919509 0.22770569731110868
0.34641729351314154 0.2679990895757811 0.1842872978045733
0.32830952332372476 0.31267479631461015 0.14514626031241562
0.2973909541472324 0.2835492212807367 0.18012538178200543
0.22221161926192678 0.32560338962284163 0.1293278858200324
0.3327925184534166 0.26130039709499897 0.015617327505481171
0.27995276451875384 0.28150061327130516 0.12765550556508742
0.33812654186417035 0.08811817176430736 0.22727028070605115
0.1848656707482519 0.5486253701409964 0.29598153106324787
0.32293300702133365 0.33450674089198174 0.16639863989158243
0.3285879345468743 0.23651703441387895 0.12890699983361742
0.4911197340905744 0.4438173739683009 0.11921374933231732
0.3891794130455821 0.185131079000044 0.14617616161655178
0.28038658226888913 0.2437659854226979 0.16183886870808806
0.3395354472575889 0.23003476313407134 0.10050697122093766
0.4114313932232392 0.09445351141950198 0.15893405984660092
0.3067949315441183 0.22088317630058896 0.1146273631181316
0.25145072967700344 0.24135348776985666 0.30675760380427164
0.3597635265156498 0.27554284746209134 0.22691356212058622
0.3137195811518154 0.24115321702339543 0.10565756834907347
0.2726417117908113 0.2463042775960247 0.1396023891798137
0.29638329167801203 0.2596915248311831 0.16173161609314946
0.27681020258884814 0.29930441443957534 0.127825161889092
0.2255408529337899 0.2491109847794064 0.19726132061131807
0.2809312654127041 0.28759444163569015 0.10653988351968735
0.23529585589264457 0.24366570041844682 0.23293687394843232
0.12540101064290354 -0.1419550828179439 0.25173606428325
0.23938920018822785 0.3357343662803771 0.09036514670646056
0.3293161390067638 0.2814036490797207 0.06015926249241943
0.3215372139678294 0.19487153729582474 0.3374778321437759
0.355578304573001 0.20924826956365905 0.10225063715893157
0.2903662921397654 0.2776379148705388 0.1536373275203715
0.203545216747969 0.3318864063478486 0.03611795099541837
0.36575217202342003 0.1916356976723108 0.06811363486274047
0.2951814362833005 0.289757023395822 0.1956202617553089
0.3385161053389254 0.23545837859143148 0.13591876345057585
0.2998584406082614 0.19898919390246306 0.047028639228670954
0.15458693990998995 0.3072913233001202 0.2861450584845642
0.25210633412672223 0.24024810593590473 0.1550766427177166
1.739037679407204 0.6611212194449081 1.0337163676012153
0.3436613353169804 0.26197483368426333 0.20125337233295681
0.33163624733180086 0.20560478759870193 0.14379751901437032
0.3108386045106215 0.23946778575954397 0.16212737533575705
0.26974233411169735 0.25018983452699217 0.1535544740525836
0.34251030091620294 0.2329784688998302 0.16882018599162052
0.29913455178710535 0.24304365993961596 0.1506482889821399
0.30768956849206575 0.3026465507124385 0.16243714810346432
0.18400520751060867 0.3102660681219902 0.022355589623941796
0.34760482143738614 0.23501874281845403 0.16138878084834118
0.308935666125393 0.2831124858726355 0.17104473456687685
0.29466529854090595 0.27010732925936054 0.17881879173913262
0.3869399416820869 0.21443570853718086 0.005916496680072214
0.32392168926246256 0.21756774028591508 0.12586782933576046
0.23145568009537953 0.26090562511610926 0.11790883416874465
0.3224619947127394 0.25597634999742525 0.12595988028405714
0.2337721179047918 0.27685055954520976 0.14819272139308737
0.3050314373651304 0.24415585473104784 0.1183275160809103
0.31503541779544264 0.26753584519565266 0.10578105410604621
0.3103768138528977 0.2709644001714935 0.16856866946278615
0.3442991266790898 0.18521361883323095 0.139972060129125
0.21468281050823634 0.32719157539658283 0.17960669416217456
0.5333290490873424 0.17034698870045872 0.16095821695537893
1.7596992459471608 0.6676001387034773 1.050451245649782
0.4195596034820994 0.10943748877167536 0.2011070384521645
0.3897582597099216 0.2456741194058054 0.042935596040535984
0.3382528204821398 0.23604571188835166 0.16158822017020213
0.3433216728780337 0.23321892795993904 0.08185861393685911
0.33953960313380094 0.2037153674920944 0.14594000599201706
0.3012452285221343 0.22361209032470697 0.13506859831574047
0.2600152675377956 0.25182558696508295 0.15336660799886204
0.2712569612818072 0.18259654126961777 0.06354210636717994
0.36145848577251627 0.19427564219196825 0.12124481843243018
0.1945001508758537 0.3513928268030071 0.1429411688523885
0.31293111763554293 0.22344356529825404 0.02297337890900053
0.3133765393124719 0.2292472415115867 0.11694844105176116
0.4090884599768003 0.29757897834332425 0.15412297234573202
0.3355193790852695 0.28467307239753836 0.1571059966976378
0.9550549151715444 -0.3518458060542855 0.10829942718036989
0.3517363113845704 0.21407481378018645 0.1445086021450095
0.2531033474833748 0.23653757350795956 0.05743016349441632
0.28320712264206804 0.2888995502662226 0.20544106350337188
0.24936038533759586 0.3199598639513397 0.19857303593268227
0.4537103136614462 0.19699780054821758 0.04636300502272661
0.3288212360676823 0.15834262806387756 0.07483292114139317
0.48602804668362865 0.17406826537035158 -0.015152777238299109
0.2776193368334958 0.25270040351858825 0.12101861061219665
0.31417185891662314 0.2462352915679702 0.1000584307724921
0.31368626860587767 0.24651207950896037 0.13930193847076566
0.32863508639624683 0.33128260922404706 0.12568915312064632
0.31290058900671625 0.30038251518158177 0.25905534371906924
0.3480028024720525 0.2543361852666095 0.14715445505254365
0.33781399847525506 0.24584902977355227 0.11599692957280183
0.3386553211793313 0.20531812871612942 0.09927922784473253
0.28198574990784664 0.29787506063198066 0.18952700587269078
0.3036684071045812 0.26884540386875244 0.15551303271465144
0.342932018316759 0.17192779358971677 -0.35084629077735485
0.2591848603268403 0.3078369153939775 0.15654576409667698
0.3173041333850648 0.2637040451167536 0.04160256238057514
0.27499339802568556 0.25369052317253704 0.10797351066909755
0.3184427417117064 0.31165909016340265 0.16250165121090276
0.27159547629651115 0.2734504054511149 0.16701035181642965
0.28689066612494685 0.3244679592770865 0.18778228355722604
0.32136006418920715 0.17848376071185612 0.07863481598198518
0.3369842216633714 0.23247909179821136 0.13759197251260957
0.24933485651698106 0.3166787343001829 0.17914733563037544
0.2920832974438099 0.25739327393321787 0.16015891750151923
0.3133807460376943 0.27178869076497847 0.14295588801269332
0.3187830957111544 0.23815617559721147 0.09872847456244926
0.3563461935206931 0.21602889220733346 0.09078514962118334
0.32517248360767326 0.24619318519209799 0.13352377972512386
0.2671335557667476 0.3232139518431154 0.15506888494073223
0.30180366060767483 0.2381935374751265 0.14126495322585697
-0.0008903736989509525 -0.5198000624646966 -0.5150614089406957
0.3162298198967477 0.2704918647279726 0.08453074423738371
0.27877231580761475 0.3420278722082344 0.2824726540661402
0.26467660210265365 0.31845849621765865 0.1649118011770554
0.41368537550627593 0.2262759273606605 0.1109273508145634
0.29384926536553735 0.27224210371345237 0.08530002472568299
0.3070509075174357 0.23334474048641596 0.14471403260290572
0.3612678709474437 0.2676392020281071 0.13477667575303087
0.35357444467031485 0.2559917021462468 0.10392684728337542
0.29822262968949076 0.23426357135983267 0.10975082959228644
0.3325612328292209 0.30356172754321165 0.1319375280098285
0.35588448069027834 0.23516326318187453 0.09156915176023972
0.30252497021299973 0.23614623082917774 0.08466607735024922
0.35253800970326665 0.2879067260924728 0.2406828642626806
0.31002036302494673 0.3062667698670509 0.1907340590666422
0.2979112632534111 0.21365871645743084 0.10459233966018644
0.30215349944214154 0.24637685166931078 0.1491384614030551
0.6225080813965889 -0.23420364668351112 -0.3440717197418053
0.6391112082606014 0.24885654133811386 0.5645774724047072
0.27271089401583026 0.27044876734048273 0.10155640733830751
0.31316048105472305 0.2545471455359234 0.14748566258080587
0.3745256054904331 0.1582799754584272 0.07141116587258978
0.3167824827301189 0.26477078682823674 0.13755131763514328
0.17416441342794542 0.30032610495692325 0.30163106002707707
0.37245951154443446 0.19650976237666384 0.10203475035574172
0.2980011669571212 0.28100678128390655 0.11272647457295193
0.24716909829994904 0.33572541615114915 0.11828691342418551
0.3165741099925867 0.26362480632315055 0.07379768356281602
0.2916263501685705 0.1851884065856666 0.17810011306112017
0.29366140509941374 0.23859667696675046 0.08253266985703078
0.27963431768654345 0.24024115066740137 0.16530623011715306
0.3457524152387208 0.21549160992910288 0.06588625141642979
0.26580438418039876 0.2422994972612429 0.1119466504576252
0.33617249403442884 0.23435984543735344 0.12089494662707523
0.27688469736629884 0.2725592688824179 0.15473326991752856
0.3874302778431513 0.19274923713393832 0.05046957918105477
0.4012349807234443 0.19354505793135957 0.060522112481152135
0.321184821964863 0.23183964153955117 0.12102261376304568
0.3453071271357544 0.1827548330808213 0.12910488915721885
0.30299703202572914 0.2127851074175453 0.10156310847813188
0.3182313007076232 0.20868098477951946 0.0876451475697877
0.2807105806232073 0.2897935885161331 0.15864872932725405
0.307108758080318 0.3022715450006501 0.13265957229018
0.2862690745684233 0.3274794186008023 0.1174310683017552
0.2881042515362111 0.23733954231154542 0.08535396398673356
0.3442637214544817 0.2711867987108292 0.13384847188066828
0.3407205413263199 0.2577072888753946 0.13899204822710942
0.3181255888976864 0.25290164228322 0.12109892712700798
0.2701442186543659 0.24848764719502014 0.16170752057905702
0.32312598244186574 0.26236413791423274 0.19179466270017542
0.2514966759675872 0.3181709609610266 0.12180275336352508
0.2863349678115412 0.370547110572943 0.30415255927925955
0.3541055256841048 0.18416828595057666 0.1792812716400931
0.2884442439688826 0.24888222691821227 0.11223706549482415
0.23390038431389826 0.5615375766603137 0.2114477713943188
0.16848940266086743 0.4050420531501828 0.1245569143038523
0.32007672045619984 0.19667443375081461 0.024051290651414092
0.604401278807984 -0.12193642363305912 -0.18213488476087036
0.33673086776909145 0.2691553866408185 0.1718544407644913
0.26943912387545765 0.16649653797452402 0.03904593727770589
0.4355320448612332 0.060641023001537064 0.20594647074972272
0.2975076000394381 0.2547567864516225 0.10071050208055965
0.3003684167190954 0.2413729085893408 0.0872278501981043
0.32066519282344075 0.23435595937297649 0.16899062484156957
0.3902389551491723 0.2735264578867316 0.2495524795843096
0.4045664921139007 0.12165336250126302 0.07681944888909698
0.2829548180365009 0.2581760745723045 0.07037392787687224
0.22175925171006838 0.2388470196009962 0.15161716232798028
0.3203646881285067 0.24587047692719466 0.1478832977692548
0.3410489835964512 0.2338161399202363 0.19025687469637376
0.3832881919950353 0.2217242217672748 0.1295532505139647
0.3202514466888431 0.2657291128741406 0.17571719497972538
0.3074763149103319 0.28447689701582135 0.25800297512276416
0.353591258312008 0.2102304868886904 0.05153654800446361
0.272687914056263 0.23968747829906079 0.07748498159563155
0.3386110663606132 0.26696581148758014 0.24074498646098164
0.3462085514746889 0.243445749258683 0.19220998222959906
0.3403317680698592 0.21387338505294906 0.09946402964958168
0.3307073369994953 0.3015942712044648 0.12815283492813023
0.27687606461923053 0.23717489556867122 0.17231218360592493
0.30821055358893545 0.4266350479333312 0.17747697973237564
0.3616443894860595 0.23134746060010514 -0.028157033912094676
0.47473774467439966 0.09053331660953745 0.16614615918136622
0.329737949994211 0.22471757137721227 0.09747045140906607
0.3153740052066496 0.25619990815471283 0.13497929107374773
0.40962115564862245 0.18803755163978053 -0.010660746488838413
0.33346074502776446 0.22737702776103674 0.07306542691708273
0.3211615400435335 0.2544752318224681 0.1750303219187117
0.3658971841307306 0.20608613384007413 0.1213724380096437
0.3274609065446299 0.18699776222175046 0.10467843993299653
0.35722552233870886 0.32458902225047837 0.20704460846351935
0.27554260486158455 0.0831027323710316 -0.021868338783264107
0.33581476012480493 0.2669828024539953 0.196780551865416
0.3207174229312386 0.325585775092776 0.061255159379726365
0.16787380557566678 -0.4635092122253326 0.41746199910699033
0.26012922968641305 0.30544113048668464 0.24258733169233437
0.35276904010362387 0.19807365779018937 0.15458403009382948
0.37770902291703123 0.21206344465166183 0.04398005060829746
0.31776024011244886 0.2338624039351771 0.14691597148268443
0.27792460874314884 0.26632127452970167 0.17581681459191145
1.1877251615028541 -1.1770148093035289 -0.7126873062501318
0.3062782148205798 0.187107916690195 0.012631729723196372
0.36821793587724017 0.18131719946381963 0.055352748872707025
0.26848458522817964 0.22697779099934223 0.21502622555505013
0.29356322978009075 0.25621574145193904 0.16171832317050416
0.3465517600068324 0.23628089626967608 0.039381559754929185
0.3229789398911862 0.27711574113138226 0.12103555330602944
0.75113569308661 0.08769239035548537 0.36154299918152333
0.29409086353541625 0.2786208379658035 0.22081298645403535
0.30312925288208703 0.2552564840228513 0.11779264782062171
0.28540738700640134 0.27178410833178646 0.1551367732139255
0.46111701010616457 0.27113442577140745 0.147571227417032
0.31810969483868234 0.19514052190572784 0.01842775207927616
0.33228651905392326 0.2741128120746339 0.06857935147084504
0.18074952411132017 0.2864413711527334 0.25875656654845614
0.27167181529608797 0.26031487569416356 0.09552563420874094
0.24268303423302484 0.28136529591505166 0.1938996234256649
0.2958517604215274 0.2630128299398251 0.17414665867092083
0.32330778630765167 0.230270202974026 0.15679903031474396
0.1203269875949502 0.23553813463560402 0.10993066752077141
0.3132194710985061 0.23745451570380283 0.14841895123278448
0.21456267923767314 0.13506369663862472 -0.0006399561461023495
0.30646127834447157 0.2220984575397864 0.1584769332070266
0.7563212837468711 0.2560402069087502 0.49665689577683736
0.2985030383238012 0.22318277291036281 0.10446632628907082
0.3100753354811161 0.25808002750213177 0.1539812580480202
0.3368918793088085 0.1954328536709511 0.038272081076996756
0.37038928820525996 0.2022640017076185 0.0846578130075244
0.2414231458319307 0.26552132959494656 0.14930378009634637
0.3156465932298431 0.22036789525517975 0.07681825388564789
0.33141713986650245 0.20310296956752438 0.11321142390397654
0.4124278490137385 0.20374649516513443 -0.020044485452530125
0.3520317166183986 0.2263779943462083 0.13433246585765346
0.38337814841816 0.21328061259876563 -0.01638553817332422
0.312050789314128 0.2751655560366544 0.12499659466871549
0.2589606151504995 0.30701206126153124 0.4111428646906461
0.35634817650353057 0.21462792098887462 0.1409164364960418
0.3271218095154609 0.26296947926870473 0.12984980255916412
0.3084512826572876 0.25915790098162006 0.19067541618434802
0.30444178092650986 0.2333892206463304 0.15900058768883696
0.3114943776268717 0.2315522243489312 0.11794423683367938
0.42932014716873823 0.20948300190070768 0.07967642435436062
0.3791295935615864 0.19004116374586033 0.038233718069079714
0.313477684515334 0.22395279900234755 0.09997519423218648
0.35531251143805775 0.16959673438427103 0.1338423223011631
0.291394182641028 0.30735094039494015 0.15821871781648156
0.3255905014799936 0.2498624919616077 0.18060594190309587
0.2268893996867689 0.1819297857829838 0.23407717013903095
0.37458663396199654 0.15213767188896554 0.03246998344900476
0.3235728407974676 0.16104721921789178 0.17239371581592877
0.32674484463854014 0.2309881729285479 0.1362060174679698
0.19074443471663471 0.27447993233676016 0.30994682331478884
0.2673513992928065 0.2083387147933422 0.27623758600635995
0.31227303317243127 0.2360725857589614 0.15895913118997385
0.38188007812311753 0.2170462110666307 0.08356515124617658
0.9301525299692059 -0.21491803649720964 -0.28701813331878157
0.34296948396922744 0.38110800139520506 0.1829549558767951
