# .PCD v0.7 - Point Cloud Data file format
VERSION .7
FIELDS x y z
SIZE 4 4 4 
TYPE F F F 
COUNT 1 1 1 
WIDTH 813
HEIGHT 1 
VIEWPOINT 0 0 0 1 0 0 0 
POINTS 813
DATA ascii 
0.35487952190200645 0.23831358551942117 0.12268566249667856
0.33061329896713687 0.21883166933349685 0.06091631377600493
0.29034599311601994 0.334646013647685 0.2580165872007143
0.36706479475543574 0.10766520725753992 0.12738430933555378
0.3377523086604839 0.2865415383323153 0.1700940841186025
0.6036389469597481 0.08035973771919203 0.10511633242111884
0.2544333663093141 0.2219420535180774 0.19181320119429301
0.2767478931587135 0.2421619456856945 0.1473475853874504
0.34931680744284677 0.23204001253922968 0.10942830121827285
0.315024046491132 0.29471716969527506 0.24370485394553043
0.34035422149659667 0.23013453187596156 0.1327420103478687
0.32592992356423167 0.2779769662799083 0.13155172059514086
0.30488450732664774 0.21847441210222485 0.10862784698116457
0.4013375588561985 0.26082276021284656 0.08050352105718162
0.3403328131103791 0.2706272225640589 0.1656162288848293
0.3160705954148 0.23925555548223087 0.13632264096213476
0.31630803936829466 0.21034701878646445 0.05942189076164084
0.28702613631102736 0.2956083148600612 0.1397772685916152
0.4240862181406726 0.24272636336623066 0.22938155057497056
0.6544220772753135 0.31109811017743993 0.14630677707866369
0.443937342055051 0.10144547081007715 0.05892394909575671
0.362966930031277 0.20196235089750303 0.06788909833048251
0.26155685872751633 0.2903688954521044 0.12521384732946217
0.31888147664903954 0.17914261051478775 0.017817859493902688
0.261610061786115 0.2843136495311285 0.24929803104569714
0.3262785931430585 0.2404591355959127 0.12416736698727959
0.21795605299564613 0.20487314678429414 0.19574288487716274
0.9191258311357444 0.3135986662961159 0.57268484885887
0.35270133062019227 0.21572986483613477 0.1675739742400708
0.24334131298340367 0.2924791316554547 0.14284139422238695
0.32521740226763995 0.2382010893794302 0.1432085716417646
0.292987411759114 0.2321402628489011 0.23998721395967948
0.37933267644517343 0.2925127543342967 0.23043076980718524
0.24166022023112532 0.2565303831340344 0.10650559308675156
0.31815957468560896 0.18304995578660055 0.04639394768449279
0.4094117725782951 0.1832983858020043 0.09255754690516937
0.29467393856680246 0.2529014269275933 0.019845783886694335
0.4778352462511748 0.26889948539542274 0.364144045907949
0.3204878905528403 0.24011124121543048 0.11507011186486693
0.3495984716435885 0.3169320469686028 0.27515311665284514
0.08365648685982308 0.5112928322283352 -0.01779836175964533
0.34416288585052257 0.2318614333239566 0.2118060280991756
0.3602142526714829 0.2600766575340572 0.08945092308822211
0.3149315545177842 0.2404684002786155 0.12162542296908896
0.34907252919137477 0.20929732182419514 0.12062349551838736
0.3531260195040602 0.24189335165513626 0.13703073510806973
0.32530918124359687 0.2512921512723949 0.16099629899986212
0.34665637021771545 0.2850971576765602 0.2423828887232844
0.34331081492246085 0.2215204113194602 0.08761716108824658
0.3152490137870245 0.24930109237364206 0.13715296917150965
0.3677364461035637 0.15372967315447283 0.0944801613266435
0.4066972032776306 0.2053299815469245 -0.001442019796797922
0.190552175184024 0.20922581248865413 -0.003392544903391581
0.3330081848936288 0.23176726083124777 0.0874151071717506
0.2961325935817598 0.18429795609989696 0.19053501639379533
0.2909654022548125 0.2731038096681573 0.11762480920376106
0.31854121523389267 0.24681211225464494 0.039943326073355934
0.3248461347664602 0.19676583780987755 0.06605817542886427
0.3474886979297622 0.22671861021996165 0.08624636241907524
0.3688536122440951 0.20859123207534935 0.06085463973747096
0.36889022552838924 0.22096813150643868 0.0854173117298842
0.20270606004847025 0.32513729178123185 0.11184247001278891
0.31378446897636536 0.20338747354547593 0.09473145565840468
0.29785589085335573 0.20814863640367776 0.1340912140030639
0.29475291428177286 0.25078852088364556 0.09516138854286282
0.34656256955383924 0.2077072547593417 0.0915493788478301
0.3226371158755512 0.23094982473757852 0.18334846147956796
0.2746680714433296 0.33318502301993647 0.1755941274884094
0.3313717767512685 0.3604707533992695 0.1810557582259662
0.21647109259058084 0.33323078489769387 0.1501454837162015
-0.7226303362689492 0.5362872285219709 0.20773283326278147
0.2876956888139546 0.22550847654488848 0.14725485673079675
0.08544717903713206 0.4460159389840328 0.23415208848109614
0.3575377194690077 0.2849798622484627 0.16505400163046602
0.3674259585692994 0.28312153101047954 0.2540598795298905
0.3211968353811301 0.2544097751883925 0.15951021268620025
0.2762720081117891 0.21476693524027723 0.18794824958148126
0.31627526473158696 0.2484049178858072 0.16006838446863014
0.31441420919182406 0.1782522627405001 0.0365059220394528
0.33127103931340685 0.29692354168375346 0.2351332653839222
0.2590414944572643 0.2805210863399168 0.2416526345437262
0.31930647524470146 0.23698380353638981 0.12931661212104473
0.4274621855459344 0.2380626281078122 0.08061023112655619
0.29600397967192293 0.25788051647454324 0.1554889420311838
0.28740466609647797 0.25739459637505036 0.19516452075859547
0.36755810515963105 0.1737785144415085 0.07822436217082895
0.3194263760369722 0.26226874772831366 0.21838033922603017
0.4012669152166808 0.18172045292611472 -0.015409954609722831
0.18443354490402442 0.39663248765204173 0.23072815185551576
0.2812859628306228 0.25234112404467623 0.1728723781242536
0.34167930475948083 0.2669769268582769 0.13497537770797408
0.40592432501776443 0.22264809011936393 0.07663819125394866
0.3409143212024901 0.29785406298907446 0.08091745613370449
0.3018316406182464 0.2364177736798183 0.08157122220141844
0.29105143261372746 0.29508863267830066 0.2208524812146777
3.1588588570371314 2.6486003708689623 -0.3910656147632636
0.22564763579984515 0.21114296207124994 0.07827333459781016
0.2951126727936355 0.19196274712282957 0.21680557299697512
0.3191954658094005 0.2777441548491595 0.13124744859584325
0.29016889039937155 0.2347704572805469 0.03152499895082883
0.312293296656577 0.2410288502661615 0.180575854801873
0.3697362918905185 0.28757097716533053 0.2180170465287432
0.33166969783798095 0.29429221009402795 0.13667601057034062
0.31562859540548516 0.31916903823832854 0.2580494296097129
0.38825030962874507 0.1825932033625861 0.08652191276640053
0.3150350808745941 0.28595258391072775 0.21863147049316467
0.34764454426064617 0.19443882827766856 0.0674321486479812
0.3058119793804508 0.22837422171488697 0.13101754098786955
0.2629273228711071 0.40229013129176394 0.3189625700341594
0.3446871717815725 0.320100122745302 0.23549829532171884
0.2981090957264598 0.3486532326434997 0.16496052507926606
0.3032059581588271 0.253091344431823 0.11950229903777654
0.3084921447951956 0.2505931633702261 0.1531494560965143
0.2758829777478695 0.32121132029162425 0.21278874248559987
0.3775732409037005 0.3501632622909199 0.24562302273147907
0.3206326138706004 0.23507340653779352 0.10624327698909042
0.30995479334225706 0.2717022421132782 0.14390552368490717
0.41696753778822426 0.2026751319380935 0.12225221626138705
0.3084057190212661 0.2655767354567047 0.19362680055829173
0.31161647029364303 0.2832200256186752 0.17948450294167628
0.31653251296404505 0.2805685918866061 0.2021549877849509
0.3910908234327337 0.20187473895410335 0.13511671217362675
0.2980323980052759 0.17990470847639983 0.13865959535434058
0.5190843544084487 0.04695957644000259 -0.06284237819158989
1.7144572036389718 0.7275940296175776 1.0560095032344918
0.3072969973046611 0.24601756894959692 0.181734186010857
0.3289558555369183 0.23690655966753127 0.1229956135718453
0.47947557728690526 0.08660092976502654 0.14570696942510608
0.30423184684514126 0.19350314182028683 0.06370625535657837
0.32864752917487294 0.26089154787544544 0.11834366980502864
0.3017589236644085 0.23779975172345758 0.12651884222071885
0.2777835283775829 0.25216758172177833 0.2503727552284545
0.19110419841283033 0.2948382555048852 0.3413454809546863
0.3147106076310422 0.2382448949942102 0.16452579545369872
0.3230923004358033 0.21441285423209422 0.13620327131050658
0.3279652234182606 0.2721270990368936 0.11528114651315491
0.303490040961762 0.2705338530676755 0.2673609313598462
0.3244358802452183 0.2495663879299741 0.12406270785169227
0.35139955482956964 0.24824944349646216 0.07888917686983632
0.19491295147547305 0.27930225128982045 0.23018184498315009
0.28741859528554414 0.2306496593085967 0.1157045313359788
0.3224492115010662 0.240173743322174 0.1283180124301566
0.29870449881738637 0.2480047662573952 0.1079163273754773
0.367161773162735 0.2328731029751765 0.2736795934698364
0.27519921085206533 0.2753723371037893 0.14377360021981644
0.3754385989933269 0.15004062892630543 0.1519786135073531
0.4626024384087941 0.10664702405105686 0.013171216056392154
0.3248258138458766 0.24529608319105023 0.10662066255756031
0.30817050694727754 0.18064563419481772 -0.009223333786550825
0.34984283739127875 0.27568117399911785 0.17994485418921613
0.4000261701384318 0.030084870677910658 0.18314501000475047
0.3416762578309829 0.14313601336573356 0.11507660590334012
0.32149995475987225 0.27635098714092976 0.17824449232462314
0.3459177156370714 0.29442847488502366 0.12933327257417204
0.32811775399831333 0.2417806203475834 0.07155720714655445
0.2962186279130492 0.20886072012878287 0.1672426933444342
0.268893695220612 0.3439091936784564 0.22473091747939122
0.3300436113948422 0.2465084376511868 0.08627484831049514
0.3085567080393332 0.2831331415199827 0.1710909237473004
0.25009262341787064 0.29650985952619635 0.2514223486574707
0.26974375471220924 0.24657802175374854 0.12566857931471986
0.3016672550203623 0.2325330479609704 0.09805824961202347
0.36039613712215157 0.2470979640843609 0.07390895746297588
0.3417704599646072 0.23137936787536262 0.11892005271039352
0.30764923589774185 0.2722956819994522 0.20420360028896312
0.3110937174116657 0.33210675784258115 0.141825655974813
0.2413788508116852 0.29093473386481605 0.19942343836554244
0.35265931589253796 0.18299687901071593 0.13439371315089943
0.3147753873907959 0.2178027226842687 0.09244310566947433
0.24858126011724835 0.38011230163731113 -0.13318677951325242
0.28399127543769964 0.19538576821204856 0.05209269776106851
0.36160874805534604 0.24330404919614068 0.10787226571116548
0.7683453646847482 0.28903296220443053 0.6510979702063509
0.32766593382670806 0.2694792373753785 0.1388149414944877
0.32170260235720605 0.2437441939365641 0.11054366228823653
0.2845339706596519 0.27266790446134337 0.10637106965458543
0.3007355962782583 0.2410844353644137 0.1538217377016622
0.3444016670640053 0.2065495534202455 0.08642352043783319
0.20347714567182607 0.5149527088950947 0.1506646137456471
0.3649462000253152 0.10921278203218776 0.12115975643187937
0.3334672019573617 0.31863249332079135 0.1489763261301107
0.3512855744048409 0.24294516406212097 0.1485407165673962
0.31479171083245205 0.23385311163403344 0.07935866152928384
0.28083993469459756 0.2166730802537984 0.024239291579021938
0.29165343092935814 0.25645691658297665 0.19310963326840636
0.28906343011840363 0.2033546260651633 0.05599203082852
0.30300907947381006 0.2061094638245038 0.05884775121785424
0.30135433439102144 0.2797247701605272 0.19815559722344744
0.2643662141053369 0.25962614377766613 0.12572056400289
0.526569873282881 0.19232019389968968 0.2538618566565134
0.9363326360537911 -0.06208212324312967 -0.4201624569478071
0.33519773046020873 0.23894926144456008 0.16571750121967455
0.21723990845985952 0.3041714319919464 0.1552942478139414
0.28928505833169993 0.2082268040609847 0.048412341499584954
0.32034942364791164 0.38556901018132805 0.15692145472289099
0.35531839621415884 0.2603336167799313 0.2445039803803013
0.08326300321098756 0.47693461356877265 -0.04842233704343357
0.3232864655562935 0.24013312451418756 0.14542370283871264
0.06195801685257152 0.5152396752309585 0.10221463714549373
0.3081302534448014 0.252523697435052 0.0976797768328197
0.28582093637061234 0.24451284314025656 0.0928999339956107
0.33748343391738445 0.2706597338742398 0.03596604013438309
0.0457180096881018 0.6373942810539575 0.15580151520678953
0.34699483202264503 0.22874407103610395 0.10812323112938316
0.367464446576264 0.1604217167334525 0.12783297802675975
0.3208992911363566 0.2412147820611068 0.12663554162895707
0.2591904156064402 0.20144120024949075 0.04768281852574319
0.2893394556308806 0.24021095885066757 0.15334053555503147
0.24776897271226517 0.279767981054448 0.16366593663779838
0.29736010003239244 0.3856637897274311 0.14946176410398948
0.32510840473744906 0.2559700268724754 0.13372139515035997
0.32041210164567246 0.24913988513327467 0.12657440691511113
0.26698159682115374 0.26147306425329475 0.11922353900365579
0.3040248926926097 0.260804475806367 0.12219778487460076
0.4010426702198231 0.22329476595382403 0.018556681034681333
0.35796893551668063 0.3093106968217967 0.18629936122970037
2.142307516994009 -1.061048292197853 -0.08850572538202073
0.19650554807742537 0.32173790868124286 0.22349909876297147
0.3147407868436858 0.20341750401541958 0.11264691299365381
0.347942674907614 0.24148531753255043 0.1233893630307108
0.41570349675181717 -0.031537321628263726 0.040006811732610004
0.2159160261405617 0.23464776252606612 0.21836403279090177
0.2999485887579283 0.27875835847808617 0.2429298239136557
0.2603830759789503 0.3021293621149539 0.13126763309892908
0.27401414114737577 0.20204557829023884 0.3402671235207606
0.2584932066720569 0.21743750727668498 0.14978556454322245
0.29308347063903284 0.20899448615011806 0.04277714936311838
0.15796869529754076 0.4297495714264272 0.013188867006320493
0.3221318161716482 0.22621059082824502 0.12801034855523596
0.3282264164891586 0.21760208491170374 0.11125409437060796
0.2934593716827152 0.2876094137104843 0.11128936083768792
0.23141292515475698 0.2766856468251433 0.1188722033983538
0.306017530162805 0.2751161830714324 0.21735704542837198
0.40908442603458184 0.22277927246310014 0.13969079505577042
0.34702603828475276 0.24036486811492352 0.08824247522311168
0.2968183352511602 0.2851067886772398 0.24261452465680122
0.3548091440254666 0.3757075522407689 0.01842514282002128
0.25406130053920606 0.19919656802477448 0.11062416314887002
0.3287088394114335 0.24328916780444843 0.18236237111631226
0.3300023763605111 0.2567189808279693 0.16989186922654653
0.28175563640493806 0.21821196038064272 0.09632672404049458
0.35900669815676167 0.24600895202775064 0.14894722315295894
0.3494260398953628 0.1905143467474204 0.25747133383333676
0.3115550264470528 0.24020832208432807 0.0919235422159943
0.3947487348937102 0.20103210628144552 0.06256106654434745
0.33493578976288063 0.2628860051666351 0.13105608712183425
0.4563705598564809 0.2687462375710936 0.2192163273149106
0.3094309134922355 0.24281279199013284 0.22661556642195535
0.27803164602664765 0.21673987643188752 0.09973934219404157
0.3827602894825617 0.27573409214600986 0.2604122276159302
0.3182944828682679 0.22294601448740536 0.11075177131451142
0.3247462415940987 0.23048919287322178 0.07140518501461202
0.3741642597870509 0.1548882879882143 -0.04050504620454376
0.4388011158336411 0.14474631543048133 0.03270543467171194
0.3389741194082916 0.20501555706491104 0.15255690044511994
0.33608779943935474 0.24199056239734773 0.12030183590880483
0.3278622886541598 0.2347351262715449 0.1148575633054918
0.3149553378167411 0.23631529690528907 0.14995677723362633
0.321495975957788 0.2529587089233587 0.14733517659792028
0.2743104705912742 0.2962116133433028 0.1782964051095064
0.2533390105345745 0.3165550760146658 0.31094838131269853
0.2861895837415176 0.2077454450361813 0.17007546219119263
0.33163814708660766 0.2410312177565288 0.118574951127286
0.26496302277101336 0.20501720692496406 0.11029109488796962
0.2862039999791932 0.23879605096939827 0.1276206501108561
0.37355785208873726 0.2482913140412819 -0.0049679975168999135
0.4213514609867559 0.23756751844564405 0.09418074643663488
0.33124101933613304 0.28948201703249765 0.10347536580842132
0.3390095860180935 0.21716428787786413 0.10412799650843851
0.314148674391447 0.28229500759432824 0.20238138538252315
0.340112753947281 0.20333483074455216 0.09784559953422445
0.3790795244242844 0.17162475398635024 -0.034987093380877354
0.3406903794816003 0.22533278392810985 0.09628369346808086
0.3865385455758883 0.23973589961551056 -0.009548024270344513
0.24321161841160688 0.20742000313593678 0.1014851343143448
0.26392275423805245 0.2969492055310923 0.2409880032868159
0.30820458432086184 0.23057483877624918 0.16751851868059475
0.6923892480217546 0.4568952665214283 0.770965672450302
0.4770801282112984 0.1364074460150988 -0.01082800251421645
0.31488269709265637 0.28137375914602103 0.2697504048401953
0.30540474155635877 0.20615272479935243 0.04096703944921387
0.13979387315188774 0.3068236232957702 0.24568843176285782
0.36567391301502994 0.23333076764768634 0.11818928885341506
0.31782719056340625 0.24033907978281377 0.11706682111332611
0.31984000069152785 0.22531949265487583 0.09936187043192035
0.3075224694125609 0.23350603161833305 0.12901675316314254
0.3144502804657918 0.23231684050182366 0.11293933085573826
0.2936152438195876 0.23237020604250347 0.14089561108241355
0.3316710987479041 0.23982224126854135 0.07204771987183278
0.7889690486259155 -0.23237885564662975 -0.3294501695172869
0.31148399306047736 0.23356892550404496 0.11624980448391398
0.28543103598403263 0.2843974170560699 0.16678617605775514
0.3726301968088137 0.210943228481824 0.06675235111600841
0.3304376283706745 0.24769686697990778 0.12106891550999421
0.3324267427520624 0.2058184452531009 0.07532420090198855
0.16264957653734768 0.22905808411567818 0.23829437604693737
0.25706809603414627 0.1813208668333175 0.15353845391985033
0.429613538264789 0.20318104594466035 0.10772106695860373
0.17493524614607736 0.2934592094417212 0.33272862253636504
0.21215923030155182 0.2633462339139214 0.18332068589529626
0.3552265999296935 0.20244965281037253 0.1288857893392219
0.35519201870521044 0.2288483294418313 0.04734796890036819
0.3168619452941215 0.3041909395269897 0.2074360028664728
0.29574006595113644 0.2732266322146444 0.2096706977851852
0.2214505402242537 0.2535038858764551 0.017759340938809487
0.34805494605521403 0.20303140349594173 0.06927952088290112
0.3057881236685773 0.2774518635289809 0.201092692044881
0.33901882770510383 0.22444102571557778 0.05721882310811566
0.34038842621663434 0.22394847825043485 0.08263888608423997
0.30200187458979144 0.25666253991437316 0.20139145480101206
0.31077504617410057 0.2664095275094098 0.12602693597445125
0.3489058108725658 0.3401880881371966 0.20512281955910794
0.31218493318476703 0.2081021979126092 0.10198068635918389
0.3708007235362345 0.1968292158122722 0.04331497176247012
0.18489629784085082 0.29810830004046807 0.24657420677390007
0.2505219238422711 0.24178318806850996 0.14550925602108578
0.3160825149213906 0.2018909672588336 0.11383805858670826
0.29832256551407 0.28498999412011017 0.13687393420960348
0.3115788763245746 0.22038960245600947 0.10101618253720801
0.2738776415999524 0.3239623610900111 -0.023225293316826878
0.38210914421792097 0.45523267388969657 0.2001358321725064
0.24564986952117351 0.281079605642617 0.18021084340750804
0.33344049513291907 0.21445483649523567 0.09226138565583142
0.27804278684698147 0.3132518573953149 0.2946052243487429
0.3340191968997601 0.2668121187391108 0.15517068618140684
0.31762184229935997 0.20940470219764507 0.2259015218091065
0.4303463239786538 0.04220170475232976 0.07468395166020514
0.31737205952620684 0.3094549247356042 0.11684905566735893
0.342378352249483 0.19452434814415653 0.07009125473766176
0.3071287016114326 0.2884073073518323 0.11240888199840526
0.2834610170324794 0.23172150915428347 0.11198136858442354
0.2809054813945977 0.21768596632767867 0.1518551689541141
0.3720008424986645 0.25336729236103395 0.11666701641766508
0.2838620374451182 0.2895023783880788 0.08170703411205693
0.2766480383268686 0.24740093496825466 0.1082946338626698
0.14936370676466026 0.23175439896897387 0.05520359927666618
0.4880931400482069 0.30776856355305426 0.2705153510748488
0.25703463594663845 0.2662045462221556 0.13638543233385292
0.3111916725761006 0.27913186469038465 0.10095236236865901
0.3201368259597501 0.25530581271277697 0.060778705859831916
0.37628065215312745 0.19538873650057553 0.09005870172143204
0.31466700412015314 0.25942087421198323 0.10294106409415349
0.32236656390894325 0.2505266972758875 0.09773562514793355
0.41309346868688124 0.1642756090285502 0.07054546852145904
0.3146988858277098 0.25576614992183977 0.15701453086137462
0.24901801245346178 0.3425666215668173 0.17620659654230053
0.27856552983786287 0.2322794955871359 0.15616516234123878
0.2812433538893657 0.18200790991582494 0.02441941850578644
0.3059982664478582 0.23964479862885923 0.16130833742022332
0.3467159811900302 0.19394682065018287 0.05216376790278332
0.3886289858840257 0.13252246892032815 -0.6738485854164367
0.29766286689473986 0.20841223396482178 0.18872398332138118
0.3131015419448744 0.2851771848467024 0.13954277013478134
0.3238366572274316 0.279336031865995 0.07244489026099643
0.31081767029149887 0.20863282986127274 0.15927615231376535
0.3012005711286747 0.23781228233318075 0.12720004909499494
0.4358408177930926 0.1954366805864538 0.21158706444215625
0.29808953345710165 0.23558916340751068 0.12990779960331622
0.2824500326778434 0.21271599613839953 0.03459278895161333
0.3360343452271479 0.1970974246136592 0.09503080377673712
0.3106788110420666 0.28374964035006656 0.15421260740403397
0.35714455722151683 0.20818113139316097 0.04110119531351586
0.22827692219806295 0.31287932069628255 0.1918487617522544
0.3296546949773642 0.23238864403356274 0.1706490903252984
0.22364991977738669 0.3301934209880244 0.2795845670767392
0.33980670559553516 0.21763166439102122 0.1466351653588447
0.45539347558062104 0.2754498414627591 0.20430436816425868
0.3048264618448684 0.31419839253834425 0.12459138366514821
0.30578634581678443 0.2445091071943466 0.12044081339112722
0.3257226175739447 0.2317869347644148 0.1614782152506109
0.32707194383925753 0.2552274952320204 0.1510590681270827
0.24955102001226237 0.27688705154500326 0.22640927805562683
0.33000475915702054 0.21998875381612493 0.12134928358869956
0.300807744525585 0.17700468153766735 0.2745334564704933
0.22905535756729023 0.2488332061719234 0.10922938370765678
0.3600322439598642 0.2717730227509776 0.08128629029499734
0.2873975846036956 0.2612860904605441 0.12838470380305012
0.3653163348601254 0.25154197571109194 0.09974114456046834
0.3059621006078146 0.09391750546231492 0.004424466338576849
0.2903099124637265 0.23942558454339746 0.15653050142803693
0.3066567678042702 0.24562156856731576 0.1361551489385704
0.25293480598506335 0.3261544660407196 0.08557705826576978
0.44914781883306887 0.21421464639644228 0.08530009282731044
0.2824555535999167 0.19611068380561392 0.197592272026327
0.30912024898175616 0.2390209740570839 0.13188258281974186
0.4318451669961121 0.32242025406375774 0.12216148678095351
0.3893685429891036 0.3030596707130542 0.16232234611398155
0.31942008764067964 0.17970641416066258 0.03298567002579489
0.3300523029697473 0.23991662324543483 0.1368060820418293
0.3809702488401854 0.22753427276680327 0.14295159581577366
0.25063340121376143 0.23589215048880874 0.17661005158059595
0.28397514846125205 0.22076668827999413 0.14156657489589008
0.2819272758235485 0.26577257207986804 0.25584893737409686
0.3414909141507252 0.2583723987835782 0.20690880621751262
0.32009059953384167 0.23532443903062017 0.1030783949962597
0.2501752456506381 0.39273346844734647 0.19414480554178226
0.32269682905591424 0.23478262392636395 0.14899856694194114
0.19170846407268982 0.35122810436811847 0.3128241989771965
0.36433419101769005 0.14606696209935421 0.10558399153609344
0.2971525944699067 0.3467065534772189 0.25129997850120844
0.3189222916734309 0.22698623753800007 0.07967455529501422
0.28387388706418903 0.32121291323289825 0.12672568334063783
0.2808533678952614 0.26746638870474726 0.1578376243412265
0.25923507361790143 0.2984787845440451 0.19750253564454567
0.3077452769033613 0.23176338527952112 0.1587771820681212
0.3399746375595356 0.23901407208472847 0.1329769129957583
0.22922192714506195 0.22281412615632235 0.33228388669390085
0.278902109794231 0.2866452716189656 0.19336696922084684
0.38547676637764994 0.19187554433651144 -0.009507572157033906
0.38627070487785886 0.07745062687951076 0.21881555209147052
0.29845286924749814 0.2746200084890944 0.12272256513479363
0.3412105924779496 0.1382953697906828 -0.05969647887860674
0.23298498349495844 0.247535828674728 0.1734514396369491
0.30191953878200195 0.23789068132121827 0.10153454838490461
0.2521569770227927 0.2520119686880662 0.1192877941860786
0.34739455404076125 0.24505751443113866 0.23438808926616161
0.32587720743882187 0.19503176722810167 0.12829919141572077
0.3145572074626699 0.24022347380105202 0.1312936871422039
0.3140710977610297 0.3204350426481426 0.34273834041979967
0.2893942911022265 0.23596217047274592 0.1760756945095352
0.3209598091179089 0.23220658864548227 0.11656616544229337
0.3196735644786344 0.20818139609053787 0.024093231029326034
0.29796715287113784 0.21776384810458183 0.030416808816710272
0.3116535726522187 0.24753948335110465 0.11271268281066682
0.32561864971205523 0.19692826569058752 0.08107561207562242
0.36253222301155574 0.20220451909369785 0.08143888266170052
0.33186106992869213 0.24133456649984453 0.07448429470701967
0.37172842672060824 0.2431356546777863 0.07024174536898897
0.3317615004055341 0.24183549260902737 0.15282105680282143
0.3230880703559933 0.24225266940115375 0.10051146096375874
0.34005207556700157 0.24864471065734506 0.14568876659841123
0.34698464687841124 0.22818112906585952 0.11926859172865534
0.27758908847144426 0.2622328645357044 0.18162727667984768
0.3294255888318389 0.2673761108504209 0.09128487694576393
0.3332033205180096 0.20651874228536826 0.2760891031816186
0.21472615535260786 0.28680381783634346 0.135259610026651
0.28280743007522346 0.2239239090873184 0.025887587778527177
0.3450571520905328 0.19019195324787574 0.03992689136734384
0.32946918566334205 0.3042022536119475 0.22062486026175065
0.3409500113283741 0.2338003268803277 0.0919336738322869
0.28352906644778386 0.23740520165227963 0.10863053356081309
0.2755126767159197 0.26023942633432284 0.13555779720873318
0.3103752285175574 0.23427641336117233 0.16473821555116785
0.29756042389999493 0.22418090291698434 0.27772743953516965
0.2898500776498878 0.22936727447714134 0.10922470319380295
1.7031388503353355 0.7079178541996214 1.0574429883600658
0.3225750939369192 0.22841663663604095 0.19871821823682012
0.7032232163294907 -0.016082911584732074 -0.5440464051389
0.2873557880750326 0.267384848730444 0.2054325975092013
0.31204824756761695 0.270697509257559 0.2618937475541685
0.2914145975146454 0.22085467257558378 0.136872417527087
0.3326026148691881 0.3330303325999182 0.26540407909885744
0.03832259598979704 0.1783947914799171 -0.23585381147023554
0.26771375031211164 0.23833349479608046 0.09729918677346916
0.29757805470070764 0.2860034465445267 0.23981539152742926
1.1020795367099936 -1.1304266825870002 -0.8246766076582759
0.3113681628564251 0.23981033135504504 0.1538624608167254
0.3493800807166849 0.18186411856754603 0.0638982814218707
0.31519060797339193 0.21541356672608458 0.15606044308002254
0.32195667252875637 0.2754758465893872 0.18812487814821566
0.26411797304257334 0.16646481062119278 0.21461211386156265
0.27763305182010356 0.21536626137140047 0.14038498186951642
0.31705337935177624 0.2632991244237246 0.22779222423491774
0.30964294607287 0.1448795449126692 0.05677141903748861
0.3514562079543566 0.23337646488850794 0.12145942953966937
0.3466205961977096 0.3335289168015265 -0.012835159737278445
0.317512691830828 0.2542630656753033 0.1306949430103117
0.34552458947526077 0.23006368709175717 0.11192811083425624
0.36625273785494983 0.2457500803700441 0.09686355871636465
0.2738138965514736 0.250373768198088 0.1426835714103447
0.2709400265127897 0.30523983384502174 0.15174756552082158
0.291293208021159 0.25890557870374664 0.17291883636673333
0.2758190924823509 0.23132612244909012 0.11744944733531781
0.3240283320998856 0.21110927190188988 0.11355886480410504
0.2585400348950202 0.2375546498429486 0.11989212750873435
0.33701383619077774 0.16058425147487299 0.2832896609602926
0.3373779499845284 0.22751178504017844 0.09464503586596607
0.330311930754732 0.160801704074089 0.022991384869328613
0.31096302481661553 0.26209595093870064 0.10671248601035188
0.39182659561390665 0.1899263039514949 0.11161185908009941
0.2492939482593215 0.23021211510099704 0.1829380165602288
0.20854937237572813 0.3140957115622882 0.1243192600380496
0.2988714264648138 0.10568601880979145 0.030139474726723847
0.31165386323434063 0.2547001053446962 0.10268947542753892
0.3232159567597819 0.20669633465196569 0.13089036198863369
0.3353252424790014 0.25698679617508446 0.10439251711596853
0.34747556927808887 0.2214599646511317 0.106183642259424
0.3021306654407283 0.24466456085585264 0.05676645758705945
0.34140895663210813 0.307182380594881 0.22197277975455165
0.3326236404580669 0.22590576767402126 0.2837316367077847
0.29076826138972933 0.23734439074465286 0.19379536394821173
0.3559748372488514 0.22635803697201595 0.06970331538326491
0.3918979683304258 0.2176185733769671 0.14580460438668297
0.37267924133450947 0.19761345521284568 0.11033341815883091
0.3167100340940152 0.2735822857665653 0.22300047836574777
0.3444885636966717 0.23929070532351204 0.09451508325565783
0.33895815708368104 0.19708120088654368 0.05284443076597256
0.35752679763230333 0.13889495815087116 0.1272831434508248
0.5195121651810268 0.06088331053584284 -0.11452879106090563
0.15610294465071206 0.49206657861417114 0.0835113535347034
0.02372186597477821 0.23461308129071767 -0.03746953229351391
0.30041361376137843 0.2658858043543404 0.12482338889945765
0.4325710174464632 0.27443478982711156 0.3061152936718372
0.26945318524533945 0.23399768209662852 0.1296441968097639
0.3270218986862119 0.23483541112047135 0.1287674670026604
0.3320296282992956 0.2454777745201966 0.1014504114381225
0.3179989044153899 0.23564937054493384 0.2107867049029153
0.5051466507717919 0.1684126228317524 0.017397788392926827
0.38389931394519294 0.16294442252441854 0.09778151621839015
0.2466224522761138 0.2702085106179908 0.20530392242436335
0.2991411761391305 0.2223858425145977 0.05564375448668102
0.32971159418558216 0.22072523331152638 0.07747293595051019
0.3039942160071689 0.2774952714458436 0.25601272581928924
0.01910517639146292 0.36639615671890624 0.08389024190779537
0.4205621258914789 0.16066221422244098 0.037073646051879905
0.2971354013803875 0.2833735315743695 0.2625412893428063
0.3874783769615391 0.13128581300442477 0.02786471949086433
0.2563640251879349 0.4010924203642503 0.13012106718275618
0.33301939371958156 0.31300502024117804 0.1386273109441447
0.35216392869793367 0.2956125279724944 0.22446984413434734
0.3563824077268123 0.2471902540987685 0.10945413163980788
0.28659360093166697 0.2732413001359646 0.08689930894090026
0.2780985157689031 0.2323413230032827 0.1395561330691777
0.34973083868976573 0.20949112253867952 0.07825917098675461
0.21947636830674355 0.2864757025570981 0.10250826575665428
0.4913425565030991 0.1261332346315669 0.09114762217998873
0.30120679085493407 0.23066048855379506 0.0922769147019693
0.25772490784018487 0.25433251636916054 0.13955554642714674
0.2992593436480604 0.2663142573654369 -0.03249685240803046
1.7307128384284738 0.7287381088386553 1.0849111123971227
0.3341843512948941 0.28835184975466177 0.07792131557948778
0.19235181099446663 0.33225803159578504 0.22077733112763553
0.3063330877990893 0.23523057541017067 0.12079423480366813
0.31440785977531505 0.21840688178561152 0.1363307167262917
0.3205319929355994 0.24069773862800048 0.08589696347208076
0.31693621475113787 0.22496925589547345 0.15340344086689583
0.38038982396626864 0.23438318177312567 0.13748500181569057
0.17811707409117616 0.3646590393129827 0.3253599213066991
0.32533371289517277 0.32461915552610776 0.1408480812618791
1.5486664911713603 0.17481474844557 -0.9676687002210542
0.33302429528114885 0.23516411222112765 0.1577909709461096
0.35113906695971764 0.22896361226278827 0.16363658060737407
0.336574141100229 0.2972531746917184 0.1868883766611873
0.2668560554549799 0.23183671633819358 0.13685437291279356
0.3014718128585798 0.2581712959668323 0.06512648665568577
0.36810276327146596 0.19311464282233715 0.0812257926990867
0.32000347506024696 0.22226257462850185 0.19640906333449948
0.305248488800288 0.20219024278227948 0.10697150023939628
0.20221470129175145 0.25114706297742373 0.03156159476915832
0.28211224026037485 0.23568827377397383 0.12201007259105268
0.32217739269917445 0.23795969881859946 0.11049398469086213
0.3566822264324969 0.2342051497159474 0.01843388208320107
0.27784781770574796 0.2194014039521619 0.06610316663716276
0.3539604130649252 0.25660795359104327 0.1454595731058248
0.338226944724795 0.23647759963544956 0.08773922265787348
0.3019960732576408 0.24499700677348812 0.0981803526212559
0.32305540650054354 0.24566945169493692 0.06915927212922668
0.3439782826658586 0.23558413684274626 0.12123004879448729
0.3637241456887068 0.19379584570678787 0.11080773844730629
0.2899710045185486 0.28317510711269733 0.25309457772439714
0.29721918640325384 0.2503038682977916 0.12362713501823919
0.3433568308360151 0.26308338683764987 0.1401016954517189
0.33575116254900195 0.27573307539609004 0.19455983944457955
0.40075295665681665 0.18612730526572818 -0.0009152471620268443
0.43554399653132236 0.20950336590942698 0.20230863061385662
0.3290660671354573 0.21888854890832476 0.10712449716524475
0.35890357015952645 0.2957088546721991 0.11891458482656958
0.2837322505976374 0.23234582111659563 0.15768280594309658
-0.019021117263619658 0.31196436811700323 0.015721184986503545
0.35239154427461017 0.18725767004319493 0.14548171212334182
0.37954529831873174 0.2678921619429673 0.18470151431058923
0.30996333406994836 0.2505966210677002 0.1471859509789084
0.3277250917494712 0.26759067036556416 0.23134614729545433
0.32818918044921475 0.2658189172825445 0.18166287422869232
0.35715139358134707 0.2485268865510335 0.059649782598881984
0.2113180328526738 0.23244287015660348 0.091413201283018
0.2879341676282081 0.3094371965211451 0.19294262316796562
0.29458056738076266 0.3806396908191232 0.20014620561960328
0.3168236134438587 0.13415084624729445 0.10887371700331983
0.3248443232343732 0.2588824346285037 0.25770641856925636
0.29192864690162423 0.8349397575333342 -0.036150525843027026
0.1384927618431533 0.24952761616660268 0.11549512136150497
0.33983267758952707 0.3626154413366294 0.3667594910216394
0.18093492760129948 0.28671557358508437 0.17758970713531141
0.28978809741096256 0.2411545812148148 0.1638669501043637
0.3452883498895005 0.2596931126738298 0.10825638349399469
0.3170593239121189 0.2451580174439414 0.12572217230410843
0.33137184953335463 0.2146006389784958 0.10714065483628588
0.3076318191883729 0.2512517412554587 0.17214565294744943
0.34517140261445434 0.24191505064622731 0.10807450135197882
0.34100388934497516 0.22058253762671143 0.04565983313659672
0.3705085640717698 0.21747924231648597 0.10297992500724718
0.3266623965168094 0.2320575642692404 0.12004514071648487
0.26613710720482686 0.181045272670616 0.0829955583454165
0.31783505583084093 0.23005665945520093 0.15226655748365658
0.3437143370363742 0.26830356697217894 0.14369338355371042
0.39193481935132013 0.2223396066486032 0.06805998425646465
0.340884224073406 0.21553824741508265 0.13311653981952531
0.32940679314907584 0.24431057590038563 0.11149420112067787
0.29821829970845215 0.3085659393950664 0.25007609064026326
0.36293538483022303 0.14184194438156794 0.24587640765560081
0.2252287477541728 0.31736721312250893 0.12998516094850743
0.2864841317801279 0.28121190204385016 -0.017542201028263094
0.3517566504662142 0.2614900995295386 0.1113075524541216
0.3650647875192021 0.20796704955273526 0.07075467889499976
0.3205294415876949 0.22414436499303747 0.13644564907176004
0.38823399125448077 0.1684498184774128 0.19502095810555886
0.2848728281143167 0.2421767040291769 0.11571092713042219
0.2659013984817591 0.24894025833933142 0.21016685017087866
0.36328699796283104 0.2738506378286303 0.13736183914669198
0.3595342484840245 0.14063804833730842 0.16548921598342758
0.2185962778561219 0.2978926700119189 0.1056175530276704
0.34488972235354254 0.30844001618660855 0.14017901890929352
0.34082539148664637 0.23422209632278168 0.10980511013865168
0.2993165244521663 0.2658136302969041 0.20827164564232703
0.28242658370389506 0.24893355249764682 0.09587004281027589
0.18749000286257456 0.24869940483901587 0.14416495111132122
0.5526554199701081 0.3786315677405412 0.016860980190102737
0.2680620113272454 0.3427223805930879 -0.2477083616723803
0.29767521529453234 0.20585439788378324 0.19536352990510863
0.32761534975865914 0.30907022821861574 0.19013115049710905
0.4123916933654357 0.212118968961164 0.13108993765592913
0.3203157902860312 0.2473114539538699 0.13382820828311992
0.16009087497475605 0.29412397587213945 0.013374056407926105
0.29657431145612634 0.247903878057258 0.11262595390863339
0.3590044373615342 0.19690750939886925 0.043037350480943815
0.17565575660125887 0.28513376713539174 0.21565941627325458
0.31769287902770316 0.2384468961836177 0.13629443042790967
0.29686601021776937 0.2134396027528851 0.16819821316434513
0.2901616278418544 -0.2999138511958108 -0.21687576614445447
0.2935955333197455 0.25414898816060827 0.192035604875457
0.3015545950334513 0.24020121025675678 0.1717211431613066
0.26650559908455307 0.2306918772981419 0.2225254523806086
0.3699705402461575 0.22934364848401856 0.11004768911163865
0.3338468038235476 0.25513928479324477 0.14488956602738767
0.31096192843868664 0.2596760913432661 0.1494404625542245
0.2991746846710015 0.20038189423070207 0.09442779276589874
0.32416883206103364 0.2577012987002121 0.1516129024385009
0.35955376081389545 0.22986591973220527 0.10274315667059852
0.27818458945785096 0.2692329851169575 0.08307472968789398
0.36237385202730366 0.18908632102258593 0.08221768591798195
0.30873922441458035 0.27440038496162344 0.13589356187212331
0.31467159545374557 0.20506749348982112 0.09896100566081145
0.31019041836754013 0.2573010073759576 0.14410012090593227
0.32727966733112623 0.2625895986079456 0.15488680319383263
0.324513318437738 0.2050866873735231 0.07735187706029478
0.2981862790147858 0.18579210682266023 0.06751075548010022
0.2699761840788 -0.10095786313715394 0.2314083680814747
0.3269120359361182 0.24613538836553062 0.12493463743372502
0.3237432633980575 0.19248118719185925 0.0248464764501648
0.44298712194465395 0.2224468610719157 0.024981617983797832
0.31534984411274536 0.29705244370072137 0.19785470947357453
0.27995472889701034 0.2494958778029286 0.17961793040731777
0.30220304565656875 0.22130333697026572 0.07720949294360935
0.3122454165977473 0.24021160422350363 0.12029783304332398
0.30606176301677124 0.240481072670093 0.14245261063886971
0.27131733590564977 0.26805566152725646 0.1966917455598889
0.3015205331289792 0.2912364986087539 0.23391348461709072
0.29094041101940604 0.321847932629737 0.2524482655410196
0.21548121376109464 0.3653683357470072 0.1940097872844433
0.22087329475030515 0.312788208010943 0.15049578900691074
0.2770847057372947 0.26890383490719216 0.1779032108163534
0.20304930445912817 0.2816412392847383 0.14099316732743716
0.3353969145124722 0.2356937965764132 0.1424299507125255
0.10238290731355448 0.7860031592575041 0.5219713203914864
0.2795363411473346 0.3102986933652119 0.1989865235395456
0.38459844387503495 0.1946630209639153 0.12770990926131276
0.3517886788227287 0.17542223056216244 0.08509860623487953
0.29695372494008154 0.24085368183619948 0.09492928592263183
0.2812791660635412 0.24014713765819806 0.1276667177582027
0.3203416908245629 0.2550097959520201 0.11180618546751475
0.32433829005569237 0.2840149821477951 0.0967943259118158
0.2741126769047213 0.3644786156122848 0.2934610053410722
0.4438875783991705 0.18535008281223497 0.017049402148145987
0.3093318074603246 0.2893775678923305 0.21322378747979087
0.33936969854349286 0.18286191405447028 0.16649083837438639
0.2955782471389057 0.2119019081848421 0.10955651675124045
0.32764075161090034 0.22667265654612834 0.14147821686609063
0.40160725071768866 0.19553818495811015 0.24053403911845805
0.2877632014398728 0.25705802315948745 0.14960324592405527
0.3299194903439826 0.2260997091026411 0.09677645181831451
0.3001253993234343 0.22576249858346387 0.024324789132123215
0.29414802416853547 0.2555918646002908 0.1951114799896061
0.3301619267596436 0.2054255575384758 0.11885407013745919
0.3351183705148344 0.21637010179446747 0.13155277918707498
0.3207285270510454 0.24228730418423083 0.09982029775008527
0.31723169427634446 0.2360930033476194 0.12571079171982547
0.3138980036327439 0.2752335982618206 0.1261009123196004
0.291037753802982 0.20810209152391224 0.10779431595864253
0.30023179795374233 0.2632632917885189 0.17728188305838444
0.2773667740121084 0.23974774479742678 0.10002540820305228
0.3077033791453516 0.2376609215064036 0.12200988252914158
0.31376168344905864 0.2377277099903381 0.14718641921189146
0.32284103410749765 0.27035745736570505 0.1863042728326434
0.3040056456888749 0.22013086921285208 0.0305975930513398
0.18064180463818502 0.27085994183235584 0.04488266511665984
0.27086605159036026 0.2661739230019293 0.1861679964757741
0.3740644560187434 0.1634869527119065 0.09587584468306432
0.24285199517481715 0.26209041802340494 0.11901947388625445
0.3200929819352041 0.25651868755079477 0.14445606424166613
0.2952711106845243 0.26295729807073087 0.17267229954603636
0.30359291448118597 0.25008128632708804 0.12294694810796614
0.31717103584776396 0.24263638664363896 0.19784972642162302
0.3015037456381151 0.27056596891199547 0.1223080872046296
0.3859137863459807 0.17709848108873416 -0.03798308189573163
0.28049684815255205 0.19627300054571606 0.03754865615185565
0.2740523108375612 0.2585704191651814 0.1355540283787775
0.33353850688723696 0.20164974774299083 0.15741173102335893
0.40298636257645626 0.20243419679991348 0.23713621228165493
0.43201710130645665 0.2767795557384858 0.40221074694424885
0.35872726185874626 0.2986804052540606 0.10716936724915627
0.8782719704481963 -0.2917424334720522 -0.08872369225892385
0.2823292481989199 0.26291682564054497 0.13579050528323933
0.24116797241664756 0.2778118285195319 0.2037224332818539
0.3358876334185652 0.3813832380506028 0.2341530585830185
0.27799336979865075 0.19362084829543846 0.051702370988920165
0.3161132663036028 0.2436905968967551 0.10843979175909624
0.33964035745202636 0.2387945298614227 -0.005779559814584445
0.3786812572897702 0.3153954798166154 0.23805191456985142
0.2488344098571389 0.3169667501461788 0.1707215918180225
0.27135303118222964 0.28739355942327904 0.13024698543812008
0.3152569104216525 0.2236207508065604 0.17969952496687824
0.2814011815586923 0.24382727602996113 0.1343754690446417
0.30025400357448007 0.21313543137299007 0.06763833390765228
0.3916074196840782 -0.06407762067476597 0.15787815154185125
0.31339011382857507 0.25920513849510485 0.1278804060215606
0.854324166859044 0.08675541715038548 0.38015806875381486
0.314402894114437 0.2415624115120636 0.14915743177797935
0.28939660015302593 0.24611657358714467 0.14953608226514348
0.47885627285941723 0.11672687288034922 0.0968153127321898
0.2534276383093754 0.28117341257910766 0.22042097389811488
0.24631291674499778 0.29134691755479025 0.11526572219125342
0.44425217231977854 0.30291263270027 0.13622055959390877
0.5986960204674574 -0.1835025731986093 0.4798033680782794
0.3351550527818574 0.23551581692936452 0.13906564205939276
0.25540938037983096 0.2728095566976947 0.21044601555232134
0.3518922781993865 0.17689005961790372 0.10072370879083792
0.36744133781608923 0.2772720423148769 0.12857591430741877
0.34772427051237287 0.25420523729926003 0.03475157345516777
0.3639130194719655 0.3189631519753391 0.19609561342184634
0.28695152126272205 0.24324479484451444 0.19202392373753696
0.22562018582249266 0.24030887552513036 0.1719464200176617
0.31833268717049634 0.23151363727973262 0.11205185770737103
0.2376329489906368 0.27677031350773973 0.20319708057442654
0.18844356809216833 0.33104168438642034 0.12247565388486237
0.3551546323286914 0.24297552198929395 0.13516186234333816
0.12399880963224064 0.4230730346972109 -0.22855725133523208
0.30985962510297327 0.19181264614415738 0.12968298311196236
0.17916066879082848 0.27397808861550743 0.04039501256733047
0.330187038143805 0.22954736641835893 0.14705845203643264
0.31704657248957346 0.24279004151914307 0.1603183652937048
0.2797315855768687 0.18973907664971534 0.05211843364472202
0.14561027262493553 0.5003440570717999 0.39709147289278235
0.337511965061168 0.2662204383030229 0.16893436083049096
0.40414255654444275 0.2638925087978663 0.10462391064255883
0.3760520513470311 0.21064939824078976 0.1769323644305416
0.3068704705470253 0.27271696290146963 0.241970901290955
0.1741418861797399 0.18283452160312663 -0.07045348960889442
0.39363071082107126 0.17792347849248813 0.001663099881341168
0.2924733615528936 0.2843798896557246 0.09474310140058151
0.2884315679131646 0.3015310396004054 0.12677112033159688
0.2808022384842559 0.3095403255381939 0.23214598765576966
0.34149676648655714 0.277802641027165 0.1562121115109676
0.32181685820435746 0.23292421087333537 0.11866957043775983
0.2710159537336665 0.3811193918192828 0.2787541469357251
0.4220473154676938 0.16678586703983456 0.1623734318580432
0.2577464569389889 0.2778641208953445 0.13933052563817228
0.3027962728155842 0.1994397184812442 0.04473711807625591
0.31663301430677393 0.22695138030127282 0.14792523335349017
0.2951542234036282 0.24815442823251033 0.13092437374247368
0.3158805972280163 0.21685902298645487 0.14544450669754383
0.2772396627863003 0.3017049664609175 0.20047733876791085
0.3901115173995322 0.26986504314025694 0.053241501807235636
0.43819548628675875 0.2554491141581252 0.24453081880041339
0.331317977888574 0.2795186875232787 0.2025667007922607
0.19379825308334375 0.330202331169545 0.12956119552822543
0.2597798164726157 0.18873962757035656 0.035556066382895324
0.2958407467055224 0.22973302275656238 0.1518904427060903
0.27914128054953835 0.27585284070573834 0.0927237416619704
0.3017861239423212 0.21549741851367799 0.06423588059394092
0.3141624518271726 0.23902957343673847 0.11845021520460364
0.3416107425867807 0.23732198219339296 0.08421367892123044
0.3090691904232301 0.20886545915774946 0.186496976326481
0.19638204825707817 0.20837143443705486 0.09083937907725215
0.2775038887488819 0.2569399857148653 0.14165997089990867
0.41007815318153007 0.17706137853919302 0.11373243659383547
0.33360626292952134 0.23249548000754316 0.07193612956083939
0.3067204662706331 0.24965802342774168 0.27444856853546185
0.36761516844848074 0.22826444567448334 0.11601612253525673
0.323006570999425 0.23072949024793843 0.11600124861564609
0.23704718190093388 0.1814675413211546 0.48981088422311814
0.25694970148400387 0.24149368459043785 0.17365359870497343
0.3109257225903832 0.343741417685294 0.3609068010927814
0.2788047446257025 0.2692763859719207 0.19133757280839347
0.2968015300984064 0.2767298555755673 0.1912717191523825
0.40438030078726683 0.2413239877802198 0.19822671109227485
0.316381798127054 0.2338118296361813 0.15711526086101912
1.0739206657984255 0.7115139200678868 0.8204006108034037
0.29329422492438084 0.2644249775831895 0.16565296859710088
0.3146695263112633 0.2493894932124192 0.10432983589475953
0.3637911651442778 0.26340267357983294 0.23060104232681056
0.31408336847113105 0.24664890896144698 0.153037331876817
0.3523060846691948 0.24835804855891297 0.1366026643938767
0.27875442068543066 0.24890098586260478 0.22973332138931823
0.3251638742029286 0.20808071255022753 0.044969662387401854
-1.7379375684770935 0.6186027631665496 1.1805027609728
0.28358111357154314 0.1778062702275207 0.05046108130792959
0.28116051428800404 0.2416203053490591 0.11985829312192209
0.2729911338969089 0.2775626769528401 0.20295239006850352
0.3356279636060435 0.23862441554237535 0.11853028792920384
0.2559047657829865 0.28461719604177915 0.1428840242323588
0.24160230827118312 0.3341150287283199 0.25368068928023035
0.12624068567808422 0.30179055139399225 0.1527473187503574
