# .PCD v0.7 - Point Cloud Data file format
VERSION .7
FIELDS x y z
SIZE 4 4 4 
TYPE F F F 
COUNT 1 1 1 
WIDTH 812
HEIGHT 1 
VIEWPOINT 0 0 0 1 0 0 0 
POINTS 812
DATA ascii 
0.3319920498392719 0.21072130926430077 0.13747985473170843
0.27217015927800503 0.21759017865831254 0.17969940653907202
0.3476237132718438 0.23832027281281398 0.07826902534051783
0.28978704408996236 0.24982889548228115 0.11670640893433415
0.37116073331452526 0.23158725500144328 0.0573319871064939
0.20934315088177868 0.0753792503705597 -0.13757768938612003
0.2869460057475237 0.2571931408159003 0.08773660808276418
0.35101930691195093 0.25539381341135936 0.0901424479626769
0.29341823178809534 0.20722133699715073 0.0799793772897317
0.2814284814621004 0.2520628172788122 0.09714937463834872
0.3021880849482841 0.22922415822048947 0.1273731718852531
0.2732065643340462 0.20790380147067822 0.030418376861632623
0.3503157105189416 0.2435396324700605 0.11206352546417975
0.23268461339712587 0.2568258213593708 0.15566124980603036
0.22183548188195346 0.22888748778949264 0.2980508438024003
0.45571339852281767 0.2035826483620724 0.2211290232849734
0.32661854917192557 0.2174693509443273 0.1278218911628528
0.32021990296431113 0.2746969290765833 0.17333366943583428
0.2805236820815651 0.29334446051397833 0.20766670664008302
0.32312537889332305 0.4423122911240256 0.2446736781998311
0.2710583429462332 0.2761167285002273 0.15671425991028798
0.3097403006629236 0.27814902097938443 0.17737531643734883
0.3378214961812773 0.22895567160054497 0.09734231110202529
0.2946115882017466 0.22971711543384288 0.1266139859163502
0.29999266821663184 0.2988535610912493 0.20571717516472177
0.3751850569783812 0.36544605857045553 0.2810755578418025
0.29044357458163006 0.23286153423713074 0.1618225602957608
0.33025959591306275 0.2525082291372769 0.13479748848779138
0.2637799278894306 0.2660915748746504 0.11676180538401582
0.2880216576356531 0.26551670124464977 -0.024700828982744838
0.3217831194510268 0.22414369164309278 0.12165123305643988
0.42489221031952695 0.21146629316154986 0.05491665705420701
0.32063315414868043 0.22619826887353156 0.1110934673703099
0.33068961841890143 0.21281548293583796 0.09745180534557107
0.3445895224528783 0.285611829625509 0.17276389730689345
0.34849994590919664 0.23289807957431208 0.04138733943167949
0.3030694310847366 0.19763056513534139 0.11009039419158739
0.300203483832334 0.13215095163442925 0.23959438294630786
0.38595863804394526 0.18447427950394513 0.13040567749870036
0.29930268794787196 0.2583536127947639 0.16188537665669855
0.2913508601595538 0.2395156057395269 0.1511708387428996
0.29435098552215777 0.2141330471069125 -0.06122409807014151
0.3073904875250264 0.3254660547902404 0.24722648089974086
0.3158968838857561 0.2605096622669407 0.16914654560284248
0.29857560157738305 0.22564449873502213 0.15268395901978238
0.31813376801130744 0.30990449365899053 0.1681699254162652
0.3451459701246762 0.23580785962256812 0.14629847040909283
0.29261314322999965 0.21103345145866115 0.13970308860078262
0.3015615583714464 0.2779422856253433 0.2270344234705135
0.2901298438981996 0.49081004229674363 0.28913619942993307
0.33862434424452204 0.2835822766621874 0.16155902748275253
0.34274431952061946 0.11662910698412077 0.0047852036968834
0.18351811444532018 0.31389627486217364 0.36275140592204025
0.2328026565837149 0.3250870122981553 0.10000232047352142
0.33625949569554336 0.24221839567712777 0.12337349741349612
0.25922495911027 0.2502404077410745 0.15210440065958153
0.318090072872792 0.2896325250515872 0.10793998242338887
0.3807117255562531 0.23259480618868622 0.11128025282076237
0.3371682668114033 0.2911393555413042 0.07618271427661227
0.3942201030968846 0.20200602481443752 0.12536867218435077
0.32253863143148465 0.26382016459447755 0.1336390100823337
0.29037940422944075 0.21262610024029982 0.12884078275128275
0.3366320109275307 0.2534413087673215 0.165101866037503
0.30429792573256975 0.27679515235595886 0.0957808945301224
0.6204947603279152 0.05216077038674882 0.03174223882385263
0.19626767424827563 0.21967105164203815 0.059696129527679886
0.28954374798783533 0.2494130014042355 0.12607507480851154
0.31094254635573293 0.18241725272909548 0.10042123375640699
0.3044223327727025 0.2842094706514757 0.17832153286042285
0.37686112762170865 0.22652605987502739 0.0885782472103358
0.37126727630428036 0.2718003437926768 0.07830479422423764
0.15786697988909282 0.2315600811522529 0.31113788592249136
0.3000029864983702 0.2574674948816096 0.1540021817203865
0.3242400656700397 0.14879324155360507 -0.06181276411192016
0.29314469407970023 0.25573351226483965 0.17285623427548558
0.3430113972136155 0.3199954453793197 0.2450298623362812
0.1643554149646036 0.3278154049628057 0.06958017244693337
0.18334619907020056 0.1409284660845458 0.06562922932550919
0.22987402718516137 0.28161222401007535 0.16701350380435542
0.3239932676096515 0.23574219282630793 0.1172043496283095
0.3476393710332957 0.24463568148595982 0.12473356419633319
0.3327192744223737 0.24644798943245405 0.12558136219386995
0.36486530637664316 0.2301503995026053 0.18420564416072693
0.3173486531576373 0.23135757507205312 0.09874454574091374
0.33100084185701917 0.19188799434974158 0.06476061671128264
0.39144351339427885 0.18230447580847908 0.10467364084917108
0.19669883155589218 0.2586264936445275 0.016006817741867962
0.27863825578209855 0.2743983693029435 0.1696320191526297
0.4791983840970744 0.26824757592115134 0.1483151214865046
0.304599829877958 0.23819226786990555 0.11832078799324108
0.27463420906244096 0.2047612051172507 0.12593183890777482
0.3399380894775277 0.15045099885364266 -0.06646133608691684
0.3140028827870367 0.2742962621550049 0.18057628028427075
0.23788029527811716 0.4149717104444335 0.1228566536434812
0.37405623662786525 0.23341574766624262 0.09083997410971278
0.26247070441044684 0.2640809131113002 0.17623566038605532
0.32715303430629206 0.23334174268327956 0.09100972246123717
0.33963054589274577 0.23786792879917584 0.1141180317505075
0.3077695936123348 0.2504470120582596 0.05762157798855583
0.2789695402561563 0.21390431198290116 0.14748680377766732
0.18783459860804896 0.2823968680162636 0.23552201001110973
0.3372278578993644 0.23528582362976636 0.014657250799174903
0.1919148980362877 0.3281682085823263 0.13890043074951564
0.35242772636119923 0.24756934942242026 0.17126082725530978
0.31593999709252785 0.2193701718730665 0.10154311870994093
0.3382175739270963 0.2844905835142555 0.1149548866817156
0.28207350900618167 0.20594254902158582 0.058596686058933756
0.294133344068257 0.2616907021063639 0.12644341875167697
0.45977903957455624 0.21386798412962094 0.11432893334188066
0.3034349038270818 0.26755668775325603 -0.02192590231162228
0.23934687712355185 0.276821940716502 0.09037658086930378
0.28861926811771355 0.26015396401703583 0.1850645012860923
0.29101910601178815 0.26911453253586615 0.1681570470694851
0.3263895249300788 0.2290716662013068 0.13994680927785907
0.2736248350935284 0.2577676927920436 0.11470221166007377
0.2895950964442875 0.276535140319794 0.18001653481464075
0.26474726995401454 0.4029470002921869 0.2150623340920106
0.39790945597215455 0.2012608176305264 0.1662094702732162
0.2857971134358621 0.2512045894008992 0.14576675427751695
0.3308640966812959 0.22388030673752723 0.1375233989741389
0.3044775534598898 0.26669441524508386 0.09829373049176127
0.40955920623196107 0.2622960404180219 0.2042666868921117
0.3505641286151189 0.2231948673927775 0.08445337720800694
0.30951346788748424 0.24703101395201088 0.06826234188572755
0.37735059619234335 0.19383984666770004 -0.11365969392315378
0.3584128623200087 0.6889378642416375 0.016227076369077054
0.3342075079503104 0.2508623511392045 0.12078928425719937
0.2701096940413663 0.24973902576397222 0.06270954060366307
0.3564796232888341 0.2077852861897611 0.09095621635127316
0.3026935002516211 0.22166023822416037 0.2403127179185276
0.3795288096108038 0.2017405042240057 0.07571083215592012
0.37116440395087125 0.2506805489963142 0.14564073730986138
0.2858778803384183 0.27545722915076 0.15217215855315658
0.224370600455984 0.3399915934176221 0.3381217006247397
0.3089929773600062 0.24863341451724352 0.13671222024592566
0.31069449085518386 0.35448136183491386 0.20138799762915482
0.3128395683839358 0.24717347404163093 0.12559775014607055
0.3562300608591329 0.2072234049743713 0.14431558280730883
0.2791269995345118 0.23959610771643725 0.16650494586637876
0.3355613452854982 0.2337866262586772 0.12850913225477711
0.34890938410420347 0.24291741084751095 0.04156556539686562
0.23851686199147082 0.21112233433530037 0.014984613134231495
0.13562391206093594 0.24071541542315344 0.1622323109257593
0.3229267281675732 0.2586099453160955 0.10525059388336899
0.21882497695891345 0.2706005404984637 0.22920326257145973
0.21467327817610737 0.23934541502863738 0.23097175883785326
0.29289658810156993 0.260946775062763 0.07173877827088404
0.23811298532532987 0.27159859562273425 0.22637540691583524
0.3311354931499011 0.22849728753843124 0.10370681368787871
0.38504509559419375 0.26350551931037103 0.18655899898510597
-0.039352143121689664 0.1887653349237297 0.07414417749004087
0.3014135224695451 0.29477780521069974 0.27390848754515673
0.1747121166606007 0.37088770170424823 -0.20803429877850022
0.2864578496153314 0.2665030243821036 0.14669059534192286
0.3930384763867636 0.21558533649408673 0.10502782099771935
0.31814254765248506 0.3143551383830925 0.17732361046566325
0.30600100812269204 0.30581396369166214 0.12665602496167594
0.3251643422528332 0.22823431962893892 0.11352260095765132
0.35853802401004486 0.2592425073563902 0.11052292574157718
0.3455656758044938 0.1735843277066067 0.060178738520377806
0.13696046077618007 0.6594259690936326 0.34174243568406837
0.30865042735571535 0.21830452427592206 0.10733472023618162
0.3769442160611618 0.27470492148077597 -0.02960218394277092
0.2605066041979569 0.2492579378313451 0.15178126072217424
0.36078810389514615 0.14547778134362943 0.06844341364379147
0.432944992648558 0.2593784885560666 -0.09957555029150456
0.30333345213907137 0.2643283242372263 0.21572767866466336
0.316113306996499 0.2630162681604844 0.19782967702400356
0.300824981012596 0.2340192219557622 0.13306990062659452
0.2994918185844 0.26395249098391105 0.14559439982397748
0.2781513664764077 0.2899993470815474 0.16573134063924044
0.2421619525327685 0.24585498603373424 0.19222484022182584
0.4148997078392398 0.1583005775916888 0.11919720007446699
0.3037220458644896 0.2588470929360369 0.15007302770411002
0.31612930025895025 0.2722518881727467 0.1902773944778886
2.5949176712980204 1.2144224457601638 -2.4442588827917007
0.32098268668426044 0.2620440813284972 0.16153583790566017
0.3334229418534136 0.19164940613995896 0.09083738880468673
0.3138849262799681 0.22895943333784885 0.12395874987551281
0.2984898463200949 0.25655450367574417 0.1508941616605881
0.30253637606337236 0.24565111091328617 0.13918083718803587
0.33879484821289907 0.24085122405796255 -0.06466811099765835
0.2822815490925876 0.217809471482326 0.08334523538491112
0.3055422024517753 0.23212525325045874 0.12941180773941596
0.35377353524310706 0.20812854542506898 0.10471788742961508
0.3039182927621482 0.23530085746813256 0.10973208194752715
0.33926781371368975 0.3054254172143942 0.1541554782307628
0.3685403191543912 0.24819676063745533 0.12467973166299373
0.270054998422836 0.24185723810040827 0.13707347577762619
0.30792257606287876 0.25507841818983934 0.14504681370840444
0.16318140592534291 0.29243441621089517 0.36596235353061957
0.3099082403838622 0.2083271564650886 0.01690473736346121
0.2935938477396576 0.24691094947168324 0.11967539255797988
0.32912658291942876 0.25874286922611134 0.11175715590412949
0.3194532483462922 0.24876342266040297 0.13533720700007734
0.45760123296440725 0.23608953738937544 0.12693944098782595
0.31069351213324126 0.29729700755737554 0.23962421228263509
0.31777485665824656 0.23908458788832831 0.13126056443425682
2.1550826037964868 0.6644109699435319 -0.8264076710343033
0.3478948933428967 0.2127744903897053 0.03658350504584007
0.2325115243097855 0.28785745788194106 0.18984281415870896
0.30272011873540805 0.23914653919464968 0.08149960644189491
0.31081668327476564 0.18852342681674372 -0.013042775198584877
0.32980727261121956 0.2343513028776698 0.07988370109853804
0.2808051161087519 0.25152752877396267 0.14658952948690285
0.3117321352302156 0.24750303219909142 0.11718802771454762
0.29591822090321784 0.39183691740038284 0.04609503759449751
0.3465167295099718 0.21876852448565387 0.13072057865255715
0.32403407471554146 0.23187946743908583 0.10201492594966055
0.42170245268985695 0.28698415098364194 0.03648667206229561
0.3475537512519793 0.11758751665257705 0.03458299482103655
0.27701234975199895 0.30402938207629404 0.2555604000998528
0.2973010576749573 0.24346414971843444 0.08757688612143966
0.14027799915787398 0.2745303869022564 0.14052710973369642
0.3332774142438666 0.21335263713703512 0.08060936317272649
0.47555669254396093 0.28452627723473256 0.12625209263157444
0.3034514357694036 0.2280710809017279 0.08439193299184922
0.22298415044593867 0.2837787366100315 0.21809580369253467
0.32394021693889385 0.22359799396994617 0.16067351720087686
0.3010258065043985 0.2541594393457416 0.2273238588893065
0.30773820444613875 0.25660539466228727 0.1259361166463293
0.34029402678997656 0.5174382987625279 0.3155645040105526
0.4815189486525213 0.2410843496191717 0.12572018055362832
0.2554829327276593 0.2391439717770254 0.11221462498880896
0.33252653762798445 0.22688103223596556 0.08303135473076395
0.36430685081987235 0.19601940599665113 0.2173220799325577
0.28633206849573867 0.26320831170721704 0.09087174346962001
0.11764097212014235 0.7647244363797938 0.2264357992119841
0.3609688948331069 0.20378389042269873 0.11278908856039038
0.3643781079726409 0.21811390955222976 0.08512714135281385
0.3441617210801553 0.2526708192258127 0.16769048796092534
0.34241892643528615 0.2557214078005643 0.10874273246261623
0.2552535263820914 0.257542004099804 0.13745788529146807
0.31435640060726655 0.24568148255265498 0.15686676532382648
0.32203977770976167 0.24158252570461514 0.11898075075191628
0.30418917428204395 0.23259090750319444 0.16500616676225377
0.3055749998430173 0.2849837177242307 0.19040376527284764
0.3219514477367227 0.2479483523568149 0.09963339714349218
0.3316092116856453 0.26392037816442837 0.14262438921610965
0.20758636628377758 0.7469606825573578 0.27877569091381815
0.3179589095323365 0.25313451258165287 0.139262301121704
0.27382959069200297 0.2670437172622826 0.15050654819107478
0.372336511452545 0.24021584295883258 0.06337569493251749
0.372139979548578 0.26118763511115617 0.16569918304200826
0.321313000086235 0.10187359698133491 -0.16622621503435653
0.35854453228733973 0.2530719695251804 0.1757886755275706
0.28592841739524033 0.30574089067050636 0.1687917570046693
0.3579702164754508 0.01764057759535831 0.06959421072883742
0.30989646891652 0.2698047978975069 0.1754006741415708
0.34657540805758913 0.2780060763471681 0.01743406977959694
0.7884641740913878 0.571297217054493 -1.3662560010341593
0.3415173637154112 0.314216093268314 0.21167275108575723
0.32959742987364393 0.2696938703032288 0.08966901302386532
0.3319573817868502 0.17226314852757696 0.15018712230420306
0.1424129646795791 0.30757602100004533 0.06788454908470953
0.380810781032892 0.1917521664212245 0.052866374737874366
0.24815070858632282 0.31353899888924275 0.06885678100650239
0.29364551275497774 0.15112848221309605 0.05598402371033728
0.4175638521401055 0.3152638357742319 0.27828209462163045
0.30238452299114726 0.2565205783168949 0.1017239283111735
0.30290470077844134 0.29002520580510804 0.14920808648616912
0.44082067473904374 0.2259442840703514 0.19373879175830666
0.32712172374610304 0.16491923197879998 0.08968241374088848
0.31820974895028087 0.24096187052680307 -0.0013864040072064654
0.30942247302554904 0.23904092094647922 0.12545614220283596
0.43220433444540163 0.1523063570371619 -0.002184958420912153
0.3207104648550967 0.23374721965353729 0.11777094022039591
0.33061326413579195 0.22396353058908858 0.14133130884764
0.3081947414398769 0.2442345236294443 0.09420042938438655
0.248150498425872 0.28337820477747755 0.11974017855297348
0.2861033232671275 0.2440676702048279 0.148958200292995
0.31231447579096994 0.25675133479643364 0.16396004004528208
0.3296399143808344 0.2694959538836059 0.16319579740593326
0.2743191291378366 0.1785590584597685 0.0466809446411105
0.3031915022714031 0.27015017753581105 0.21089437974418956
0.01373913151338968 -0.8465415417618374 1.5240299360873735
0.32592084463706783 0.2305336121110031 0.14049415219255934
0.3757008328586551 0.23221629656283937 0.04455585593919409
0.2767065454305566 0.21574686813116273 0.3845397667591328
0.2439737814250975 0.24884172385745273 0.2909274704691853
0.3076585902297069 0.23693908426515975 0.19266248641449124
0.4507995524504622 0.22728104918604686 0.21876075990475385
0.2787170043172864 0.24243251548747935 -0.06202089287873491
0.33638113112850476 0.2524205519236773 0.10594863172964608
0.28086551522875425 0.2905056284395471 0.196231649988988
0.31742304374523655 0.24393398064286487 0.12345284473218499
0.26606783629875963 0.26180392647736994 0.16147432079199575
0.32976070605602104 0.19561452468292373 0.12560373918184098
0.2649043263099884 0.2461950538640565 0.08774419030928016
0.2896631348313008 0.2537788038359281 0.1877282546979444
0.29511576700994624 0.2499211656996465 0.16451682099639697
0.28175959473441026 0.17673426511603907 0.028354524739967246
0.2793134122700849 0.2617320179847127 0.11318723733768365
0.3056452473290676 0.22258353830358146 0.04779744521047746
0.3165974602816277 0.24263567377352047 0.10493118115917355
0.34633715838586454 0.3044912749121522 0.15713655481104638
0.31156308938363964 0.24831575685419693 0.1371322556993846
0.32544586843164325 0.22685075658642972 0.11388361940575464
0.30380601172726074 0.22683301399570155 0.13368976150694323
0.31991338070558584 0.23787597270600713 0.07953040269396183
0.28930628871319186 0.24846913631660072 0.11207350642861513
0.35319030244824035 -0.10177942660047279 0.24515889692224846
0.254941662141448 0.24584162495479234 0.11430480888003558
0.3648600948105525 0.28730484325436123 0.22855047117764116
0.17844803053506553 0.21164924041042354 0.3411663943015242
0.32808333220651775 0.2352211703397984 0.11027079187289246
-0.13822592177510273 0.18689415394131004 -0.007984142177406284
0.2962259065609487 0.26542159559181755 0.1764011351149577
0.2882699830526292 0.29706777508602045 0.16052312463820329
0.19228516633501158 0.08733923736456006 0.11556015380543272
0.26762352993314664 0.2658836302093164 0.1533597515973355
0.3077834532769259 0.22919586966904149 0.09764139625451662
0.22133843136646192 0.22620058526052844 -0.06834980610489083
0.29758731946395756 0.2556548576999802 0.17994954021830267
0.2481157956863882 0.2829785418029189 0.18367275344294853
0.39357703973900016 0.19973182709892967 0.05216799377416237
0.3994910797208604 0.22577542063720557 0.1757000538317186
0.26756138974364774 0.273995376971385 -0.06379627126557352
0.34518240366817565 0.2539914417644411 0.0899082755430527
0.2915247912325043 0.20079179911542155 0.0555478052439895
0.2801730449716615 0.23054137505472738 0.16213094910526138
0.4715750618219232 0.23466439404788275 0.07097805499807919
0.3305416964893766 0.20597228542823132 0.06581103339739514
0.284140449756606 0.25844816678051075 0.20316042778455312
0.3026672885142858 0.25981329708153567 0.20420289509567624
0.3434642618115049 0.5220392729350039 0.5690049701024975
0.3170668678676236 0.21350140177490573 0.16226660718099595
0.32092377439019515 0.2235142119758109 0.11135912908818568
0.3251311438501858 0.2871165522472836 0.2295690308636722
0.2776483439982229 0.24805876527361193 0.11105588867332017
0.2723191556613358 0.3134643208568946 0.12856132390865582
0.26758464636643 0.25266759207289624 0.20332242913923437
0.19555823672840233 0.23338500264921436 0.20968155874058425
0.30403569124473506 0.2752367956336741 0.222150018920388
0.31011203301552825 0.2623808578993021 0.030384265355763773
0.42454466606271524 0.1544797586133484 0.11077551962782195
0.22389622476038085 0.37818817859110254 0.1868872715700718
0.38790016334655775 0.32207687421168885 0.28617403926979534
0.2888559837253979 0.24787870889292662 0.14971691334662296
0.3202220683411525 0.24051672996853313 0.11426668676044471
0.31103060361911616 0.28049995899159796 0.11979187905738797
0.302922799393599 0.2519418619239673 0.1312504758196269
0.31591075907502386 0.26543938049172766 0.16077268172772108
0.48940579639952375 0.22409384334403626 0.19109115559760426
0.25299060690161923 0.251789101949214 0.21302855459947523
0.3249374748310032 0.2429379688134361 0.1602470098710569
0.34419388680007046 0.26329585922331944 0.1494872134001497
0.29152536524703976 0.2803817859381468 0.3025887159541014
0.29070876415804037 0.25585834279087294 -0.397290249413345
0.37323124874163227 0.1261518199795404 -0.040537528163810066
0.2726769359950936 0.249762448165896 0.25626459415113345
0.31631424538127817 0.24797396552482098 0.14661947103093098
0.35702062332578066 0.21171730847248682 0.17266629937881817
0.23245512874009933 0.3627555914404468 0.3401610971510536
0.31120635240640127 0.27979808716543175 0.18034925171585314
0.30642008862184866 0.2614047444061214 0.054727152273045476
0.22833692388886107 0.28253240668243507 0.2740819555348537
0.2766126083713516 0.2388881011361974 0.1909020718714629
0.3150778826357481 0.2539257874920082 0.1404221892622104
0.27843250899228167 0.2075150224281117 0.06796737344507164
0.3029987157113112 0.23287545584537384 0.12510132838322363
0.35532232827111443 0.22330951784653053 0.09415128157225183
0.32163977610932193 0.2475278588145784 0.13106851780253237
0.33097135722694304 0.1675490201313039 0.02215629964982213
0.23147848138131621 0.2654001868957607 0.1862524534307397
0.41082247594864896 0.24437866318292834 -0.01801482640667018
0.24818382662277827 0.24355132619115238 0.3258715263054057
0.3595009472856674 0.22730960343264428 0.12338232164357521
0.2519112349322654 0.2790751927507955 0.16097509949436528
0.3332757472557546 0.21699797358614603 0.1164740381577758
0.2807195739272572 0.23787719793524786 0.05062246632763845
0.3260695983540529 0.2278651182193414 0.048273576027384024
0.23842283321408786 0.33218903969850544 0.233839617328357
0.43287010288293004 0.2751220848959406 0.17165909197308338
0.29060510853764754 0.23134781279901517 0.13282474923143184
0.2886194339916983 0.19893233084908957 0.1340522575380021
0.29895556255294764 0.21864097391984672 0.0685651858386791
0.27612385876138035 0.13995712248113534 -0.03660376336526383
0.282944498978253 0.24365723133433903 0.08755964076630107
0.25497826985623817 0.21817749099867 0.1650957097989192
0.340096585313276 0.23311861340063444 0.11084283330808375
0.037735367360113514 0.5550111942096976 0.3676059629763415
0.3287952148739919 0.2374638871339414 0.12467362810852478
0.535971732501423 0.22335637124491825 0.48711375850400884
0.6304596558126434 -1.4648551793580395 -1.0034398452917799
0.31196107224455716 0.20863954400336127 0.09258304935427475
0.3469462569067048 0.2550617466725953 0.12609084829472295
0.3617794180161127 0.24652735350298371 0.1907813152728295
0.3417218909190467 0.23634083151279128 0.09992575060512365
0.3218323840929571 0.22733098670070717 0.08019354887971986
0.3534501773014256 0.2069079348922287 0.06431909696200933
0.31021060788978616 0.25898322906300564 0.10938864798778525
0.3221059797639043 0.27802771575110796 0.08677574529338017
0.313181431985015 0.2374279510065378 0.1197440639094225
0.3270925860927747 0.22061809480661054 0.09838102720013353
0.37001275715221027 0.17929885067442797 0.021735299750190507
0.24183676370557805 0.26973515316089447 0.2462901536565738
0.7724695168834899 0.19553245237133865 0.5900590223778863
0.24760549584219405 0.3109203363082429 0.20625277598180958
1.7136962778289728 0.8008419079717441 1.0474968930301287
0.3023229137491228 0.25049575477764563 0.11237778798285092
0.27247871769274923 0.2126593101816212 0.2249099495267899
0.026096046211819157 -0.543508137325702 -0.5218496646384807
0.2183440831741308 0.25890428292572665 0.20757198308608338
0.30010823345696735 0.2169978924688678 0.0007922145316712204
0.3815904510560415 0.2290248194346418 0.0778867555335978
0.22320178487325393 0.24505844782900965 0.053138311965696516
0.34473399604590327 0.17068659813742215 0.023862175196143198
0.2937806528132967 0.2762108360934832 0.1748490927603541
0.27688714892744315 0.21542240701106152 0.07805653914397226
0.37391312740034266 0.1749907709043157 0.08677382595436711
0.33864890312852935 0.25005770394139404 0.12417062401272005
0.30137279417186846 0.25299585602232355 0.15938841652915414
0.35772089408462193 0.2746618518995092 0.2291623611707081
0.3547628406243746 0.22642194620695477 0.06940155854798036
0.3126290977993449 0.22927295640891998 0.0821429176822619
0.45537665040873776 0.21317562660733813 0.010277538675481424
0.32028764310499014 0.23043996262839528 0.08150206237260704
0.19078334956415688 0.3763710707362975 0.2003168048360635
0.30000609286003055 0.31609175321108296 0.2559210647425516
0.3341794329618324 0.1311068401694513 0.1617437490340592
0.2894290745841772 0.23105686738526288 0.11952950779975424
0.32429869922222565 0.2980935590243945 0.28913969328922917
0.3706505698927458 0.23768229945372354 0.12140019742597019
0.32147334652393056 0.2693585030035308 0.0998555419052849
0.3403834917722719 0.2761121071319508 0.1348603190735389
0.2227258134117278 0.2606838652647241 0.22187206199885168
0.2539368798670125 0.26163238803042077 0.13317269810553967
0.2968470416724216 0.5873730615095099 0.5518932736572992
0.3283664702212832 0.2449963676641005 0.11183634926601371
0.260934851372582 0.24102855761768183 0.057223341970455976
0.2729702916605703 0.2691407571504527 0.14725942586987628
0.3233160713978265 0.25879568911548745 0.1963885272830339
0.3047982129941147 0.22448816038544805 0.19838291995432655
0.03703119975781988 -0.1783924924292819 0.28308628843194583
0.35760701497902403 0.3694610658316577 0.32558346594433374
0.30274809245639744 0.20256094938835645 0.19394584577213436
0.2762871827360982 0.30520522949402107 0.19068538890005016
0.20224239464951665 0.19471890118261115 0.06182365814295565
0.30949806131172863 0.2518588720770083 0.13546805474595658
0.24602530138709255 0.23898159544097552 0.026525315147083006
0.3131653519171209 0.21827466509331828 0.21673173213818586
0.30600841356705644 0.22304012773344084 0.11812677963318663
0.3737685864365119 0.28260922940529554 0.189980487087837
0.2894649310524926 0.22560481096169838 0.09258527500375635
0.2619177419056484 0.21168799634637026 0.19274465835360388
0.28344498592070977 0.260311485172366 0.11358545050131852
0.2510629475393813 0.21192873358000952 0.18006563201758752
0.43836340182653544 0.041213912370835715 0.13574110383082427
0.33559713681573555 0.20445306057666812 0.07972435433529768
0.35399121575727577 0.20663963665364804 0.11795047776271872
0.2480403926727206 0.2544744395964784 0.10791738515158045
0.22798664494959553 0.262746507847325 0.14396394955660696
0.3663406607531243 0.2808919085788233 0.1561544616829451
0.36169862798709573 0.16511056002408964 0.18845447385574232
0.35569105195997963 0.32403824720655905 0.20037960381071684
0.31647277348488956 0.2540423532952474 0.1892127646188726
0.2048746243887365 0.5079005878799876 0.12693153707405713
0.29198710575359144 0.3268185324765227 0.24171173317890293
0.315453591661651 0.24718531059983206 0.12904259159611797
0.365916265133194 0.23673564431743443 0.12177777342483864
0.32360671382362227 0.2253097381597513 0.08912799680305739
0.2838549897820144 0.23593389446412516 0.11908506605414004
0.30329927661999534 0.269942745519657 0.17551734224335291
0.808268830832418 -0.10211793328033991 0.2087122460181945
0.27632266826957164 0.25633232022104835 0.16389151157272863
0.30565052841728857 0.256327560361882 0.10999526534095594
0.21505708348709618 0.28155386444278463 0.1994826969236101
0.321691748465355 0.28471548420219506 0.0679015567502006
0.3143108632406211 0.25443027766667115 0.12576270797760003
0.12068426604622573 0.27868272639759084 0.08475053092661256
0.23249738695609778 0.23787134276793154 0.36309124633008594
0.3170017714149793 0.3593188594591652 0.19442087410833153
0.3784251328884807 0.23240595090163652 0.04318557734245587
0.37909315307777547 0.28364103468237545 0.22015816980599823
0.320597555586005 0.23090037735457258 0.11439015634405791
0.29225413043506876 0.22965451178811236 0.07522805209833905
0.28105946822481087 0.2654114977529787 0.1367866338323438
0.3754280989411143 0.25079157660142926 0.1744495842845879
0.2839637130360586 0.16697118464372807 0.07540523755088202
0.33506815371617904 0.18788469257658846 0.08516804435137715
0.3592074561230305 0.23727638797481632 0.09419053469599703
0.26514229847522586 0.24410869679833525 0.0835690961833393
0.29859911800571126 0.2264603292489369 0.13090663223611898
0.29533288743851926 0.22533685695964323 0.16571057300255632
-0.006970849201366036 -0.4812942918660781 -0.6362679941566398
0.3117128253832817 0.21815698987910537 0.1556368819410494
0.5647018750219104 0.07285748594590302 -0.06202269115543402
0.30477686310146623 0.2766170387649254 0.08979654111729474
0.2983136178585255 0.23970685884117415 0.03500751818539527
0.31719034981929894 0.17437578959692246 0.11190020831037373
0.2103876711693431 0.3358340757844047 0.1784953200211845
0.38138360378229663 0.22665568269061964 0.11450498576633095
0.33369654558470074 0.06296916176445677 0.22597890413914
0.369787539696091 0.20453736311749537 0.02549406413247368
0.27635240645199133 0.17141652342230884 0.06930768887004035
0.3021770930506875 0.22894346748537941 0.10667372792241281
0.3462191796682532 0.2465413709172708 0.12438076706446566
0.35270736529847113 0.26067671541974846 0.20295795897682467
0.3140045104521221 0.24776077071348368 0.14222401378492577
0.028507535750577517 0.42359794216477553 -0.15787946389538376
0.3254000032894737 0.19891523116655208 0.05477275683787752
0.0852752114257953 0.6731925598636366 0.4377131928729341
0.32374186843685493 0.25681767975459024 0.15944650099257274
0.19620737767657204 0.3899581146192901 0.08076257096087147
0.39290977702736996 0.3462613665960532 0.3308871496000876
0.5650335410780514 -0.011875960081383141 -0.5065148763468983
0.23246698775997743 0.2719964060510307 0.25087264567052614
0.32213650378287184 0.23775179045858863 0.10782109339530166
0.28800494337772875 0.2754774611449875 0.19025900385804562
0.38890996917965026 0.23438512027462366 0.17136734837201573
0.26648629799561263 0.259282213719473 0.125175576813092
0.2835784335884881 0.23534027908098665 0.11828182246635777
0.25371250457175165 0.3300063403357001 0.21686348305854608
0.3877600373584613 0.2586038298950939 0.13815718200777383
0.3140276127049617 0.20775125153477347 0.04932681610588929
0.32473870778858327 0.22933401659179253 0.14812664099380868
0.2950850967573331 0.23655328803309317 0.11238781873070991
0.3042997497585418 0.2538924318654239 0.13637147347745326
0.820919754670669 0.2536731805039949 0.6235700604227361
0.34487573130341787 0.23093816441391368 0.06471552988404028
0.507889645822388 0.09871180993579287 -0.13532318157409406
0.24959511438672166 0.27818061381904613 0.06297909866373175
0.37417090664632724 0.21974647982931117 0.12858711319485394
0.2604301897456196 0.2408930222283061 0.164575507746747
0.344931364024859 0.400784921537678 0.3413843026657588
0.49248619268686866 0.2309531834709162 0.14451630789531578
0.30223791551159707 0.18881062202768817 0.13597259218440172
0.3344667423227463 0.20074046051456662 0.25399953736931025
0.3226900869420035 0.25207469420124085 0.1224794975506569
0.2357802559823483 0.3502999417929118 0.3409387455199919
0.2876228102264804 0.28383312451276765 0.1799463333043434
0.30850521158355093 0.2452162702598315 0.1501351550585639
0.0795505149039002 0.6186313739681992 0.35393947984664464
0.5192173900127841 0.7009135542185589 -0.059785216674555386
0.35082476726482525 0.23135603400056937 0.12357558308522698
0.32746164386628607 0.23356542817556658 0.12856545665805186
0.37486442271517717 0.22887154028413192 0.08196775065175643
0.31947545092855023 0.2644994631184261 0.1563036378715026
0.50420927684074 0.11343379707264489 0.26109765036189003
0.3573941430600769 0.23215189724469099 0.042301327318853055
0.35611903456089067 0.24032595071710716 0.1865457877953247
0.2941229048161347 0.3724099978196591 0.2441247822835635
0.30179009078707963 0.2518279990684249 0.13448973062490666
0.3143759372387933 0.28707878459445624 0.20610737728722484
0.32278836844966463 0.18031383368344223 0.14543274933822659
0.3012342585697354 0.2637176972760358 0.1262500276706362
0.30970799159882745 0.23927735863487953 0.0885514523640154
0.3219102621910963 0.24209994667873502 0.08236917135171495
0.32312256041137744 0.2348706962038989 0.1276052475410836
0.4125616083648822 0.5332329795980684 0.2968997938121447
0.2642284717357768 0.270009066996991 0.250136183793245
0.31671496135365373 0.30714166214738725 0.28108425414878013
0.3084631988260753 0.22726516468739533 0.020081416569439625
0.4057292231636893 0.11125031163570043 0.07126907556228446
0.21220423873950267 0.3466519614744641 0.09819068227236016
0.4091145974057895 0.18166338164775198 -0.015081309123871733
0.3190445195564422 0.2642925942807892 0.13197340847824535
0.2933944977384044 0.25299133595802914 0.13885887340818215
0.29740610451996474 0.24744298230132244 0.12155031629077939
0.31159140945997876 0.2341207147685509 0.1190034879139148
0.41833477748757275 0.34425279190303115 0.22493144415909683
0.30671986598625267 0.2170681619763002 0.07364402263445413
0.46899972057502737 0.2655112400833559 0.04187503556093475
0.009075667561944556 0.25030966198266924 0.07676118556355505
0.3980675071961741 0.2710475886196093 0.28815495480303355
0.28953781776446874 0.24070024365590825 0.11838849020813313
0.18943914141645735 0.37492835223372367 0.2832816489075185
0.33774785984510913 0.2471509678918835 0.13855787368626693
0.33705411496760007 0.27057478951630287 0.12499081328080308
0.32149812753928586 0.24373730455189957 0.13081849927748124
0.4575352912682291 0.02874735785431426 0.051572621558563014
0.27787653154092595 0.2468845256282748 0.19279686418462916
0.24205126148940792 0.3133744211359186 0.17751012938197164
0.30803609341685956 0.2686910989333171 0.051303835883487636
0.30539522681817743 0.2057268477202001 0.00017599796566969417
0.2628877999101178 0.2632515451517179 0.17492325638417583
0.4666177427091043 0.15703333245598117 0.004386681960312444
0.31487748154381734 0.23982781215315185 0.10332100007505574
0.3195358871249425 0.248064277162797 0.13253288296289156
0.26564733975351373 0.25501800503016625 0.18477638890112758
0.22659782563883368 0.270725644482269 0.19055887651269643
0.36202730657208804 0.22079567735136152 0.15855983118996164
0.3205562044665555 0.2576835124710044 0.22982775200290462
0.3067852285193595 0.23324804002436395 0.10602299271531024
0.3271343830692217 0.2130047849305754 -0.02430725221474006
0.3807605337721327 0.22581464708571275 0.1357132567657402
0.3531107786516401 0.2867078757391539 0.24735072020895643
0.3218925008539344 0.2308619000630756 0.09723398457460064
0.3445086714258423 0.2191305906727763 0.10419291407818321
0.2224858529855851 0.19634692913372476 0.060944307166437284
0.33857011020216987 0.22915917049165557 0.11034212838441704
0.24788085146991534 0.20544288667025512 0.24192589424518474
0.31225608864056653 0.25709152623204545 0.1315673757429323
0.30120481123404375 0.2883937969599657 0.1690790941222815
0.33374558408240773 0.16606647291177978 0.1627655355312072
0.3149626973841606 0.2667598429728173 0.151002111922395
0.3175655154083472 0.24465485369614726 0.12525049755004147
0.19000541347369904 0.23511550351712174 0.32434654711009614
0.33943933227462253 0.1824318188778733 0.030646543890810563
0.5013918418678429 -0.07096799587525027 -0.14849818957306127
0.35567681593867917 0.1755821247890026 0.15660134909057888
0.2976452879006217 0.27018126736737713 0.15128922671483735
0.3537968521742698 0.28413624975712537 0.15763682888803032
0.31460602486845346 0.23910038366058473 0.16329283014242435
0.3531634560839052 0.2138541021743663 -0.01906882915905328
0.29285658095788847 0.2669641091539603 0.25458508506025623
0.30213844635417786 0.2578229163938204 0.2599453507840934
0.3493578290047026 0.2725656409985504 0.21656245327218926
0.15471170165881176 0.31313429437417994 -0.08849181093660263
2.751327066720961 -0.6104592808619032 2.0548292855201566
0.33570240724498035 0.27392136418987434 0.1837405648459054
0.3593531821114766 0.23365357470501635 0.04500341076189329
0.3090297661758683 0.18261826653299806 -0.010326339998670164
0.34103644579579395 0.1717536011649372 0.02780064234816848
0.34008405056471247 0.276595288670336 0.12959104628242812
0.2765342590288924 0.2343774664938394 0.07217303284186016
0.34441749168540525 0.19089754425422711 0.3839619258624225
0.25106131521296504 0.2719965920513516 0.1320421138637613
0.2933750090700613 0.197084088874945 0.15700780922796298
0.3428107206031257 0.2801430305267729 0.17890726172755933
0.48069781683317103 0.11103899374901971 0.11100785573445648
0.3158543278489674 0.2189903120910941 0.1363049934036411
0.2975563533380239 0.22765505344892745 0.06030804431702563
0.3316267709837888 0.2618096095909834 0.14915248671175618
0.2491721913799978 0.12662091333531578 -0.012039657429411932
0.3134911411918182 0.2651078794399382 0.08235790660774
0.3010999174932323 0.23543844020576898 0.11092494842100109
0.36826299544529206 0.23238284813754717 0.1253283388730182
0.27561233924160433 0.21255116112490668 0.09743148688211534
0.32164363320029565 0.2436572214341055 0.1307240266764893
0.29543764093830305 0.2324469997939218 0.17865178397531167
0.2259156918141656 0.3591338613010606 0.3172648216670666
0.17751554746664056 0.26998715951758356 0.15348535293621524
0.3654062699602747 0.3288265450218262 0.18187932789911088
0.3185124921624265 0.3277868133631614 0.1285151547728276
0.3086704284096413 0.23179891982343293 0.17214230800655628
0.3507661332565135 0.2514731524106679 0.18198397917323916
0.14608562498762012 0.20824785033086357 0.31070287899369475
0.342254288419241 0.2247012065299998 0.11861031307044811
0.27195873977487395 0.23505588141996725 0.1973060343061519
0.25368474289049914 0.2908102484810513 0.1723898102493422
0.46023931023094633 0.07107768160284422 -0.20296014608169344
0.3386948152235334 0.24044447740666897 0.1984294347660267
0.30552381813831175 0.21634353873358236 0.04877497306665646
0.388783923644894 0.18113771019815772 0.02789609454370634
0.3501011481117331 0.2743829738665937 0.11303066394302164
0.3093878369306111 0.2375383683483676 0.13036173441165033
0.31744127344084916 0.2679340657357443 0.1776509156353825
0.2748428061993735 0.2472754503351382 0.12898463296019713
0.31810970367293123 0.23013110003307702 0.16262694946121314
0.34583972108021044 0.18056371863080756 0.012118308807529843
0.37142608064638694 0.1899923886766146 0.08386131898129179
0.4538735722902061 0.27721849909568164 0.17406833631768848
0.33799171006532447 0.2511590682195646 0.11225233579102678
0.30226775801722283 0.20702414242659017 0.0441507611833174
0.30877429955722846 0.20329060162291057 0.12780561844746785
0.3767456583359774 0.2537596042682537 0.16916314665157017
0.3308661437687874 0.28515988935455994 0.11067166037636866
0.29460493220743444 0.14135377905657265 0.04493884899775935
0.2796218813102769 0.21964973863441628 0.13179517955299502
0.26706859331841315 0.19953045293414107 0.1180419761193292
0.2695600133590972 0.2637116180121666 0.1587028556724306
0.3545226002735262 0.23110904111261732 0.17537434131078555
0.3370948339430129 0.21524144690002345 0.01254358524630561
0.25533764235936474 0.24961538034997943 0.13503987269945128
0.3490448046382255 0.30579383049528985 0.20334716703898437
0.3518698235998272 0.18238582441651374 0.09103674713929877
0.3491241944005452 0.2566536614363599 0.08133221945172409
0.3241110306770736 0.09163961091829265 0.12385192095223374
0.3840485159860805 0.23867507973697855 0.07861218789128088
0.3087848620271245 0.32033206670877235 0.1507864980401621
0.3494981263964405 0.20352863993591086 0.10174572693837547
0.47427467003359425 0.26851617034063224 0.18754477232519662
0.3286303539571094 0.23084769691979545 0.1349699839337859
0.31023140709157815 0.22850157205641608 0.08066987675888981
0.15794167542969717 0.790726689797566 0.2632633097195196
0.2632252049539403 0.17961150357713507 0.050794077287292794
0.3467098806099784 0.2407347087381595 0.1338427275656926
0.32683165260640124 0.2574367935220607 0.1162850824704833
0.39100131163399965 0.1287782633917942 0.12926771936629677
0.33249048913094725 0.25033095857119747 -0.045330633503226636
0.3001879742410125 0.25195872057945223 0.10555581292884142
0.4623499320285873 0.306528777617018 0.04621658963944242
-1.9826839178407454 -0.3375968634234141 3.429492058968634
0.34803244568492175 0.21450703057135456 0.10097015272449994
0.2394169106968036 0.2414668579420578 0.1209606838230286
0.3006646830455679 0.2699894280633828 0.1451126070411135
0.49147937620324456 -0.39335105029347517 -0.48124947284540553
0.321694630479314 0.23869454331719453 0.0929617811666219
0.2879659641178449 0.19827607548981518 -0.01449311895467531
0.7454242861680029 0.1527968470621346 0.0105431154168798
0.3205516343143415 0.26951856670278573 0.2602758909377627
0.32225151958193976 0.1008421609158745 0.005795193513478125
0.2762032277970121 0.23917586244076006 0.16287639326351666
0.22037339044960902 0.30576593040782996 0.1388536093442525
0.2801117432963167 0.25909787945181506 0.14210998799623553
0.29764998173428125 0.26919289946320646 0.184720963740574
0.3277818031702395 0.22619658478443228 0.11591896435187721
0.25162428993553476 0.39474540569867145 0.10293065443580929
0.4012866039330447 -0.07207912730015664 0.09228865863948954
0.2690659644452609 0.27593171990780263 0.14758422106977775
0.31172931469777154 0.26832891989786845 -0.011221217094430358
0.3243580380045046 0.30477714803691924 0.3808508006268312
0.30650438738791763 0.271204641039958 0.20810932208171096
0.3184922488487132 0.22458938604546574 0.0822595267188575
0.3313302254547352 0.25838909592934556 0.2339423436073247
0.31245836523903847 0.24370972668080526 0.14872823862211249
0.290796000328271 0.23396953263575426 0.1456368292396064
0.22502031692982882 0.2759121840189209 0.19754177159262554
0.3398016112937796 0.24919201661451496 0.06833074263977323
0.33696047999760026 0.21516425285186358 0.12635159817043018
0.2596842427403061 0.24723071492684312 0.10734550593500103
0.30466859982867334 0.24917293675891017 0.16336718872014444
0.36072307907613776 0.18790648525863674 0.07108696644742452
0.381744646990569 0.2670767723243159 0.25388509698204587
0.30564177072938037 0.23983149107924362 0.11601517693219421
0.3604393451255703 0.16178327091921574 0.09943927399918095
0.3557586613807473 0.2822076611671491 0.2042307848049063
0.15025312052125628 0.31966657683697974 0.2658674659071778
0.308064484457816 0.21707994664707542 0.14700312163583362
0.32443259874844443 0.20579269279238588 0.13392491650111538
0.3182379349511564 0.25660758661156535 0.15722664990019553
0.30876110172934546 0.266869245083285 0.09529633748954325
0.261379131940231 0.20675963546391074 0.04519854117114619
0.2971546920963988 0.19904416498702915 0.12365942963440091
0.3399015333671116 0.22476823220536346 0.14573136722268032
0.2600524844698384 0.21707795348063996 -0.00018348014251046152
0.2694759128854116 0.21915395684669647 0.08884982949925302
0.3172823883917033 0.2144737506010017 0.10991190770687354
0.3307538263864558 0.2247252866512639 0.13036694267367466
0.3165727894190411 0.21171336094374738 0.1218808387481829
0.3458682893925129 0.2871613104399273 0.15947811321528604
0.3183243508404985 0.2041433113639073 0.05280591767586884
0.324768038439899 0.18989923657215968 0.05740907910356441
0.25136487775256455 0.22216785816246443 0.19352999006960658
0.3988969878512023 0.248599275357833 0.0036370228176281216
0.380487309292846 0.16762922019154303 -0.08639759926367674
0.34388140772131237 0.2488838132939435 0.0798478574003525
0.3519561163472247 0.23183306050972874 0.19713825094821402
0.2629230415483903 0.29603909511202176 0.16917941433264616
0.37439576549465414 0.21005663853034662 0.23613565266889225
0.2952121160668497 0.2669745702751385 0.27268630933218674
0.17387207587253783 0.3551422790572758 0.22312738764652806
0.26086951001626346 0.25087789048566833 0.10923646787678365
0.23118210580938126 0.19874208181585118 0.024270363305745946
0.3392107982989785 0.22061570053955393 0.11790857446361258
0.4027353287014819 0.2917440775564586 -0.08898784823155381
0.3081174318761555 0.24166678804309072 0.16378531758559234
0.8230951999418608 0.051048055138920745 0.5342743586869574
0.2846559596469831 0.24838442723333287 0.09604787897984579
0.41800650221762226 0.27260228501742745 0.5114142065275757
0.2761060242289375 0.21136351275063703 0.004535115516162591
0.3164687150782157 0.24214926850623897 0.12804273758393947
0.24236671223093254 0.2136465091465709 0.1606619395506641
0.277682711546106 0.256401848536143 0.06867826892013795
0.3078915270028091 0.2540004643629743 0.14429239115801806
0.2534949729030842 0.2205683806167258 0.14762444272838593
0.27192733480816855 0.22846730476628352 0.16368538675513378
0.27599548953492103 0.18838305321961002 0.01378867818038998
0.34077077587795657 0.24992231442531931 0.14737950794463472
0.3713960638665128 0.2661207872001796 0.19211435019431633
0.3379888590883695 0.22635145757566022 0.14802573412396214
0.29095266600100445 0.2712866169293875 0.13269677830544424
0.38057176766957923 0.19835170293319493 0.21089021987540946
0.3749214656601083 0.18331697347989007 -0.007397522041159732
0.40404211010478264 0.31397048664405247 0.2541964061371118
0.30438629490490143 0.2708883583267152 0.19696487938489327
0.3414913796350447 0.1829213589827532 -0.0033956365976877123
0.1802721410981576 0.30022776391017203 -0.027498396451932194
0.9086864502715173 -0.31173264356729646 -0.26745475936017726
0.29989802738238325 0.2441164316104505 0.11376624238130262
0.3037744308993098 0.223308809042706 0.14098186349957587
0.4254658415848098 0.2890031873367036 0.23426024082434083
0.33159185928603563 0.23620063827060278 0.16003375639522233
0.3440159555432274 0.2755784076429961 0.14242132556455545
0.2562919949332638 0.2358101715101384 0.13378077515741893
0.32095896884430886 0.21908383947437926 0.11973116410294438
0.27487329916731085 0.2675523900285839 0.17266682069271155
0.3653418565320692 0.23425788817866078 0.07368760616304826
0.34927238634011815 0.2557250733295291 0.25576459521641937
0.3259378475660526 0.2766182559461754 0.17548257471696616
0.2988665972167155 0.24905744650885708 0.14922248168767283
0.25123448637107515 0.290712750512796 0.24190053279254187
0.39842779403801387 0.24811387274559138 0.07624295265877379
0.31107484857261625 0.24079531312327163 0.17757622264117856
0.3105487952337853 0.23443544319668774 0.15711333493676705
0.3285733791807104 0.22670962792489036 0.11558983102119669
0.21974646454845015 0.36838910826269 -0.27712523978544823
0.3209789635241975 0.2613604325356249 0.10436048092077499
0.35008343175766754 0.2808892545774313 0.1350159616614235
0.3209529840866452 0.22789447241839866 0.030247234948888035
0.351577697728203 0.31475730694452864 0.13228765011047017
0.22371281338067206 0.18666636442534923 0.0598477654658609
0.35347240438791516 0.21503953016996036 0.11389458221438531
0.3170181641376928 0.2416630811585776 0.16487465997140305
0.36060956655450127 0.23299207159828939 0.16811821033212482
0.38578948736764573 0.24168608192276508 0.1187238425937096
0.3849178702913889 0.1772247799841864 0.08358819127654726
0.3369122397440094 0.23028500654953632 0.11919224046769727
0.35640554980710704 0.2750370141750551 0.13175807954870322
0.3198414911991989 0.25081079850491506 0.13901916301679762
0.2768622788821773 0.2586277801630956 0.20954782742018097
0.2530461986541326 0.2570480732967724 0.13914610811781358
0.35730088647565594 0.2427236974882021 0.1728803844070086
0.3107450991522569 0.227321464959914 0.07086639498082548
0.2797368500941957 0.28079054517075974 0.2333366538274504
0.35296141016854676 0.28057620858595556 0.23808767692929678
0.3524184761711524 0.15479031320032277 -0.19370280828370312
0.27158581505221946 0.40707636662833124 0.14510328161873076
0.3548529443147288 0.2174716637631775 0.13340014825979551
0.3436771320458405 0.20957422975891404 0.03461360185809781
