# .PCD v0.7 - Point Cloud Data file format
VERSION .7
FIELDS x y z
SIZE 4 4 4 
TYPE F F F 
COUNT 1 1 1 
WIDTH 809
HEIGHT 1 
VIEWPOINT 0 0 0 1 0 0 0 
POINTS 809
DATA ascii 
0.37089790645921994 0.3115675032728973 0.3558937018420778
0.3510769826487774 0.24173546741441498 0.12908326297636563
0.3258313875412995 0.24262776037889466 0.13603510414532138
0.320818041786481 0.2661969167147049 0.19709441058203936
0.3336518325724427 0.23457969478047858 0.07502341808753954
0.3217943474625855 0.2665048574399691 0.11381296207785851
0.29615854012622833 0.27064514522820105 0.12917454852724575
0.4189016625495299 0.29263704552701597 0.037343002989686624
0.35445241805709315 0.23683493596570315 0.18310731398216262
0.12870586004744666 0.4039543116780493 0.10721873603252163
0.3052304590217574 0.2560377967999443 0.18677373947291187
0.3279390085197349 0.2391795313987899 0.09784770969514511
0.3279825454244616 0.31325017785277964 0.2093780396341316
0.15766214715986848 0.624337511468525 0.26413641833661927
0.3380823671098483 0.20961464320194523 0.08513705008859063
0.366839336247466 0.2943034806070415 0.08965028489366489
0.23117674758560725 0.19230738592887064 -0.0256789308234886
0.3733824630996594 0.22299567693201539 0.12745040055668255
0.29779170954500955 0.28948672208886705 0.2596230801764392
0.3205039033207129 0.1669409859115092 -0.012517651382438544
0.31724792832875437 0.3378269316912821 0.0994378259243831
0.38599304852715477 0.17138338181194968 0.05008655123833705
0.35101144758441194 0.2327070098974673 0.0923134769757894
0.320637409064517 0.21643592278380197 0.06357177937870517
0.35010529145981195 0.2523598769049613 0.11313801718972627
0.3503789307341094 0.2724478074302681 0.11728194486272514
0.32842680838533056 0.2313938843490746 0.12747978317862874
0.3417791269320958 0.5989643758905743 0.061549030032068686
0.31585265765146175 0.2340204178777725 0.14761660280416322
0.28358919037866315 0.1901512415395814 -0.07274553200855394
0.36681242297760264 0.2356044569371818 0.12414217015472673
0.30234630040523314 0.18310294972717145 -0.0124338009655105
0.309547352749064 0.29707952681749816 0.1361679444985242
0.32924842140586463 0.21121100507082247 0.03949827176721499
0.320559503443576 0.24445035179041952 0.11089994904699552
0.4763251384632099 0.283372394236153 0.12383050878744939
0.37532776115718036 0.18831237162650893 0.07566624906908714
0.3403786501089314 0.22810786404784267 0.09564919231647195
0.2595558241777951 0.25863325323101094 0.1902162749179439
0.3704103330236137 0.2897552508711527 0.2404004923938743
0.38953255681761334 0.1379804933240507 0.2140907570717161
0.32136211072105425 0.24083211105070745 -0.05247623982451444
0.327869159941514 0.2080655592348677 -0.011719728390133355
0.34672057522055866 0.18914169554949467 0.10409714780354307
0.26317787413054816 0.39881414377362034 0.3984600696750533
0.3031336542171772 0.3046559340802588 -0.06538733165166377
0.3327550054954571 0.23046068723479607 0.07601248195010157
0.475590555795236 0.22149092405712167 -0.06926271717767918
0.34528842844559904 0.3026376801070114 0.07320006635697496
0.3213206586818842 0.1981403756126383 0.03440493552025714
0.28380568671883566 0.1692702658221492 0.11174259438543288
0.24466899478692028 0.1852782812510867 0.34971915751512483
0.28830819054533663 0.291342084411923 0.10376304397608749
0.31788684382617305 0.20673149517702427 0.09088907553174863
0.2144524738194633 0.5297432219126819 0.1616737539932842
0.38851325789775615 0.17472022408858834 0.035268537295735314
0.33579021190419667 0.3465603333847014 0.22951140413115922
0.35559111738561455 0.22516613226599702 0.11452078308052194
0.24525044303106824 0.21210899437579656 0.11895171866723331
0.3822867076038108 0.21217073185579238 0.06493039353705399
0.2914758749908657 0.30116402657355934 0.2894293035583786
0.3048174357191016 0.2449665255013258 0.14452064033564227
0.5186521456191002 0.06853548072953686 0.1081654714511302
0.4287600238504581 0.15081016071840736 0.45493134805408886
0.3370003875147063 0.26349435243820096 0.09138989159222888
0.3179615865463745 0.22521326167181144 0.11106555946835783
0.3488754095021136 0.22900919083377858 0.11518727799185058
0.2801379551997627 0.15974523905947535 0.03409599728664148
0.6804675155932642 0.11938273797159127 0.22566080075168315
-0.03438679993135452 0.6449157009610786 0.297665799118505
0.3287150673111796 0.2393522078940009 0.08227193246227671
0.34151327481447424 0.2736304336909967 0.21564373330019748
0.35603001904357257 0.17395071957656683 -0.024297885616960002
0.33646994873687674 0.2078277309007035 0.012718649899113643
0.32499640464114066 0.19414795604993174 0.07267905373059591
0.26376386222604253 0.25614237789173444 0.13865937455244648
0.3291281767621115 0.14608188415760992 -0.007015577473907797
0.3176468093350593 0.26639198072425074 0.07446094166934358
0.36883028829990394 0.18980577236519025 0.09784857057658769
1.4979150230354321 1.2719948758239923 0.9203523744519373
0.3290089066466493 0.20248885197482025 0.10473296080817818
0.38805194071859717 0.22537637384090203 0.06493640026431535
0.3351731563265332 0.2632360613062872 0.11214797121665754
0.3989105833268667 0.2615457680398663 0.21666970921850748
0.2944954445737409 0.18040742086330397 0.026131741118717855
0.1909614970688267 0.6138115576383427 0.37181483388292236
0.47434594275824793 -0.07200277254642629 0.23197304584195422
0.3364017796321548 0.2287596572634243 0.06492824349822968
0.3615377924197105 0.18964992618390397 0.09105717639968702
0.425201926563318 0.19302647068765566 -0.027091966646111132
0.3638489836771015 0.29387203065113 0.19817364862606723
0.2979758876452365 0.2639118849323978 0.12417266727200627
0.4044840613366034 0.24900188028993853 0.05090955286789267
0.31384019313199474 0.2643218096080773 0.10114836484294187
0.2829979193398344 0.248618691065289 0.02634421659432462
0.19067121645744578 -0.053101348683270544 -0.08890228623285168
0.2951460618712929 0.2020961524522562 0.08519007925578137
0.318063512446372 0.1863541089377918 0.15834219513516246
0.33067549301773624 0.10972509502141747 -0.03823203602021863
0.3999096077242683 0.23230230341212632 0.047465170582114524
0.3660647581312446 0.3089346738030656 0.1632238628769329
0.34568433034513646 0.21993407399654075 0.08213911754937442
0.254452069282749 0.24210660136400008 0.09963001906231739
0.36250927411472844 0.24774443366612786 -0.04522771511787482
0.35345246583781886 0.28920810523260343 0.19850685645481292
0.08447572475269283 0.934120843725708 0.2196667500860059
0.33804791963470393 0.21003840015998776 0.0682035888241046
0.34968296523005904 0.23935842446272204 0.04587343209546191
0.3251934743249194 0.23201127279588718 0.0752926815498256
0.269964046682162 0.24417257078863486 0.2119422192440652
0.3266937892198314 0.20509347028939828 0.10946308685572603
0.3145562165888407 0.21531069820363768 0.11427532137551566
0.35920311749083567 0.17267216220622572 0.06537375382765731
0.385887652483774 0.2321054914852141 0.05707494577140437
0.3311652473183102 0.22776393058916256 0.01681764839696598
0.34621331934636146 0.2336816256457439 0.09477317663925078
0.36568665711621406 0.456017921858745 0.2363817656767253
0.32541706130027137 0.23602852447980638 0.12512381602147116
0.3011723879736792 0.22517636329064317 0.08183189193613316
0.3382884751593451 0.24300045756183408 0.10186177801998042
0.30810332446316124 0.24350576551699987 0.022801654894806234
0.3634847505747416 0.25547729013707965 0.1327115058365962
0.36457171318701853 0.21860397825406608 0.0985122059825585
0.31487483383749293 0.17362530452417957 -0.0023202412033640485
0.28238709380838145 -0.04815192647146205 -0.658455739694773
0.3304006606012422 0.21591589865172978 0.08202905800709459
0.3505614162713897 0.2364829310431844 0.12315234919066143
0.22420930224794233 0.30074674922367706 0.20373639295539192
0.5186450703924663 0.20199848015326438 -0.031122610233495607
0.3114496499728432 0.13723655883070762 0.11119116090424086
0.35085639644987054 0.22411471765248336 0.15257950209132787
0.3736858792019433 0.2029016172661784 0.10308449965140198
0.28068604921020324 0.14369472744510858 0.05481156314883151
0.3225179705960102 0.2247810763209941 0.12020137394767971
0.3358134992025441 0.26914314660668026 0.14658267306876382
0.3314757627958471 0.21657667893180133 0.13487188393935412
0.5704694861014303 0.005660061540055494 0.2496647307598181
0.21094718954569203 0.1595092361208259 -0.021934555443962722
0.3646581664373798 0.17016169330486264 0.05813615251634019
0.36335810199601326 0.21873369674217713 0.07174882205950439
0.3600676871234043 0.22115635410006007 0.03312956094274
0.5276003993293443 0.31787325121774757 0.028396891564739235
0.45918875329715547 0.23424404553553302 0.21381898166126234
0.3173998040918491 0.24935273288048165 0.05290021646362675
0.3586822082066732 0.2638854264074979 0.11522261411676027
0.39494699720951587 0.33186405489306026 0.2510486807789505
0.3579022945685324 0.23398101306639774 0.10418545141676816
0.44149571442510194 0.21896624050260982 -0.0014731920980750601
0.35145406107845645 0.19144762671334092 0.07735266617285674
0.3054155302568091 0.23499354401752726 0.11595802023458646
0.3490905818803327 0.17825658935777255 0.24394309626305244
0.2768786345389458 0.2252528552711226 0.10577835919208667
0.34010603154743535 0.3091104000141627 0.23613897418621832
0.30335328355366187 0.22866626638294463 0.13838443983306092
0.3039308800975391 0.23689705989232834 0.16342744192351688
0.36524073883568065 0.23255698822863735 0.06968959332951385
0.38574134413212846 0.2020232797826509 -0.014045208355611294
0.33367947111631224 0.2440938113150537 0.09922351700900833
0.37173133106902867 0.23825550164313825 0.12184860504868311
0.28555612525039464 0.150608348201132 0.09296698325387354
0.26300577661791635 0.27059550878803407 0.21811526172083973
0.32361753762418743 0.2027086815878647 0.1577987980625437
0.2502737078634709 0.2988993495650192 0.13941275852364754
0.36146328380471004 0.21442836326085057 0.050398730566115546
0.3541777434941764 0.1174916240938586 -0.027874079656101003
0.4969103172851703 0.22841419961301312 0.13992716114850623
0.264903464684636 0.17278238896415132 0.07525373483662179
0.37676290293644854 0.26566924191445196 0.16965521011535145
0.296166558797168 0.2074679613241699 0.1397246364492304
0.36364466063525924 0.2315308293927245 0.03124083918721965
0.41016025588101 0.22086292436875965 0.04109492769597978
0.32913998434321456 0.2389896374506293 0.08993643422461162
0.34562561330967867 0.1916601699272178 0.05102141798565185
0.32075414430646276 0.33555204654382464 0.4057409767727762
0.21328673225262662 0.2280834335687274 0.145102899031599
0.3256282773659791 0.2351678983718557 0.12450818864824953
0.31601298807386513 0.24925247959455987 0.10239874164443563
0.4994576978304366 0.0540159978089747 -0.16807350255004394
0.4635533608334441 0.2822192191176498 -0.03129152846075556
0.33225892128109535 0.24369976001008808 0.08720146635769765
0.2956433436853274 0.33127558417749015 0.15106376250000153
0.3469492065306099 0.22934281015855618 0.11530092925329427
0.3648021988601897 0.25696200198547103 0.20449265185504828
0.3939699399090415 0.22743630494109368 0.03484243548336963
0.309148549800355 0.2510820669785545 0.13911425530295674
0.38529357700494415 0.25230638057364274 0.1548768005727652
0.35533888010201053 0.21813374335906133 0.05504282265738425
0.4165269790722448 0.20144093732997703 0.03089938916735946
0.28143676679464136 0.2930850703672263 0.11296057357390055
0.3953733736972538 0.20081501420983727 0.0091468993859678
0.3226777797764271 0.21631556661935747 0.16115279368074198
0.28967016410317115 0.28779535731234773 0.07024240940950222
0.3116456072698952 0.2668403219239508 0.14242979422323288
0.4005396354064459 0.15648942513118413 0.1021491420460734
0.9907226335036086 0.4516023051661051 0.7186107325511841
0.39388721871247867 0.20331191574705088 0.006355110817366949
0.31867115773482624 0.24847528587901024 0.07972923856792136
0.3149589051447066 0.3369938864147173 0.3278538510124491
0.36031107105849003 0.2093877588593216 0.11092818679239258
0.3697403989924908 0.23292851275233772 0.2084297855531787
0.31520341576234046 0.2792544183517691 0.15921206907474073
0.20968837876921498 0.15573925756972073 0.013222146712465133
0.27645693573686003 0.1777553264942071 0.0063913002843491995
0.32252421232828965 0.2417599022448087 0.10503251544497516
0.3700560363609213 0.27121042437940446 0.17855415132848407
0.35888542599471407 0.25429419687645805 0.09574860098629756
-0.7039140952734613 -0.6765390430756497 0.2563977305395042
0.36745117878459155 0.21659474461171158 0.33138402966430647
0.33860646416164286 0.24374080877382198 0.08288543827509898
0.3068743224356183 0.17680909946983547 0.04492043403878654
0.41827218840472824 0.26726580003526124 0.3328940128836564
0.15841766779104205 0.22657104640887837 0.1587827413009819
0.37485823423325826 0.27474435126478625 0.15783949488144344
0.3778501818717217 0.21476991828822634 0.10551444601799176
0.291220850454323 0.2439211229735747 0.12805858043259377
0.3376193868556072 0.22304782765476716 0.09028273270787679
0.5321361100154007 0.09438088443801007 0.006130815493079922
2.309971819762069 1.4041039341287416 1.1370050921361212
0.2941112965923054 0.24724482831139483 0.22433205933991474
0.20884557907211843 0.1971176279620721 0.007552384424883485
0.2916052352601639 0.20701935784268244 0.15310278734909843
0.3023747992783683 0.23769722391772063 0.08320831197889333
0.3930313139053254 0.25955112365929267 0.19559576450349425
0.3743168885451098 0.2666822494008443 0.07648173665512559
0.27351202739632186 0.18185023221059282 0.08246280215891488
0.30281133366293034 0.23261870404124352 0.12240347248160788
0.33813922471695435 0.23656138711288577 0.10163216517602791
0.40124867372119866 0.16544962700635324 0.10946049422773285
0.3175388939661161 0.22288557441260082 0.029098194585515103
0.3045660147005833 0.2286525733172482 0.15104633142522061
0.3074214630525063 0.19397854272796167 0.04728342407628361
0.27785529200761516 0.24737735131880356 0.22018907779585106
0.38301193018597246 0.2519814509233811 0.1939008436617229
0.36988231519393366 0.11725445572776039 0.14618606848372906
0.34508210658009375 0.27627578167638944 -0.0006454587766739905
0.33196189092527106 0.21478498839604754 0.11278888110533103
0.44003174910835696 0.24757531738046623 0.03653032945233292
0.33110718903057546 0.29303048892445815 0.04087902569773405
0.3115528224841171 0.2576780839140014 0.12387795268337243
0.3681268391033825 0.4485702004708969 0.026175955314300836
0.3358242933894928 0.25459014605911534 0.11205765095246534
0.2093928847751556 -0.058411182829985364 -0.26784603005954466
0.3728082396609125 0.2414664878179167 0.09415791823809627
0.3551925731018173 0.2493197595213985 0.15338858891590235
0.3643729985898858 0.22366523197439392 0.09750854479084126
0.3116316855929142 0.37198601653403784 0.21828309350399877
0.35116372246642413 0.2212033160016631 0.06540872283764543
0.31950033768609387 0.25360426223690524 0.10555431794190895
0.33178858831612956 0.25609165309066384 0.1699080268209059
0.31430353318563675 0.2500537069364981 0.12895689545958078
0.2729506561061612 0.20736354379683064 0.08830834278828092
0.3546281787351404 0.20934465762493915 0.11110074776985357
0.3181711162140175 0.36695461628112014 -0.02120388603026413
0.3875417284234288 0.2377197642881299 0.14874110117507655
0.31805162536808496 0.23298825475760054 0.08967892171202152
0.3055633206680568 0.23430033712111253 0.09363429888290398
0.2749246729265451 0.28270450278492376 0.06301423350504365
0.37779556349767063 0.2182583326218861 0.20813042420954275
0.4953451226264747 -0.011730489535921151 -0.09319911074538823
0.3625827894775284 0.2165746329691558 0.04994292523460331
0.3092589507153889 0.2283149293154878 0.09325289248938873
0.16456892698904824 0.907725697733909 -0.10482471588622388
0.44178853746711866 0.3824146992090647 0.2357104506515384
0.3476940131876489 0.22371407067029736 0.07674282664825682
0.19840658304252656 0.20037316597891675 0.09519343494801547
0.30227071242526904 0.27883225914804655 -0.012373651290147336
0.049040987321347984 0.5697759772885433 0.3382185476115893
0.3611199490878221 0.230778491874446 0.11325816867898197
0.35725792296915415 0.17004178706071116 -0.01270028434286985
0.35237289570464725 0.2977460227772326 0.02247628352075992
0.338426563015787 0.23542092345282128 0.09669502370638838
0.2641373132035625 0.2094648182060581 0.09877888577896954
0.2989986183895894 0.20515210691320362 0.08199090265507891
0.3072686550043784 0.21665261972555072 0.10050386241326237
0.3295963648429705 0.2301368076774395 0.1075753395754191
0.24718319353810614 0.17765030655272085 0.08279193680027674
0.25164383339374297 0.21953914465792934 0.09434995945399294
0.32714363576637595 0.25635997012958 0.13911426259330995
0.3553930076198242 0.21841630051974903 0.038115864158100976
0.183130044583379 0.6949174140926004 0.3191111975703933
0.4314901985231785 0.2764456925401788 0.22161555987239012
0.26999170143612616 0.22529097332579795 0.05463744605319221
0.35431652658164126 0.28202291477111885 0.16533783334153895
0.3460817662458169 0.24572712469199587 0.10480761432629038
0.3073461466451306 0.21270710109649826 0.08699125737500424
0.22940608058367218 0.29995286581919345 0.3166357084503204
0.3121925244046224 0.26334865071365243 0.16051982238813878
0.3128019144563723 0.16732247721802196 0.11002436226229406
0.36562929863822546 0.27940157111623876 0.14868517772345058
0.25799941877214394 0.17744765567942977 0.0544064148618304
0.230071637279039 0.37049192431999245 0.256564622322486
0.3135406894409556 0.271681105148474 0.15203057128849196
0.33147053565255646 0.21333666103726046 0.17557773871143922
0.3196671042725825 0.1806876592425226 0.05194965117824779
0.39498808341259917 0.25852301833089086 0.009951586919584088
0.19145519317784476 0.21260612988120897 0.2116540104284752
0.34702892552556364 0.2797067205044641 0.20418851006412808
0.3265140974186522 0.22310586990195702 0.09237306145834623
0.45730605663807466 0.1906392829378376 0.05234220502833864
0.28639874881058347 0.2193141066475306 0.08948409070953289
0.28121372939926914 0.02910327769122034 -0.1357505174660929
0.2994571013172589 0.2115040829584558 0.07955019200055347
0.22982339136335384 0.26417873203205033 0.19000806798828762
0.29128530582997314 0.2511796787624263 0.1973474535211608
0.4261081201177177 0.2532184548803258 0.15936648279770793
0.29652163019228794 0.2942072239386846 0.3326611540785507
0.39929732097347426 0.2670865517717118 0.20212257659036936
0.41500124057456844 0.19829342576264253 -0.027990828000085344
0.29361053716661445 0.2563805029450066 0.14824145084421048
0.36215832818894 0.3523621770894749 0.4597559078587494
0.32072427829889705 0.22823730921287222 0.07525916902365282
0.32947471074352563 0.21474516263651822 0.26233617636671624
0.3828055364737679 0.11852363914201192 0.13993002543071498
0.3366096099853877 0.26303935121858046 0.16645748275558958
0.34749765991728054 0.20786785545951147 0.07085005123502697
0.3833123489069692 0.20747124326108235 0.0619267518486879
0.35755399090101037 0.3151692962426438 0.1921843116801938
0.3142902153091427 0.23221221982480245 0.051201985890372725
0.3382084472165445 0.23403910322809907 0.11596192762183932
0.3102107051645788 0.2305617952124095 0.08690843448007968
0.34147359273947586 0.1868996136340968 0.0217198061928201
0.34576044221182656 0.25298694547871037 0.11545351638524437
0.27175394874163317 0.18791598646532748 0.102629546352631
0.3395371979160018 0.23432902418144863 0.10826651368437012
0.36028905351473384 0.284259856406905 0.05819362512573889
0.31348108938510677 0.2384675566508605 0.10916130086164344
0.2841300961465265 0.24023309377221835 0.11849714306488579
0.23373697892243683 0.1936601168412153 0.043791316816310655
0.3948563506377951 0.19992229725660593 0.056081481359058216
0.32957955990630694 0.19503539280421478 0.1404480205837615
0.3070702398003391 0.24180799943528086 0.264101587702541
0.30812475072036705 0.21476564441309165 0.09467752577613453
0.18044585411948333 0.1576100673388936 0.16125820162937998
0.2909498764854277 0.22604235189842825 0.07544118798008981
0.3141958505219691 0.3076479090303792 0.1513903268369745
0.3502695445914128 0.23831305175926332 0.0562612259857076
0.3636984570371169 0.24416015620650455 0.04814400787898876
0.3369253045661935 0.22215328611046914 0.08121120728448261
0.3330022391151459 0.2424191920697183 0.1940202737193033
0.25238348188975124 0.29612297413189026 0.19465540578123353
0.34725475932498284 0.2377609936128664 0.11660436589343703
0.3771113715223322 0.2480614312320597 0.06526240714825349
0.38490875082899834 0.2054567455087124 0.06888844274860162
0.3220631629245645 0.26057828420535145 0.14309922834110012
0.27588707881861296 0.21436173326510755 0.15042169598123678
0.3075775272724286 0.2303298052233913 0.057316079252316854
0.3320816262132382 0.3388184672033532 0.14352308972726746
0.3320054053386059 0.18675814434638482 0.0007656353961067452
0.2957147452372624 0.32626133213645403 0.08614098403856474
-4.1299409625726895 1.001043025340465 0.19203319104236982
0.3182256433030659 0.19383977518177176 0.033425452661305144
0.2608331193794413 0.17515838411569007 -0.00015643490721117814
0.34863434193320586 0.22261190727017777 0.1078600514162531
0.42656397133598034 0.25539049073326225 0.14464138951832695
0.29972220091973156 0.23060565161193836 0.1508685664517344
0.4001393304099281 0.240266786076063 0.07056876389691524
0.3192874123432716 0.26573696700886273 0.15999476605676932
0.30477302498618997 0.2444383668044452 0.08521881564959699
0.3568483260566637 0.20773053614462356 0.18597940410205638
0.3898152700522388 0.24608924417242406 0.017619098678324008
0.3286755696777419 0.21433985894614693 0.04076056373676806
0.3822911339362065 0.2917416125219745 0.13845964245834352
0.3346631831466027 0.25452401170167605 0.09713272852084742
0.2731454208702786 0.4131924259555575 0.13867226305390545
1.4998373382024823 1.3543453003848924 1.3788822487158825
0.20646742087575376 0.26081865559282846 -0.009739852458153564
0.2822082403887691 0.22715303786380048 0.09162335158654855
0.3106742468792447 0.19774973581456834 0.062222752699256034
0.3675648268992404 0.22662549514679142 0.10954702872284372
0.2895240700531332 0.2472149095108449 0.10881467761765862
0.2829115355419276 0.24013025915316177 0.2040339155715003
0.4382248082761748 0.15832675003277075 0.2639718998809002
0.36306730423407885 0.26469991857278785 0.18415717578294277
0.33996608484915214 0.24844016306506944 0.07816732811940597
0.3232470626024053 0.25358713415312195 0.13626635349856997
0.32107320766534997 0.10959777151164474 0.1983317904621913
0.43616264935882043 0.16469943018640265 -0.033289871504024404
0.6917552686495583 0.15045924909084363 0.3034186373451746
0.3555851740803746 0.2294523199703633 0.14563521230076049
0.2860525494230899 0.2183781063712047 0.04523747004600409
0.3790220661302328 0.22954253047026896 0.16170770939541512
0.3263227939456641 0.2195088447402611 0.11618018469630442
0.35136171294671215 0.22366344752455802 0.06882773054202573
0.3100356953965786 0.2200514596903247 0.02492965009849968
0.369040033067364 0.227637479620995 0.07577956634365535
0.2697939067279407 0.1845358191214359 0.08808313389920386
0.37442935157123713 0.2168269758610819 0.021416032901925064
0.3434931253567868 0.21199412080513014 0.0874715738655567
0.10543778756050415 0.8004669779687674 0.4159273477511505
0.3121471467350716 0.2319823002054875 0.06171780091699475
0.3156535660870077 0.23736546562537342 0.13529671364716478
0.328995369484403 0.25120078890017794 0.0509478900654301
0.310754724884589 0.22050045268733243 0.07500650124411834
0.3199665986030311 0.2653565936798543 0.16145978529502258
0.3287332181824638 0.23145228489137537 0.12119753986056025
0.9942115653797572 -0.15924103204982032 0.30595366938609914
0.2857751556767312 0.28319908616686007 0.027543229308321315
0.3191816520814399 0.23737662858141562 0.12077359830989565
0.502243772330587 0.12314108666949153 -0.07391069213286983
0.31701612960290504 0.2246656398147593 0.08925898963832424
0.35832995890736186 0.2108503408774709 0.03009062943451113
0.3498380692630576 0.1983500201185393 0.036173005329715124
0.337407724466658 0.21992056335082566 0.08531016893880405
0.2879311207751982 0.22684526543690708 0.20899883750672643
0.3279124889660068 0.2642938147014746 0.11101152833450101
0.3617162618243128 0.23393665930200314 0.08093235664989606
0.33529908974557543 0.2578422102855882 0.17207128264925586
0.3431459684014442 0.21602666546506555 0.03884556824482388
0.3208796999134478 0.2139815563865568 0.0703555894643273
0.36745546465282075 0.2342240635637154 0.12262515866349588
0.32982351218406336 0.22047795869738707 0.10990047553075044
0.37499541936257685 0.19806936364142302 0.23129575750860454
0.31512292720867663 0.21205161914400605 0.09512103679033146
0.33454569134332246 0.15139176818514954 0.1908411360262221
0.27066629225581096 0.1285090308754775 -0.03054202604110401
0.4433738748630276 0.25651536873451164 0.38530608627586105
0.3399980016192643 0.22377189464538105 0.0918946497761226
0.32926448431098265 0.22056008397073867 0.12531901747320262
0.316883684557169 0.21997070651990214 -0.004788183106342103
0.3343212467529355 0.1767788013314373 0.02842119301229218
0.4644210544766736 0.3045139930505627 0.2005212027134462
0.34129307304408485 0.20153364622527192 0.03300426251416866
0.35647645105868264 0.2230469847765164 0.11620953652614219
0.31862495554325676 0.3265565585611796 0.22182408848271962
0.32968172018868813 0.23936379991957324 0.0929529564937468
0.30860618661149886 0.2486657092976543 0.2090722245376071
0.45917847415587687 0.2762442746109741 0.06582905152193064
0.3312049146312006 0.2216526680237223 0.12536631215721172
0.558968490765551 0.15753461124603518 0.09266429687417599
0.3744819995096691 0.25543912282833503 0.11546997554287941
0.35458312937620917 0.23645646310859547 0.0805055438914053
0.27708348982471875 0.17430466002215894 0.02615588440229999
0.32895474541308545 0.22760011513045697 0.11421006236629694
0.33169847752765236 0.22904688118222793 0.09407203997648139
0.3247671777049561 0.22631936773260009 0.09620368633741805
0.32446477492440806 0.2278948875080289 0.08559320534004655
0.3339820548492298 0.19928018219249566 -0.02356859079262108
0.24276455222394588 0.20705545216310384 0.16150232922717578
0.36938314409677275 0.23317762120663588 0.13270174414213898
0.23338011390342217 0.23593986789919086 0.016396084921325382
0.3272328264415023 0.2454795386780262 0.10572297475604842
0.3351564574072796 0.23496547757514463 0.12722077499898887
-0.07862727544795689 0.11056751411780397 -0.03915093861957075
0.16135059204296454 0.1625717228846213 -0.002104018284441622
0.3419693501721497 0.2473823582353134 0.08341433123720776
0.33388988115558504 0.21807166149483237 0.08648400752191776
0.3479986986807262 0.26858233218553096 0.2213474929972108
0.34495707714781076 0.22827253983183482 0.09130154104630606
0.3567101086084392 0.25412660335510395 0.1167225179354574
0.39106443349974995 0.2250416001616884 0.07778297687087843
0.4727126644905013 0.33463057746580205 0.33886747597033207
0.4072114096067594 0.3100960228436094 0.08228677622000191
0.32401995000677175 0.23122328105475276 0.08153984539794124
0.3644724834035742 0.28344727161170624 0.11752837212306133
0.3571817127585746 0.21233715396083142 0.03435712167163274
0.29970524236793494 0.26644725933603297 0.1769569973927645
0.3984539099719768 0.24160838444603883 0.20344894370266786
0.33693524656492 0.22111048185767856 0.1434773173344297
0.34227651622745725 0.24250685217771206 0.09966755256499482
0.41661672695724405 0.26976051293320324 0.08271737385952349
0.4154871378039928 0.22118007050181632 0.11116865488646965
0.3416588750813645 0.2958981896454702 0.21042909600998883
0.2958006850281265 0.27220675451485477 0.17391204385131687
0.21623658874787566 0.23091588752092207 0.06563025784886634
0.525216456859539 -0.07043028676474705 0.044382594628388006
0.3277358351934794 0.2230898934839729 0.08934898519484591
0.34715708918997734 0.2200556986613833 0.11358685296218596
0.2943323530421651 0.30747583055551786 -0.012313034848162374
0.3354038043326284 0.25298259963796 0.1867725733227843
0.3474382523768327 0.19531860894100816 0.06968024418171126
0.2401785861830632 0.3492381290715372 0.34663151863364305
0.3539970754314936 0.22658136392328743 0.08961518268367286
0.12035144048169855 0.12092058770241465 -0.35395500615058495
0.3503225698120218 0.20401021072643744 0.13166176738997137
0.31454635968695754 0.29246221842780074 0.4548675230605568
0.30545018901537446 0.2230602588878412 0.19296751673419976
0.32042760330175213 0.2333123470049543 0.08467783148452668
0.42849237558672826 0.23893070264219318 -0.012281783141105507
0.2904370969846184 0.18556883415155312 0.029534747487957702
0.3758916133121204 0.30706464262836164 0.2825759425809906
0.23968689264270893 0.19982047243017576 0.03008410253465854
0.3915860062112557 0.2475857711328331 -0.013861659277409899
0.43075324824914674 0.27979864685150346 0.12184699051228165
0.32604296836049684 0.2202003735045821 0.10586077852103415
0.3181986511408752 0.23169850961647853 0.09675344634109706
0.38622677896093194 0.19892210811907773 0.02744707266120372
0.27758648314352286 0.24313646219661678 0.11752247588988496
0.3628081141152961 0.2112755822916199 0.03674750310176478
0.30535012687269614 0.2016950806106479 0.0841741908431004
0.3662476879510166 0.22165313129391961 0.040607283385185156
0.31189432533984984 0.226896865975732 0.11404953539891949
0.31913110523997545 0.24798920663002377 0.03636709029424878
0.3700536836579289 0.22385258669012842 0.1198648323708369
0.3315137325332955 0.23465267985275773 0.13873576480594352
0.321756645908863 0.2144250303055344 0.16319143261986824
0.3632003945776887 0.23444722824712017 0.08925925850937233
0.3004297219299872 0.1946055549408925 -0.009681439097462885
0.3253725766577986 0.257146471507653 0.1438816381287893
0.34193589663811963 0.24184061140910273 0.1099612985166516
0.24320774046850602 0.215883902462906 0.10045837789803613
0.29078731119244594 0.1935447492733431 0.04183269005343959
0.38898919303744606 0.25473353990530256 0.09904981723684614
0.5833391731058128 1.2014269493759997 -0.2424672900281024
0.33037022314914566 0.2124352167051029 0.021036677671531834
0.358549785963703 0.2810630448100824 0.22538235528665496
0.36534205629726557 0.2215813190112499 0.013984230376820506
0.17372170649383634 0.20724844608355397 0.014808343016710523
0.35355695537859333 0.26199834228272323 0.08474886919404412
0.406928300011856 0.21289741966774045 0.07871888344794797
0.32419324096505875 0.33030053636514367 0.1560457618468405
0.3863669689265663 0.19077583281500665 -0.0683023457477816
0.2872358866844138 0.25234441301461175 0.1166568752337298
0.26365212386272674 0.15725655812813955 0.09939113240034203
0.3556623092639768 0.24922627681631582 0.11866190037208924
0.35769384143131333 0.2561838183057148 0.09294348715658884
0.35357099425428373 0.24444084110437814 0.11143723226190616
0.30309113237370866 0.19083573916225305 0.0804494755941505
0.3403358784343311 0.22073711547683672 0.150609957407994
0.37388989316959 0.23792479167374836 -0.023109100976398622
0.3007264498956488 0.24594282994496552 0.11648803765118032
0.3043431628755968 0.23005809235257857 0.050199404792408586
0.6845566375493775 -0.3897007636986132 -0.24318484235783444
0.33386140843248313 0.2435667681675966 0.19199812663401872
0.33960755470471327 0.22495393228798832 0.182941520793662
0.32122919300017827 0.24379977805497788 0.11530339566860448
0.3012491566226885 0.2553494264821978 0.1948883912502879
0.21806656205313857 0.20443362280849442 -0.06428242255427108
0.22528055132798386 0.23374631498167275 -0.044463200636926103
0.3966463768271353 0.22805480887751628 0.03550917958254729
0.33046082730731996 0.1711332819466378 0.030222169381644903
0.37712348137100093 0.17432893087020318 -0.011961818014796677
0.2548636687399579 0.21896318824292393 0.051895700419478885
0.2813809813353174 0.23162549849642744 0.18418595714811659
0.32225326125328024 0.2661010043087373 0.038997922442348454
0.39213753617602265 0.22219864998484695 0.25203551686200854
0.3602632878417751 0.18437990260784431 -0.022491798748973224
0.293060867000861 0.8720019278849946 0.3890472284068096
0.33165107731932153 0.21911529748867054 0.09399117176263871
0.29050841985505826 0.2417153908447176 0.11834042943783629
0.2786788407580616 0.20880627660173445 0.1585730187449883
0.3208443658506326 0.23366705501416618 0.11964983369142601
0.2128615291236713 0.17578000722471643 -0.002248533153419885
0.383087886180121 0.2522108594662882 0.1496201617569568
0.2201554067593463 0.21524648386284184 0.03337914363443417
0.17487939333719282 0.3939581729634938 0.21921928528638546
0.3963482237614073 0.20099521010621402 -0.0010460650274097816
0.2880431745797978 0.21072634337363638 0.08342211174876013
0.4195027872074064 0.2337490796312096 0.1646230568766356
0.4392882800507749 0.22837838010319444 0.11866978217906876
0.2974779926281741 0.22382971217349734 0.10008143567947059
0.34328635737414004 0.22867100507630767 0.2765299132090604
0.3356222884620763 0.22412052644520486 0.10015839720324493
0.30890458755035866 0.22248271581898393 0.11570555560373919
0.34740788478649165 0.24104698976694294 0.09354750511761267
0.3014305431159414 0.20347220029464097 0.07770713658277373
0.35954961245141703 0.15155792069690222 -0.026612689177838433
0.4020575656156211 0.3326947759501593 0.19658567357744516
0.3635642800356891 0.24379881517393187 0.1457796221987877
0.3903240856978982 0.2779691961546433 0.2009289004003989
0.34551365435716264 0.15530446178931356 0.062231572807718294
0.3120437992152745 0.22949864475158677 0.11982448997706285
0.3606792481328256 0.19683040516481753 0.0381222750498722
0.417169140529694 0.27640528298034894 0.17185716168471288
0.2868239167460729 0.25457379471691866 0.23194923949446888
0.30419631810731573 0.21121318478103035 -0.0700679383809586
0.44187379053093423 0.10145642502470764 -0.06302159414481423
0.32364378854315135 0.2542489985901284 0.13468761870683466
0.33288016375180973 0.30418710354567224 0.16074634736071403
0.31503315218279226 0.2244934217675052 0.07694381961337626
0.2737936657182587 0.24114345960700234 0.0433439892676688
0.3830030962426605 0.3042657683020167 0.1396745051407322
0.37792201661524416 0.28885267319952845 0.2477813962505877
0.4163767292794063 0.1670356188306812 0.14060436424855993
0.27063143995530936 0.2459940750164833 0.10299599563430206
0.27062713864299326 0.3045330407161373 0.32212104989756085
0.33387866457417203 0.24814963989891226 0.11583059984050692
-0.16878666560026545 0.8490308429167897 0.07836285772967244
0.3648752456050772 0.19297170017250664 0.04566371608625275
0.363022692433276 0.23258747161342797 0.08290735488296264
0.28469763259290914 0.2582009391792326 0.1860744764919815
0.3287620797300548 0.29470698612873036 0.3049777339169282
0.32332221555481055 0.21492325431179893 0.11574626914082842
0.22058169033911668 0.22973867628093103 0.2412816246690852
0.31686932409948554 0.20003110034173233 -0.10505676457265167
0.4914380359064978 0.25650791401822914 -0.07508818251949378
0.23678677441287732 0.135282181788682 -0.07616493711635997
0.2923654971576468 0.19627415751278932 0.006054887471464099
0.3218302142155949 0.20316789751878161 0.11911242419273549
0.3315108659258783 0.25369600922729774 0.12855304900712383
0.334536290083264 0.24017773593065783 0.19185162174372294
0.22689813846784546 0.2263760072264489 0.11822127944292049
0.3027341166227018 0.2296139380281943 0.06368330951093526
0.09473923698455167 0.19052767555824346 0.07882262255647277
0.34226262528613915 -0.004084044521135866 0.060359117692712516
0.25094778586134225 0.20280711656849348 0.027922180507857775
0.2701599812613722 0.19810343354197357 0.02586600196728739
0.40510313763024897 0.20437268856859703 0.009740520896286853
0.25429331543300293 0.19624391288496668 0.030892608065897775
0.3702204105359499 0.2734009168896421 0.19701325414885673
0.28792622166119486 0.20999565420582655 0.03685737666131672
0.33576195046072144 0.21879297276001353 0.10280121898134098
0.40572983163391996 0.2135302947549036 0.07619930108151607
0.2950865048302376 0.2041361994483708 0.04821128254764062
0.2582982916644312 0.24610741704145767 0.21482974856309056
0.4047617637641281 0.26160719289160284 0.1971549794829741
0.36923953660851794 0.25421954444392725 0.08407696889645422
0.38748316471830435 0.22593263540241537 0.001068401498912408
0.29921726242898217 0.1798677059511533 0.11295254759022555
0.30937665670030867 0.27687487279791867 0.3546651348839589
0.3772810547068559 0.24899718402807025 0.12889972965801633
0.2417800519397275 0.2490701947381666 0.06351887589377725
0.41534720977803374 0.23378913452089023 0.19207377923237345
0.2776506429298138 0.24547795259857708 0.17379302169133837
0.33086553136026 0.28406462826910683 0.09262488838025718
0.2866508193410482 0.17936139261942685 0.012995981120184297
0.3234974964685762 0.20758952240535677 0.061832133098647546
0.32274833429626426 0.22906787131805117 0.0863303064878096
0.28008565128810403 0.24050799180901095 0.1125356429468809
0.2816524982773956 0.26442217012689184 0.14928191037540728
0.4528883872788185 0.19135389139663062 -0.032316693500547444
0.3383295422506194 0.26993082832069604 0.22739747282722078
0.31624369988378476 0.19645666825945796 0.10124019806917772
0.4050271243428938 0.2549174940318153 0.1748607102811377
0.4051177961122647 0.27271152967674084 0.1817024810555523
0.37566376096583554 0.0675933017897421 0.11639245376044016
0.3477212235567322 0.23468480727613894 0.0790290637987141
0.35921314898975254 0.22453110002066978 0.033768420910519126
0.29273977758722936 0.13957076615947983 0.03849531557435171
0.39349572343166983 0.3153089474313049 0.21117804110139105
0.3796676979098379 0.2205072583754486 0.08671787674637699
0.29083607200499273 0.2212917850644942 0.07247810244940922
0.3312698942009433 0.08230477071344922 -0.027761460029438467
0.36361750746672783 0.23119510860915682 -0.005756706262388889
0.304307856946167 0.16457533775709976 0.27563428962801595
0.4593752490774534 0.2802952141651218 -0.09115553368442875
0.3391657151472742 0.23145774578534883 0.09278144135446098
0.33475635063325626 0.22334167152465056 0.10998454937578117
0.19415927362834395 0.39856692888763234 -0.08857433423926864
0.46690407535263034 0.2169766313407706 -0.005177621730439341
0.32030260096968277 0.23986028143465887 0.1117573316629148
0.30463845197132855 0.19932662301590653 0.07799329793425613
0.32565838212065046 0.22521427247151848 0.10271846105058557
0.2293253367556929 0.37205984159359673 0.3058961354316523
0.54051421087118 0.27632997025935424 0.0005383492844117654
0.33787211234351844 0.1257725249261057 -0.0605629694825609
0.3849070275617521 0.25807439238130314 0.1842595819172459
0.3188449438877683 0.21530528374393043 0.057554830723589134
1.555906500819546 1.2642431354016992 0.912415995446537
0.33371618827226257 0.1926239591995227 -0.03085208937147854
0.3346707007198404 0.25785818856357423 0.1840521872038039
0.3256395325666688 0.24145344040672967 0.05657405371428581
0.2867396222882519 0.302017147772375 0.08307305003188503
0.32390799303902895 0.3330622669311367 0.005342513522094805
0.09544002997299117 0.03888473133005732 -0.29357551550623384
0.2879571457006165 0.22161471317259895 0.038444856529253
0.36316490213781094 0.2411156542297732 0.19487948815994116
0.3609437225398011 0.22844825190381357 0.1481693779295341
0.33828796523894766 0.2553585994036496 0.15974203225307804
0.1897759069142353 0.20678228791869913 0.13247943369904647
0.31163910925653227 0.18182245987298984 -0.005601379701772657
0.2810199498303092 0.15486224285839967 0.08397044215706728
0.20856581605482916 0.2411286537820132 0.18347905336858616
0.32430345040774 0.21977284447444845 0.12628028508243005
0.2647865802618128 0.15211798243620933 -0.036820209148999083
0.33141092985644605 0.2207726281366149 0.11159364762409041
0.35638371375863187 0.22479263821549011 0.06982845265500259
0.30509129461047735 0.16337123176845125 0.10504226621533519
0.39605728429793885 0.2552141804090695 -0.05702649261941417
0.37868607529583187 0.21152707583740948 0.059345268135359674
0.3526816073478045 0.1825851841687438 0.06952062953698146
0.34266294746443293 0.22534173606145202 0.06638388526837957
0.3872106060698002 0.26115159327468973 0.1034231609923495
0.3227397235702796 0.2318128374552657 0.2020627978217675
0.1493692564957314 0.4463920390055023 0.3069679166956689
0.33642952237029533 0.21128276255009837 0.05667056092644884
1.5193494013049786 1.3035583634409988 0.9573999304625005
0.2677074113931326 0.33269595961928644 0.20943800482719155
-0.037105371723697544 0.5925665859855656 0.23324623529975952
0.31379037286100697 0.2924016340782032 0.18272589437594888
0.35429340779131735 0.23448300975611858 0.051847213590392016
0.49851857463150395 -0.051654502567913596 -0.16724482841641475
0.33642897006583894 0.21695769639495666 0.06542131698512321
0.4031278517757073 0.2514250573179453 0.1592004858465117
0.1839523826898528 0.24462437759885347 0.1789520291346065
0.36033967006831347 0.26955988063267 0.12131780173614004
0.3409321451842686 0.2185927986834031 0.05640882269628378
0.30028175486019393 0.1908554786397758 0.021405409215532245
0.32132757322848704 0.238726536744565 0.11102258880603699
0.28331013663893145 0.2498605431709393 0.15433659692163815
0.37023140161569756 0.13973771286620718 -0.11577481931888656
0.3361253967717488 0.1286983366953791 -0.04171051819170657
0.3332540205884129 0.2032233154073424 0.028962446543857823
0.391406691091845 0.16594181415592857 0.03788448047615134
0.2658922608609373 0.24074200865095463 0.09642906650530847
0.3580941570926086 0.22920746070373355 0.004524587127491486
0.3735473070141353 0.20786332456458467 0.09730380331956212
0.1898076978717711 0.45882643142695656 0.06883661087233861
0.33751962532818425 0.23863161991170045 0.03993467179975596
0.320763255802035 0.22049035013151297 0.0922935968860088
0.4647958175074933 0.22480376700175952 0.13969770171668472
0.3251844419868064 0.24236193691235997 0.09742809632311378
0.31493929309812074 0.29017296927672476 0.15051618032387637
0.3303460894982351 0.20655003784841597 0.12830020264328823
0.018008996426075896 -0.10001036719414458 -0.1566657570604093
0.3170093433252532 0.23959992246508932 0.15010224031664166
0.3098365977928097 0.2159262440830929 0.06231158431954498
0.3133525550275351 0.18384220225138392 0.1326716418772378
0.3564756432826215 0.29530750844362785 0.14964212131437193
0.32691934712890713 0.2632810416347553 0.15965075266612416
0.397188382339138 -0.06425413332235053 -0.028817780478590294
0.45169583873266106 0.2896128064496395 0.26749324341716374
0.31518333489430006 0.23728189973658687 0.08110270015546917
-0.6414678887197454 -0.30555732870595875 -2.579478617313498
0.32193063660778876 0.22208107828350876 0.054793210858136376
0.1563044581664883 -0.07009082329136618 -0.3208508508778465
0.34696967606342355 0.19443148125313314 0.045667021156475585
0.38733511030513057 0.2339330048053796 0.054395630798069305
0.32897676053366354 0.21274764323678141 0.08265698693188028
0.47654312857338255 0.2883115182420113 0.25423661136278497
0.3411735758082983 0.237094782093493 0.10448978393527852
0.2902541406614034 0.2319663780720731 0.014419346838451474
0.34648093771683364 0.2299464735140191 0.045747396496068404
0.352085187760963 0.22647934375621048 0.16065253634224064
0.4353711632898154 0.29015622208264347 0.10814620978752032
0.3250091022668897 0.22024624088547284 0.13873469800458338
0.34322796931269295 0.21960027202932508 0.10168980849398679
0.33723266752716086 0.22938306455195345 0.0703634456489084
0.3468934681437901 0.23215991045600504 0.04117672901794833
0.3247661507616044 0.22872283737706312 0.1349312596055796
0.25438153647829154 0.23901247936991865 0.1814790172694103
0.37495750392238847 0.19440847206192302 0.2225477087374088
-0.11057326924593269 -0.010088855526191765 -0.017718560616259538
0.35339883733693966 0.25690506542031244 0.06921877252000286
0.32195427270683297 0.2508705599813652 0.14766106050053907
0.4005610941071325 0.2505056315536791 0.14781869681317517
0.36435446421515394 0.2356324400095673 0.12281240903307378
0.36085224933007964 0.21042063641147024 0.09218126430980078
1.4436084907842428 -1.1728996694377543 -0.03832669230419583
0.27641391374240243 0.30947651264827414 0.05277757021792695
0.3143488524075053 0.22887305442353068 0.12550313210807928
0.3110198627207552 0.2517671311094887 0.23189740355016397
0.3654671302914494 0.25673896978929633 0.14479864522316177
0.4671819667701129 0.36887546254651227 0.3629748489024678
0.3585795856028824 0.193337474130999 0.14190006007498823
0.26404191873496075 0.33830985960871374 0.038823436139836076
0.3649815539051815 0.17383629202532802 0.15471601782789435
0.3648564890750947 0.2467601404745352 0.17571101318077353
0.34670321159968864 0.2069641044500372 0.11256715388856264
0.31138079336380997 0.1979275636915787 0.05305862836391384
0.2873587224213736 0.21567504979962848 0.06255774423038929
0.32851366920559144 0.21646496100345303 0.09153550407413036
0.3651984942330557 0.24597720594810824 0.10535138211666606
0.2963492267853951 0.22614464973014492 0.06712903105992041
0.3267322524932297 0.23043499123670586 0.02627246370329317
0.2938677756232835 0.21372127046599587 0.04544272593477672
0.3938807527837298 0.2062384754328832 -0.06402142453885062
0.23012499818247534 0.2115077826045706 0.007256960534519408
0.2805333079669765 0.21069965787710032 0.07789369046115269
0.2726932129726549 0.4287174004875567 0.22818290521669837
0.29933319415832216 0.22688011559958454 0.08800714922367092
0.3760116669589024 0.2298284992222932 0.10447143185709251
0.3238166096618613 0.19636471484311357 0.12089372957143496
0.5075701462193933 0.160424705127042 -0.0832423075169828
0.3063350441378958 0.2491830786222664 0.134555869138552
0.41480302897124943 0.23332350071498809 0.08537728531356947
0.3470299117037854 0.2175040131792798 0.14762013564300958
0.32689225671117583 0.21550664121886598 0.28234494363523766
0.13175444505816358 0.1183120251796197 0.0550059534300118
0.32446253524437907 0.03744822001638681 -0.15477854024956628
0.29642696548489766 0.270268055013247 0.23220379894900134
0.2705107380326979 0.17423447845308715 0.11958818098170809
0.36836328633908977 0.25760920987079317 0.1360517392978977
0.37381548131808984 0.2509436449806799 0.17353463292036508
0.33176039847775485 0.23144915720359904 0.1120517700925916
0.32909234894164285 0.2371438573776743 0.1504296156724081
0.38899457439636365 0.17041666408736944 0.06350244005898276
0.35054151594820837 0.18390586164709077 -0.049669119652065774
0.29236936732363006 0.2205380338794498 0.14082977908084615
0.28143959455243817 0.21729668515213518 0.1540634822733864
0.32793926922887806 0.2447929879532751 0.0797516311048696
0.3160716490594808 0.16878432999818926 -0.023032630991551173
0.4647944395053685 0.2864720940600023 0.2106153944551039
0.33852310752669723 0.24007991909407167 0.12007443048418054
0.02782781664700451 0.9035477698402872 -0.04532288591715883
0.384380639451706 0.20797769928159937 0.06134895639641513
0.3385967931522771 0.19862603748494223 0.07930012991144508
0.2094106190677678 0.22230117959379925 0.21501297768094219
0.2600352919485829 0.220870555753379 0.020411680563952928
0.33742268180964174 0.22131829450543705 0.09688220377915968
0.35067928911311697 0.2628729272344401 0.18135457226480867
0.34190129842852457 -0.0028396532950267783 0.16797436605972393
0.3367955965796341 0.2091736117843368 0.07544270572306289
0.3125980630977381 0.2991566908504808 0.20720712642133776
0.764699791378348 -0.16487492068856113 -0.15123594983759858
0.3208380872122518 0.22519911370980594 0.08247200995202775
-0.3255780877089052 0.8223885913714923 0.37477223810915916
0.34680610801831335 0.2637070768322758 0.07970898065019583
0.3310683897863953 0.25062561860303845 0.10569609355070497
0.2576135427581221 -0.2658228706281136 -0.027628701882932205
0.38508298198142654 0.13177522827135135 -0.09176430352367504
0.3267472712254573 0.19698786457183814 0.06308640235678808
0.3829071545135889 0.25687890826206683 0.1998614849797491
0.38422319227812807 0.23012328761312517 0.10670273767104277
0.3298866905937814 0.25530529718059825 0.1473583579129354
0.3418657082318788 0.2127570242226824 0.06666062707463993
0.34203809363081916 0.19900595453717074 0.036877050246204135
0.27106213784102806 0.1535907207722289 0.019295281786483542
0.3186037215086799 0.2849134734554468 0.10284568042760611
0.2446920830949466 0.1969604411667234 0.019124325806728848
