# .PCD v0.7 - Point Cloud Data file format
VERSION .7
FIELDS x y z
SIZE 4 4 4 
TYPE F F F 
COUNT 1 1 1 
WIDTH 809
HEIGHT 1 
VIEWPOINT 0 0 0 1 0 0 0 
POINTS 809
DATA ascii 
0.3017592675632841 0.22625676290343222 0.12452139444096133
0.33854187152050486 0.17311201012807942 0.0764899374155874
0.3576115172490404 0.19475143392105565 0.0038949755405326414
0.3647879861919989 0.2001504233633682 0.08114098816758997
0.3323820577042511 0.2032641834043858 0.08934047439933579
0.3489687965752353 0.20182015468984105 0.0432354907832746
0.3158133439210644 0.252216839426211 0.13759784811284703
0.3260730758679813 0.22428244377104534 0.11752454360177467
0.31442234221397314 0.20548433172433533 -0.024844057840866185
0.36181598664401804 0.2217186454283535 0.1429143708907219
0.36398887220978793 0.19796606599855693 0.029054448454957083
0.35563253810528295 0.2165131186549445 0.2207643123449543
0.3948365631855779 0.18887819071352396 0.02524829773230408
0.9851970815510214 0.5050924582173622 -0.13661768745271274
0.359985996120912 0.2485445778736448 0.12100013033003165
0.32380455184126333 0.22984270492158032 0.1511035826679148
0.3420534624993081 0.21026000969627034 0.04307004591399277
0.30521351539742625 0.24300891369050248 0.13241431800855707
0.3059158270742728 0.2471212700801857 0.2764438689025752
0.34353013734150295 0.22744663685452338 0.12443456485198112
0.37069744919763536 0.2889451384247792 0.1538927096820828
0.3736041771923908 0.03856985647311717 0.33167545550226407
0.386891973971899 0.21486701327637547 0.11124172614277938
0.10915402782107719 0.25037163613976077 0.08445371356489773
0.31519123617658806 0.3215530382312295 0.22491673420299207
0.3558671534769928 0.23709787561756457 0.16051415765505794
0.3206349226181544 0.1976553947627906 0.05507002629423141
0.3414894920979634 0.2495228270953902 0.093558599648361
-0.09161314200338211 0.37470836762459214 0.03904223557324826
0.46542730515045605 0.8037021702210154 -0.09073120107174759
0.3464811499149505 0.18107326352105702 0.0457265410835106
0.333080789916238 0.2777977236914069 0.10663111839875228
0.362209363844741 0.21900172276804142 0.022729620095674363
0.25756824338998285 -0.05496823998846878 0.02773633050045987
0.2939726681368313 0.191585746165174 0.09731168479200392
0.394415700163691 0.2509149078949662 0.20792242668042604
0.3185101987813539 0.22312543707482746 0.020012050438509732
0.4218103381773801 0.27550577774360363 0.1977844468861889
0.3305428517322184 0.2350449989628487 0.12395847526354942
0.3157146034234444 0.3037668015091697 0.27280828428402515
0.4090897575502197 0.2360382247131838 0.04549798815649808
0.4288874626194854 0.12281687526848373 -0.025966425908876545
0.30524281443706514 0.29321056792106504 0.06680577865797943
0.3757675375563707 0.2260753074438071 0.11596670892804184
0.3215789131917859 0.22595717171424212 0.06625479490280384
0.2748175306750511 0.168222207132942 0.008710608409700171
0.35108811275277674 0.22220449775878137 0.04289546183576931
0.3272795009908407 0.23223355366963006 -0.0070270521210176184
0.34620329407387374 0.26535476783276124 0.13012206293576867
0.3304963097929914 0.12748567838269764 -0.12122466267584286
0.3697420236589579 0.18354779085760242 0.011982817475043817
0.3393040113557504 0.2253002043844674 0.07633659724683639
0.35122978989743103 0.247764268774759 0.1262449788866462
0.3505841220362811 0.21397708878970434 0.042651434064325144
0.3013267811270879 0.24328120295996314 0.06910844358554868
0.3299268855129043 0.2255398556960131 0.14545065572275462
0.330369791700889 0.2900137736324382 0.13645465052144345
0.35739999022635516 0.28378819758097507 0.10338951195183199
0.35060621310157103 0.262382930352544 0.1505709773943522
0.36424095676152035 0.23137857597464517 0.036027490074147295
0.26065555639223703 0.08928060797330772 -0.05432571454841195
0.3302394940913018 0.20742334971697574 0.034881823372074905
0.2977598700969821 0.21445313169186875 0.027436973445674084
0.36876295118636904 0.17370269812469985 0.005214907059993834
0.2948022173628573 0.18141721255852872 0.14190141807409873
0.3209025522352249 0.21136401278397443 0.07076439161622261
0.38663527011436827 0.15280049350533886 0.08244115537664243
0.525232782753676 1.0994898055758284 0.34435104783503334
0.4286532901573139 0.2589394477426481 0.1269035077036733
0.20651890303744835 0.19213077055346162 0.040901546734431804
0.36050294546319606 0.2179866995455484 0.1533985421314128
0.250248642057187 0.1738525663406847 0.0944608378587759
0.385986194125465 0.23456116998326593 0.14290137189786378
0.27634202862461166 0.22228658323683703 0.04488116378331597
0.2975716605074865 0.21063759135532223 0.0832859071169878
0.3629324288950073 0.23926259021367002 0.07945394541641804
0.2936849130061887 0.23495816133340952 0.06306558036266097
0.39216056888179196 0.21229359851514573 0.0034055630092098
0.31624709221890157 0.23440306473520423 0.09733859453210414
0.3688233796718521 0.23930825625045316 0.1343456616832981
0.386367430601382 0.2726390984074385 0.18102298687547602
0.38068399421612753 0.3413465906668023 0.2661900064867666
0.28277551117719213 0.27284883402013804 0.179682241922535
0.295876815780872 0.26286260527518834 0.14615330505819202
0.0019574702820079892 -0.06953359371102863 0.11891300006453775
0.3508092418858837 0.2459589140081846 0.10828011731224763
0.29019844903238834 0.1822891344793618 0.0506894703799361
-0.10739189510789515 0.26381203715193635 -0.30635374413211025
0.36340183463104836 0.23345301675641394 0.04066801710328605
0.25581529013581417 0.4453814290955904 0.5206381481441156
0.31331079641400095 0.23385532449658797 0.1154826706637806
0.323816827833042 0.2260075387140148 0.11558897697075565
0.2682117661672123 0.09967061618394268 -0.06528898099062985
0.3134492510670839 0.19955764221080585 0.061806361644073604
0.4152195243496237 0.23084165091231057 0.10928321700190224
0.3260489967772173 0.17206982805240045 0.13157561922784566
0.3328180979457329 0.20557787343453526 0.0735784969890858
0.4918206645703691 0.25287359844733714 0.04129577785778338
0.4120274437693041 0.2688927901853333 0.20131338429975187
0.35914875299499727 0.1430727142159185 -0.03142627460249514
0.24922877424066314 0.22282032306895871 0.1365199815810456
0.29156737655887355 0.21527974937274053 0.08655950121723777
0.4337925966582503 0.11672623841207042 0.24551758879938745
0.39706985968271624 0.18069206334136823 0.17728772168126739
1.4480374782885406 1.3131743411919388 0.8472176644599472
0.37891802378585737 0.21459935370401695 0.05796739913709814
0.23680348036948828 0.2570000885124841 0.10236452503157523
0.3325576537186947 0.21540098574570266 0.08324632612098526
0.35029081897496894 0.19994612925565036 0.10194018471337074
0.21675546378928345 0.23043567706540102 0.1518658012660552
0.3862319846114559 0.2643900803004726 0.054056750499640316
0.3887994580494194 0.2565565357763262 0.08296327123666458
0.3303994956402079 0.24345902431618072 0.11219499706493252
0.2934041843628421 0.26533611542967606 0.008360610421917158
0.19387831679313194 0.24700945232260096 0.181540293018017
0.29085069131200214 0.11577889514850881 0.04690632842203968
0.39640495489035743 0.3301856659008422 0.2812243219999857
0.33576831268632645 0.18529624533530864 0.1573536217988476
0.2794025589573579 0.18445168508898746 0.03456021783844676
0.39286437730760326 0.27400604143744545 0.297345588060125
0.333402877988874 0.23966206192177708 0.023034046903603667
0.3957209664584411 0.19128378540405322 -0.011626313404619282
0.4764708161786473 0.13619614365113364 0.0027420697365698743
0.33118666265343677 0.24650880770271044 0.13863893860742849
0.3546095215109233 0.22447705743572044 0.10015646189314964
0.3385279709006568 0.22440868924388724 0.12883740209476002
0.3161304792795363 0.25775906018301953 0.14549060919381418
0.3434301033409781 0.18393735402142397 0.03382258227733814
0.3516058707231764 0.1327767733008045 0.01211433884695623
0.3682136075154574 0.26642463758059876 0.25467550458259325
0.344699621333902 0.22502873807744095 0.07590224169442195
0.33516906233940347 0.20974850059070604 0.0629486802696988
0.34907931359659017 0.241381058343336 0.14592557383021187
0.3870438792496316 0.19547253921001584 0.14977547026978755
0.41089639523110577 0.2811092398042092 0.20386402281690152
0.37972101086023713 0.2092942164648548 0.07446524347309946
0.33052832826390954 0.20480849930184775 0.14018746951720118
0.2422805755392261 0.17355405734301144 -0.0700453068197362
0.31526855357165573 0.21415291218154664 0.10526870064209959
0.32860568526658085 0.21343336491949572 0.08147521832580651
0.304678936034918 0.1676027076587019 -0.009621080974881124
0.11202347183906625 0.18990753909619684 0.005790141862505038
0.21205672692929056 0.16363462861212952 0.06644994559596284
0.32299854518066695 0.34869201830696284 0.1588154826789605
0.3653921791564585 0.2402894710618 0.11748539176693384
0.29739721241071493 0.24895544275901216 0.12018856475894779
0.26982733565317574 0.20162274307951122 0.07857635879831548
0.2646231646978805 0.26052909777834543 0.1864367152784041
0.3749616133224265 0.23710260862678467 0.15605983712131888
0.3576030687067089 0.20437107866770532 0.019604743800613278
0.31936473214588545 0.22595098946369774 0.10942298654694582
0.32137294905092517 0.262227331084091 0.27265892263937985
0.43994438883471787 0.2645599167409358 0.15638436993168625
0.3122910649853168 0.12417171817668304 0.07785891363214148
-0.009237329927842097 0.07381705574829311 0.28350843232503564
0.30457783177416786 0.19015229333453476 0.17507475995108734
0.5906874126402499 -0.02994298304523113 -0.06368148743231927
0.36892429499945933 0.25259880795320555 0.16430268812162296
0.31728580118904404 0.2848634403716517 0.31376474764897466
0.43902952761874303 0.2878662626709172 0.14549838841651308
0.24799852518509624 0.19217651513915257 0.030817298603722065
0.1916622153238592 0.2317480315594196 0.07694252427162951
0.3251558667929544 0.2538677688002764 0.1269177101262926
0.3260402495813821 0.25985742933799827 0.12258163410098177
0.3350125943566695 0.25872192633931945 0.1830171488652752
0.26690211209472636 0.10546515114529598 -0.02533973739834039
0.3451513744522998 0.17556000207179068 -0.07727649126343294
0.3616739106588511 0.14362835798992535 0.09631026074910665
0.35976401850801665 0.24973075047950033 0.006815652285283136
0.2986481007087889 0.21538763023232832 0.09049257895554774
0.29227465388434837 0.1862980235733005 0.02552670572484317
0.39724991499666373 0.1950475577822175 0.2672891932877235
0.3047375903535112 0.1859669994931039 -0.008249682518652435
0.32217472764759236 0.2832348837911809 0.08685765626938746
0.3772901450939514 0.24823332151518684 0.05389862547002622
0.3539316319686918 0.33264013804804904 0.3310088754919036
0.3668725714969412 0.24413190794902562 0.08653436798221037
0.3381574468078554 0.25856205909801133 0.17229395545291482
0.384287742199831 0.2955472393301193 0.16375038535909425
0.3212378476859925 0.24554224237954259 0.11925198103520529
0.3044989939657512 0.23512811110825282 0.1793191637238607
0.176741195625425 0.20538923919957597 0.16731932285688345
0.40800342745768603 0.24188180819902527 -0.010406568521190707
0.3822119374272006 0.21357306595365344 0.08870265251115939
0.31767562725946163 0.20086425740997527 0.08174521451746841
0.3510031936167479 0.1973534440972884 0.13598370814003147
0.3749125505826214 0.2712578219607735 0.18331639810399736
0.29573171375633933 0.24784080217571614 0.13593358385490717
0.3522363598940501 0.2066531670391214 0.030422545658495892
0.367214548202071 -0.09619312158534399 0.023210727758055327
0.35779110719320784 0.20186217079958624 0.17153360099304393
0.30044720162044314 0.15268930417261117 0.27654637820134553
0.38157790120101254 0.2727616230218928 0.09766939664734764
0.31542513199975986 0.23702487075425438 0.1045567285375455
0.40420904311318395 0.16182206471870586 -0.06711726971445842
0.36440205824155214 0.21279142615946967 -0.045553760553616485
0.34638714329491904 0.21649826001055317 0.029710355200549543
0.3674455473069429 0.2430570900525879 0.15953738786205918
0.3252419077223294 0.21986533990994417 0.09818456911648354
0.3328070384896762 0.22489322946594825 0.11270399271066367
0.3344406395155204 0.23528143229056298 0.07131313896933023
0.30708266834133724 0.20706474194861357 0.10348384903807073
0.4133698397318568 0.2791191426385069 0.17326003397799639
0.30001941362291973 0.2437445253001158 0.12158119122543098
0.31232606445480826 0.1583766576520702 0.03131950898425373
0.2694987180999391 0.2311231860184364 0.06245707933199185
0.34318368596150606 0.21592428794174623 0.05730220663912178
0.3037627192086916 0.20689350866859968 0.08884392044993206
0.26400857912088327 0.20695756686461664 -0.039210028723900336
0.2759959407225665 0.23203776822279565 0.09457578868492078
0.27167649876875544 0.2607004395256638 0.1765576581022117
0.3446354801394307 0.249304649051993 0.10155085824814591
0.3438631620285548 0.2186229154503394 0.060121584609731826
0.32841370045608187 0.21021592386553323 0.10042301664314834
0.30367593261182435 0.16118355234327453 -0.0227443585339131
0.3195864800511572 0.226670374067524 0.017820681285115825
0.2887101584045979 0.1351323083755176 0.023816358355674083
0.37550576179060613 0.19453907916141588 0.012545036299314916
0.30216543757754266 0.2766533177621966 0.17545766540908403
0.28851383048314005 0.2393692679230952 0.16045894391825755
0.30191153460114606 0.2546852270615716 0.0939370186371491
0.34990990904600494 0.24340893878681413 0.10923003253958541
0.3365605586630096 0.27406969350991517 -0.18620465275208176
0.3412784017641002 0.24903867710575867 0.07394547098660098
0.4071582651091319 0.18471779819071799 0.07973883037860219
0.32848868204197856 0.19635870530245825 0.09772055366654797
0.3577429273105679 0.24543798689020946 0.13599494322819794
0.34122950144504216 0.23673984814112714 0.11439352555981941
0.3480613330744404 0.23215068556568497 0.06038994856805857
0.3513313494179613 0.2223457086464009 0.11340350523855136
0.3758050580085808 0.13617066530170518 0.04756831149191498
0.2862263465099488 0.1917656752392105 0.03089907473895437
0.37377693331359296 0.2840469441986073 0.12965347378528236
0.32515428483624476 0.237683934524199 0.10277834497108529
0.2893321377749771 0.22723831727660126 0.08201095726599306
0.3152994882046585 0.1931658994201939 0.15722422795681723
0.3571828842476492 0.24512736359281462 0.028447821672017426
0.3794737146341163 0.29043277826738745 0.25654490365505467
0.4301795094016825 0.28240003063940833 0.17386526376078848
0.38248232112275105 0.31430361082215086 0.17360306678003212
0.4035554428602097 0.35491176744258723 0.21865641384826517
0.27957825092823896 0.1876916063644103 0.02948943924690184
0.3737724855844249 0.23900644030663898 0.17409965078864786
0.4445383380284511 0.21545198360237805 0.12115909012176473
0.34034241726712366 0.1843833471735934 -0.002994705378412732
0.2793356321132876 0.2402235328525819 -0.0054356474366556995
0.2017381655240058 0.2138317839803392 0.09409836253402659
0.24728847490773376 0.26640076794271295 0.17740075765607344
0.21009826054070402 0.2047595997090923 -0.025759513616833374
0.3318422203033151 0.29413734091751564 0.22771146803160036
0.2988193559540093 0.2118230864213757 0.012524819582949931
0.355606258704114 0.23847917072855296 0.09986009255433714
0.23138302823372214 0.27700149316670775 0.1785294429218851
0.34284256522985856 0.23032096047441541 0.12103061963281903
0.30147750060402245 0.20831062214050178 0.0319943371094098
0.340850756025759 0.16345572692523547 0.1338347553914616
0.3464246702722562 0.23621550140632053 0.12683079107193862
0.27574378767438645 0.3398873816019403 0.22584943147998615
0.3780488651313192 0.2479512796292056 0.15358277764821082
0.35148563254969645 0.24655083846631953 0.15576355186728108
0.36714001692482157 0.2694820928125665 0.15011172282562768
0.5227416733889356 0.05828203926472497 0.056963814174963545
0.4040938863745964 0.22583974175356047 0.09831144234209432
0.3526816841072389 0.2526297295320603 0.08769172560306515
0.2655404682626141 0.22697153065300313 0.041896494202632084
0.338053366490044 0.20806603569387505 0.04077866014191045
0.348868081760628 0.2403578916678839 0.15142298320590442
0.39115854002889705 0.10389110542416802 0.013741568313832886
0.31029789807975305 0.20292433928693754 0.07049464290902563
0.35668581591235693 0.22404722173521918 0.15404150290484608
0.3255006991584821 0.20327202999757787 0.05610626883802183
0.426616106019992 0.266328863528031 0.16314847415870304
0.36658559349166353 0.27440056466252827 0.2102870081475885
0.2085389455846638 0.28034572723463214 0.07352511768917225
0.3527153622523116 0.2295656320295052 0.10867690739806335
0.3248500496816007 0.3500818277717883 0.2824168612746689
0.3184132265762116 0.21936834775294756 0.10837590165641586
0.34330491152094567 0.283860215178521 0.12862016601243909
0.3958926590766225 0.2513916219566994 0.1363024109728883
0.29042268458189824 0.24799056150536103 0.0013253226061351597
0.5169743994282925 0.022759348414297165 -0.2009072268776606
0.3203468195968924 0.20749868043620268 0.03465440737687686
0.3540499945707438 0.23481331528991234 0.08840008691976209
0.19747586193562938 0.1756147978728393 -0.028100595322626987
0.2831925249480918 0.19006661569885352 0.013742532477436953
0.336727201573936 0.17524350718917958 -0.004611384099121096
0.26710453490318287 0.19685041894791766 0.11381042948096365
0.33589065525347905 0.26012857440792914 0.2629335750685442
0.3166778586051464 0.24957352709239444 0.17031429822506539
0.3106457972667158 0.3122964488834157 0.18283025374739736
0.2999515939053765 0.21911819555033674 0.12182840629782277
0.34387040940026736 0.23298833639734084 0.1142908063864354
0.39901434388588086 0.19364442067600862 0.12477496017930889
0.29483515337231836 0.1724425697422447 0.09328098425419284
0.35658779183113154 0.19545180919379845 0.0893364653687172
0.3659131791488619 0.2444286084819396 0.05384876631778468
0.36083017202543033 0.19646174166439323 0.010633247687579228
0.297941171252063 0.2556838717265606 0.1752080530011142
0.3816183097096939 0.2547786258271003 0.17491402529304878
0.326059753569524 0.21565602036196196 -0.020203801830206203
0.34971541753466795 0.1631540868174568 0.08423105393045205
0.2928616068214467 0.25586556961317797 0.27284472679784244
0.2592975305662577 0.3129868532708997 0.03624495164248742
0.3674574163512716 0.21024733439790566 0.004267186435555459
0.2649405617245577 0.20517632873767866 0.06840347231261035
0.3070563161932114 0.17053083069556862 -0.052569102817429325
0.3208327466072092 0.32090476183282135 0.14108139995505553
0.3217973596695458 0.2347725821187936 0.12415973297142102
0.37942783246468537 0.25059774179749184 0.05641054710568483
0.3253742387987586 0.21736536894644587 0.04279112396562823
0.35160724754182127 0.2369165713510597 0.024239760646096897
0.3207309461023158 0.22558469467489317 0.09640556246776555
0.42763648582872804 0.2752954195293853 0.051527338533375655
0.3527154552858178 0.22321614681158053 0.06419682125309123
0.30012125017356084 0.22951729546042543 0.1878516837465014
0.3995530367661928 0.17503475221067788 0.19245234926822263
0.36647457907685066 0.14520743950930637 0.1960318280113711
0.3296023368056069 0.24919257623186297 0.10829351714379243
0.2573177519551564 0.2718395042226973 0.16354818218968603
0.2722314606696159 0.17544616059700502 -0.060012872546224116
0.3237050294626016 0.29076816386643145 0.192161403650573
0.23145888994889674 0.2672038223870459 0.22379568716331733
0.3065051071720575 0.17298462408425053 -0.4095247785119227
0.3293591813763612 0.2192380014197397 0.09222131176744597
0.31643227803955654 0.2102574001566211 0.08818962267173447
0.36140862450295685 0.14096737195157516 0.07568720737431534
0.4066853446227441 0.18472048358506754 0.21606763807264429
0.3413838267993583 0.22940740762413725 0.12904587893524422
0.3552696848308301 0.20553129166529516 0.027910339744124713
0.30062359400510275 0.3202791084669485 0.21248600264004835
0.33454568851483657 0.21929793982475587 0.1406109373799893
0.35353818791601554 0.24747715064907538 0.11553992729909623
0.33597113241086163 0.2518359067315714 0.04531556744487375
0.3109798175406411 0.21540678468969077 0.11656132450440282
0.30921591176141305 0.29889058334748597 0.4664220200059077
0.34302308291560735 0.2316439584425325 0.1228850763714604
0.35205935807124433 0.26110727973917847 0.23135334554483222
0.33298855005156724 0.1475498827998365 0.36947797255760406
0.293982396444207 0.2566726392867764 0.07146583205053503
0.3389430886929574 0.23287111183051934 0.10694873033011731
0.3322226500903298 0.8803202068410059 0.5321826159630518
0.29452373959344413 0.19318990424676485 0.01996403115614953
0.3464657893948129 0.2593734387279767 0.1108681652544874
0.34599520282557705 0.27246869962110054 0.1845475878807008
0.3467391786407603 0.2383036850804956 0.18628030785922078
0.31877688443364605 0.23565605821562485 0.10030429709004807
0.3755983730480068 0.2536058634068752 0.15083050813321108
0.36977675402991395 0.19121376249891853 0.047592046732688686
0.32378751015950513 0.22524185131238994 0.10093659898103624
0.2499413035020268 0.18704237926473866 0.11001219511913973
0.24887944004217388 0.1549923313940269 0.08837937221926495
0.35089320634654086 0.08979900585316614 -0.15608307536865595
0.37601259858445246 0.22371473169603462 0.08586778416011498
0.3498321657667134 0.19511788751174208 0.06630742670388656
0.3330972995551349 0.22535000312586817 0.07942903808230994
0.32978280256527626 0.23097532783570784 0.07804198225080938
0.3947420279353082 0.2709579517062366 0.12075235456906341
0.3269511828456757 0.1844611159377223 0.013188567989814715
0.3103786461341258 0.1707891627814888 0.06325254938215608
0.2811526602779253 0.3014365569370341 0.2116130537974641
0.44958033179742074 0.2061480348440199 -0.05681015446347715
0.33526008005082986 0.22023477510091993 0.10746585716239565
0.31017522603218595 0.20888810671203828 0.03878258936131829
0.32314466402257835 0.19318464461241547 0.05516818838151494
0.2535413064081098 0.31211348392105265 0.09520711930804282
0.32623750798553885 0.23281987619009215 0.10805267514311367
0.32519336584635994 0.22945004541034564 0.0993871627262024
0.41658163179229746 0.2776862418854762 0.17140842406226398
0.4104182044110587 0.21845963965083115 0.16111933808031154
0.342870118432387 0.2372336343443351 0.09490557168993519
0.3605998588604251 0.2112707168988095 0.040492746921671596
0.2990537534922453 0.24375980708822453 0.16483064375225354
0.1687463567072598 0.049348568995753794 -0.11948673065849391
0.42501194954508037 0.237701819937854 0.18714523806727357
0.3053282788937537 0.21527055513476512 0.018761109215233773
0.2847294608513522 0.24095854542107986 0.05570340130500995
0.3035103868632518 0.4936213519083026 0.2438920899239747
0.35499352630719727 0.24799154869944573 0.05858377290741146
0.28191057261297203 0.17509872783772096 0.10170322497305051
0.3018863848709543 0.03869620772718463 -0.15558013727829234
0.19982749418694823 0.07928734042326369 0.006359348692143385
0.3059981340056197 0.20151710879433438 0.07977472018637854
0.3416259920071383 0.24023290853273238 0.07237485159217272
0.3031967674320981 0.11125398336763226 -0.1097477291315414
0.3435005520168346 0.28353927594027084 0.08268298735865187
0.3218603277409926 0.22539311742634993 0.07955959964291992
0.25507889503850834 0.33145995186586674 0.16158966959616805
0.32111013880816586 0.23748515815654514 0.19094619581080963
0.27555770365761134 0.1891679924208205 -0.05262055059517934
0.3482032503684849 0.2314643363898483 0.07462114326001767
0.29694326634775337 0.2306336897473642 0.027928981430747513
0.3808576742143259 0.22119865039650222 0.0873569881181595
0.3639694877986841 0.26179523284471884 0.14810988635144895
0.3453505800725054 0.2097783512559772 0.053342795942825205
0.35491646228834384 0.24503838001763256 0.10303104089942394
0.3527324965027532 0.18983519181564645 0.0863510581018545
0.39302157452800657 0.1927163652351851 0.030803510196321326
0.3178600261170743 0.3523774096511261 0.14042195892599807
0.41757561266439325 0.26788417047909263 0.11224934933204622
0.315300740476232 0.21340741634007543 0.09487296926459976
0.20671411343371915 0.19629128787784111 -0.04533695158943374
0.3930155522829182 0.18628998284205522 0.06553089789640865
0.3127339212355338 0.2505914741957156 0.11146993995308208
0.32931786788557815 0.21717748740671539 0.075865147976657
0.29414774074177785 0.19179278310508607 0.02995121859134997
0.3340307488956853 0.20320980457475457 0.0874377136467217
0.2542678355007837 0.1579949545751731 -0.13528636445185782
0.3764501938016167 0.18199172455405233 -0.08085166625319573
0.3301048707813834 0.17000760078772714 0.0035007920623684186
0.35286755785043056 0.21309935907500233 0.017720369131353664
0.583228564917917 0.28823223731565406 0.32989092969438616
0.33336199540632094 0.22995471025436132 0.0909639805262259
0.5143615222215914 0.0007380377354593293 -0.30779765363425327
0.3864349033776051 0.21712772136490344 0.12396294163681887
0.2432172796072507 0.18458341693077784 0.07195097967706943
0.3485258750628333 0.1999408566797598 0.08937495653860594
-0.08599417687739219 0.46867353254489785 -0.05125042329950702
0.33286222609478955 0.23519866582698512 0.08046630837952762
0.40945187242996894 0.2772121884898695 0.044785193177247606
0.3014329640787423 0.1928663748942938 -0.001131566128748318
0.38881250461305683 0.22154111747411775 0.08750416583130516
0.3123739118846913 0.17890772289466383 0.03938043728454943
0.3393420921494794 0.20225546659521854 0.07233747652975353
0.36875240058188297 0.2328505050292904 0.12975986819915875
0.3219768274478838 0.1772220719976758 0.048528218648698385
0.33627907159174697 0.24864258489962765 0.1176657845411313
0.3726627878774025 0.22841783054991538 0.055443340409894404
0.34417479822513997 0.24854134213640577 0.11843866663664926
0.31177785943567926 0.2757998024017638 0.11296819710429418
0.2730097720358202 0.27038979824460796 0.15347342616551884
0.29395102494893877 0.20019547249938796 0.07973912806284034
0.33131820242857657 0.24021257513071248 0.11338261050873655
0.34769318258210546 0.2010284655693937 0.10278028471755363
0.3976815617521794 0.26081146280560574 0.03018610500413388
0.2849958304251743 0.2276914798104741 0.06038513440097404
0.3680420787425902 0.2688143531847089 0.12479453032784704
0.41215254110304045 0.26372588627114624 0.15655362714362298
0.3382129630983002 0.30857206595641173 0.11198348987183238
0.33916238462335 0.2557487908060807 0.16213384984433787
0.31988872535205815 0.17872314918176357 0.12108569190110074
0.33230539172146223 0.2498032075264831 0.15862296877605786
0.3465352028633504 0.2466902254772947 0.16053747499898918
0.32906862966953554 0.24677346920442744 0.12651587113177243
0.49629866502617404 0.0891191738562469 -0.34659511556067457
0.3861110198545532 0.14304810132176726 0.04290532931368318
0.296437448044486 0.30102682946608184 0.26979150217613324
0.38709914958599256 0.2542392113724645 0.10708158180358396
0.3022282127950575 0.17734610443841348 0.039269041736247345
0.3159759298109748 0.21201506419967586 0.09645413007113746
0.3481610805521882 0.21180753459802304 0.12112039566486033
0.3270372101291059 0.21676623412625418 0.12797591211263182
0.30865352536088153 0.2114726905701474 0.08717397052345177
0.31893273364416075 0.18864091580836373 0.03599563966946562
0.32907795337160906 0.252544232913948 0.1391543384767857
0.20950151425429908 0.21186960471197835 0.1077459251510362
0.2459301273444794 0.15421833193165924 0.02288598549358767
0.28318552547875697 0.25838902864967395 -0.0960404028533901
0.3388833114040324 0.21620926577516286 0.12573909449649534
0.3055045560687688 0.1850396396814915 0.03590294159288021
0.32601130847642423 0.23274578123734102 0.10718389209172585
0.2918281768361908 0.2287428689484159 0.11146309913834784
-0.2019969814204643 0.3779542563563325 1.0436772718536957
0.3475869409119241 0.24641776423703732 0.11819087036234066
0.31874686726013124 0.2081862585590386 0.14610394071340238
0.3229186490803784 0.24243494083827954 0.013039930655409648
0.3374419681871075 0.2415832533081641 0.10743181045856431
0.26566643903879594 0.21909902316923535 0.027631830866312157
0.3621746322149306 0.22794534595533378 0.07339556901777655
0.3325775850106112 0.26174546895896356 0.015674435150145882
0.33253796863239415 0.21407615147288084 0.08089362623896079
0.3873831160214394 0.17630471067192843 0.11510744517856608
0.20030853571643092 0.04996186110184908 -0.14647162497328736
0.2703704772477806 0.20516367459822504 0.03279098355457677
0.3679015313669254 0.23967210634003777 0.11761103214149671
0.3725781137799231 0.2729515245286791 0.16630518066386912
0.3540401464818359 0.25720435964487365 0.09809286624268054
0.24218187852058293 0.22881461248402957 0.08932126931613027
0.34552142779953954 0.21902083643368542 0.08211676580810945
0.33746242599013954 0.24011295086106088 0.12626982296876577
0.06412416847018676 0.8511646460130748 0.4504026318107037
0.30069388324133683 0.2187076698159558 0.11134776544474789
0.3432194193648854 0.10008966975254907 -0.08866774260775401
0.3610500409630646 0.3370843883497372 0.24030790504571087
0.35111717448745594 0.15376036507869628 -0.2260618686859175
0.4343186170405886 0.23894022037532636 0.20284311219489837
0.3801730878714409 0.36172572088312904 0.1976252632186828
0.16793106238466748 0.21134249545067973 -0.3583618109814779
0.3838474039266089 0.20962914229222918 0.05076818275756523
0.3549887810044936 0.26035518820225434 0.17974269862867231
0.19978899505693448 0.21455425235267 0.174534790292455
0.319176240820525 0.2594626674107303 0.1482715187522956
0.4037724372951601 0.25340021735317464 0.1340372850131928
0.3199877038184269 0.2747541024899931 0.13412778726821273
0.44506135022413673 0.28566385622897883 0.22433051699073303
-1.3013158045806676 -0.9292063339234318 1.7469106162304513
0.2516835437374425 0.17753467287374747 -0.02510766157510602
0.3248126956137014 0.23399206049700183 0.10617878459117946
0.358701712751369 0.2652211266697151 0.17650296543689592
0.3670013942991659 0.1549680649378331 0.10333648928676098
0.358169582655151 0.21554636511939407 0.08904612385626365
0.2983135084685955 0.1684958760423001 0.09810191638473498
0.39111216959679496 0.22262444543672189 0.10219276402936828
0.38869083287977446 0.21693528613386093 0.13399470224601373
0.06025361760558212 0.6123056378020522 0.3102801735300318
0.3289433732573741 0.21606447312288424 0.09436167858265776
0.288428494757099 0.24458370228781234 0.10346575201897679
0.6236178337814664 -0.05961495477271228 -0.09110334114660645
0.27531495811669515 0.22095019032407492 0.07547458221824854
0.4212627578407506 0.20235327164841976 0.19604629345832336
0.3355521048989658 0.22385264001366068 0.08722951323571237
0.28897985264994475 0.1994137792086974 0.0440719060941035
0.321854386908214 0.15770794814849864 0.02596019106462677
0.35435200467874495 0.2117546350232118 0.06582715121987803
0.3841451336562898 0.30388784909766287 0.13296981444327116
0.23367648084850146 0.1659807367320809 0.09826600132331009
0.3893422283385064 0.2871043056681799 0.24184294570343923
0.21830410397447508 0.17069674125531265 0.007153457685291187
0.22681694323918578 0.2333518960450931 -0.07012554248586866
0.3782099472632865 0.2616762744007133 0.19483854613221752
0.3048737047546126 0.21713659420831277 0.10896434889454554
0.3269110702812128 0.25235467760451513 0.15006084369289852
0.35775731065065486 0.24291854549441894 0.08214310455701934
0.2680416499488558 0.24521985790330803 0.1450582970521168
0.3341531804339013 0.23794905144431766 0.08827205206566191
0.3140166954677426 0.19912632928898688 0.029457359891637225
0.25984393388773697 0.15124798942338202 0.044657926612728716
0.3845571343842522 0.2968496441241655 0.022821292342655397
0.3049041233157652 0.2348881366846456 0.15313656968710632
0.32788984761148754 0.2709843053738439 0.12825791451822965
0.31388801066283634 0.2037475769523951 0.08032933218628102
0.11859387887966477 0.25576529305311624 -0.1607784872354614
0.3265470838113629 0.22982085746312464 0.19373970445639088
0.18924993277767044 0.03846855256401227 0.12567712488626626
0.2815383119027359 0.19564612374155388 0.015914440205364144
0.3579943847381628 0.24195103770196624 0.1317707541190174
0.31681118572844014 0.23167542348879522 0.12204006441862703
0.3153750423053623 0.20682353386084174 0.10085625178662383
0.422466076491105 0.2625986341917894 0.18680767414450372
0.37587956108113474 0.19228622864144995 -0.02274528006225296
0.35481771851755184 0.22457430845000204 0.0581600775568063
0.2915596440229109 0.23676865687927773 0.07023958828681032
0.3359591556390882 0.228784510758004 0.09796906081911061
0.37080191103325433 0.2299586047803075 0.08357284654660191
0.27511796478924566 0.17293715999304027 0.06545800148734315
0.3238804395508055 0.2334880183745014 0.10470220397149888
0.3318737636421645 0.2276743779480057 0.28119693084093456
0.8380283665012627 0.35082537680278847 -0.052147074487919554
0.3491021777754355 0.24325342934888283 0.06227714930932393
0.2933053185263077 0.24321633710053447 -0.001788780352427466
0.3378533983598686 0.23478890754830672 0.06063324566622441
0.4015644183008362 0.25487550822259664 0.07846462307624336
0.3759071836138048 0.2413939361905193 0.14155220176974126
0.20800034466046213 0.2775402743474018 0.3562177978349439
0.2787509279675362 0.16755653162863382 -0.020601758194885633
0.3460175850822793 0.19359401059648462 0.08732264730900852
0.4112001147492208 0.17042411341978436 -0.016031587842206818
0.37247631718365426 0.28313983443862867 0.09104543946722288
0.3494598791085508 0.24555143140868552 0.10213633263047939
0.6069767855884152 0.3050286271698184 -0.09906866142192428
-0.0838919696367384 0.8433065041936629 0.3296678053169444
0.23472440412859896 0.2296308748793905 0.04489835994843361
0.33869210798656013 0.22015320097314373 0.071308017708958
0.39423387840682267 0.21845400877640486 0.1279966766545897
0.4772633641556894 0.3943770407644962 0.36654451423319756
0.03322071960687367 0.4815215201950309 0.04916516397997839
0.3403243669078506 0.22290406081961578 0.11240271986397943
0.3388233714059936 0.3093229665603019 0.19658741793146817
0.40828608949199463 0.1978865457090393 0.0884312826269138
0.2126962767283942 0.3150918122306905 0.161718589885254
0.3228181661397542 0.22511148985472573 0.08125431711192732
0.3635704121860215 0.23434561062234138 0.11513148546237062
0.22072505891674155 0.19970093799935285 0.021280087933661207
0.36655717499201046 0.26599864061446965 0.1015002182995346
0.15923606552327385 0.6967158883030038 0.3534601422320236
0.3113541871046692 0.31145534523543006 0.35661996316829914
0.37219945888583084 0.27055539606367063 0.16004851873347548
0.16941681088221117 0.14172872263338832 0.010102293984004973
0.2999906039322582 0.21701487162744115 0.05122916179567483
0.31119987663640813 0.22904064560086113 0.10613186576904354
0.47419845783522874 0.24255251451960191 0.20807339140466752
0.37717142713754015 0.26972331452908804 0.1588622397982249
0.26657285477158155 0.19521096844118802 0.007838333366763095
0.35822692503938924 0.243279321046046 0.02588201979772009
0.3086938557430585 0.2663430817970607 0.06883461557913506
0.32592210869179894 0.2337753788760608 0.11713782736499923
0.3282880131249897 0.3594104483094327 0.3305336734534876
0.316433755474975 0.10025348486499297 0.02223123199880206
0.402123206111213 0.2983527112755837 0.21017769834909927
0.3129075055338717 0.22011566738254373 0.11526408741178784
0.3090863145684182 0.2108668404164007 0.11523514032924709
0.37089244722237424 0.2427245400228344 0.201377190417233
0.2927139558916849 0.20411363519826864 0.13448262873481553
0.37031257609467616 0.26047323378111287 0.10069208483028547
0.31725315586862735 0.23261671901464354 0.145831353038389
0.3298376140959931 0.21909319628186097 0.10265171501146142
0.3132601242841133 0.22431572705082203 0.05493738861312636
0.3271202823722774 0.22229494194132826 0.08076179778664994
-0.04709867689280145 -0.24719922352529977 0.39318848996066436
0.27799738483032854 0.2627025147222213 0.12131004868872708
0.3053405275439047 0.23693416463237327 0.22157195774342142
0.3167309266269882 0.2237137585508151 0.11061460354764563
0.4153590867402954 0.28858579152755226 0.2426380483609023
0.32675449641823207 0.24003184341331973 0.10693448650516757
0.24433673442389647 0.24507039507804507 0.16021349140217467
0.3391501160008943 0.22968255401437432 0.11331109132086681
0.42082742896441516 0.16280002953861583 0.06948769668244381
0.3437046429488646 0.18227271934921419 0.019908046812361135
0.2792519909932878 0.20228249377734642 0.11761767848952331
0.2523233964813869 0.31669471475993305 0.34660328012640207
0.3505785111899229 0.22164956489524457 0.03645395572064558
0.351509584073014 0.23402022304026104 0.06819908755593929
0.3574543086154023 0.2194921066277402 0.0693195507449218
0.38044992061296057 0.2541801885869006 0.21542376102651417
0.308844204287837 0.2131557501736694 0.12283548197956407
0.28804217673635435 0.28450092369146773 0.04899084284643607
0.1993505028325444 0.2739560954233582 0.14804657708666014
0.28099038873071436 0.2701118630044448 0.12486501823164531
0.3264273586265318 0.2504256555533857 0.10923121877483766
0.3032615221696062 0.2281472431486975 0.10624451412826375
0.2683597671829716 0.2744702344653831 0.1613979660042304
0.4080617939059721 0.1871026396072466 0.06549921961513405
0.1922669092081435 0.0892994265106779 -0.1106544395631488
0.3491015877514485 0.24843026033298088 0.1246285778328371
0.2638445150293762 0.21006411248691848 -0.020317430445970786
0.34423723225381764 0.2492028966320845 0.1527190405642358
0.3070635672316371 0.20237380660684323 0.10428370712783419
0.334711823215315 0.26135505218940125 0.030763229460148978
0.18457327059795148 0.17747334390324454 -0.7301472052537861
0.3057284639495492 0.23338319383982764 0.1316405815331052
0.253177914283782 0.2074035906730245 -0.02741281203596202
0.4318790109179105 0.1902857705405978 0.19244485533457123
0.37848001182969426 0.18226799174902908 -0.08844772434500214
0.3408551682861969 0.21660990211464082 0.06155849473162789
0.29410191355401594 0.25108475071819214 0.11668532713741797
0.33211947259016483 0.22486437966929884 0.09673517647161134
0.30509802617480375 0.22076247276868344 0.1078210929375274
0.33497163154581244 0.20412371328077938 0.09813070953629222
0.3190530754088172 0.24334584126800962 0.13674409688826472
0.3456773470409189 0.2525757074402861 0.10336504410642533
0.3058095037133768 0.17095393690374294 0.011859652042886637
0.32617894979665607 0.24690904421463244 0.09780703446662642
0.3498681589811099 0.24714339273195662 0.1345062042799725
0.32945925675741705 0.24427859599271073 0.017264878372330372
0.37405514963221265 0.24675572218967545 0.13349633743146683
0.33352868606621655 0.2209393631819836 0.08323722381868492
0.3375092125777712 0.23613431992924916 0.10874709402453675
0.33564785086471716 0.22611167333158733 0.09831669714272095
0.1926801198154635 0.28535767953798086 0.015469556774121429
0.340724345086727 0.2570051666324531 0.14152333533597528
0.3170170523644913 0.2436664914411466 0.14464820291757974
0.2787023232462644 0.23004670231625823 0.02932169877398394
0.31631920725357077 0.2745827605748872 0.2805984701323325
0.37048329830973614 0.18396227091699302 0.0058327748989768224
0.3933053638796622 0.17910911592510104 -0.01292748498164542
0.33126529026532125 0.27995965605606443 0.15525118920066916
0.30314279530404065 0.2194125728101426 0.08151102295545343
0.3668938591478792 0.21704226610262367 0.09259171450780457
0.3844051180181225 0.13671583836969603 -0.38940874251312607
0.318133832288396 0.2235751025772572 0.07234329710288989
0.5463394252512899 0.04370795602838484 -0.055232242350570004
0.22621505194197766 0.45654802058656685 0.1508884125340728
0.3363266188709275 0.21583649427023488 0.113333906979733
0.3395205723440853 0.24934985694984846 0.2776005298369597
0.39655571116114174 0.267513860600161 0.1449843871193508
0.3409750006686636 0.20445967616132066 0.08261239587410785
0.30011253321997344 0.3070112466018884 0.28943951196157514
0.29671602526892116 0.2691878786926907 0.20326157285657587
0.4317108326948187 -0.09448036948001004 0.07757383383480487
0.34442247873781184 0.1557460963862809 -0.01796354337830053
0.33702158817962413 0.24056738739864159 -0.041232401592679935
0.33910403264354727 0.2446599910373095 0.10314709029469782
0.32946758863872105 0.20819186458865602 0.08147113674783668
0.3395769921179408 0.20306973112499804 0.02846995620060966
0.3171248461567302 0.20696593822448506 0.026040068321464105
0.3126255188244613 0.18740493396600755 0.05509197955004197
0.30883742322555463 0.24027300833216714 0.08343650494003896
-2.4085259983455103 2.504468086707277 4.452753921694409
0.31569972971306015 0.19875540236219535 -0.0008970382490360862
0.30686635879760615 0.16035694814844703 0.0017441381162655034
0.332527609933976 0.23413001750355988 0.09459527079630448
0.32714450752743574 0.2687206171077605 0.08863890700101251
0.3390818628613488 0.22909271678391008 0.10983760053649405
0.3402356476384938 0.20993787362333194 0.07589184150461392
0.33199239423547056 0.22962276444938823 0.0025521683274405405
0.35937167355832855 0.2126589884379655 0.09000734067339522
0.35575769918460765 0.18310048697068737 0.04754025204292134
0.28709037017986816 0.20617304873101716 0.06426483107452441
0.31998848020700166 0.24488543002200913 0.18289085124688143
0.31018081968474576 0.22347733494768818 0.05160497631885619
0.3001247378572174 0.2280023803406408 0.12274628123964249
0.329820810488485 0.2483176024935574 0.06259700610597463
0.334928193654477 0.21030220758302676 0.15814411030407882
0.4429844195310011 0.2450086336163224 0.14085243787418733
0.3631796936987115 0.24589836854180191 0.01667528107006433
0.4870594187511017 0.22601680071912256 0.16661505203835247
0.34518253061034443 0.15831269309447293 0.08405755402088744
-0.21080075059518322 0.0031697442740039605 -0.04868847011753985
0.33766240824235183 0.24311126951189976 0.06844973194407089
0.24054936973487884 0.3138812125784227 0.14347290278078617
0.3161856469940574 0.2127290999299447 0.023575909016315677
0.4762830619127669 0.2624086602362752 0.269722521544125
0.3177339955615679 0.17299778906186702 0.20308183113913003
0.3417197236309448 0.24035768291375348 0.09839346644292846
0.3619484730014051 0.17913798005841386 0.031229951588784388
0.3689062442384028 0.21449637458546533 0.12206233971021163
0.34507807374490085 0.23212269953819487 0.20807020515636054
0.301331164038956 0.27079497493505755 0.19646885706794137
0.544917267133016 0.19431982820509575 0.026451531442802434
0.2966326056087496 0.26668288246025895 0.1859150626564201
0.35080705372270415 0.257951450263846 0.1560814247506812
0.3406128380950406 0.24069417665506876 0.11878992265698685
0.4921888465682116 0.38980974322049633 0.05889818789407286
0.36313424710260733 0.20653697777493107 0.173202612633645
0.7482858646399677 -0.7453351539118671 -1.8708575491325234
0.3273971822222279 0.18464593244800653 0.07174383339781798
0.2890359360863215 0.032219140292539805 -0.015029625426663529
0.4925240220158287 0.28007142671066276 0.21690074113449498
0.3270076383947469 0.2525860643532667 0.17932493977295394
0.38041601344204423 0.255492254385814 0.12311526410670126
0.3765762287625023 0.2222497980048388 0.10499915077789979
0.4117159485490163 0.262046445695006 0.2575104581276122
0.318442678977064 0.24567214539294469 0.1719088428804696
0.36193983602653645 0.2894132063177608 0.2199181196016724
0.34130672738046997 0.2364691081350685 0.12155990550574813
0.3534772054484847 0.20630378619787848 0.07272699034851371
0.3525856160479748 0.22820254780341998 0.11699521619888742
0.4425121815392572 0.22690269799521445 -0.12022883403344053
0.48721046237676546 0.23429613385803805 0.14321387942732144
0.3195104168803198 0.22456971479539334 0.08755387359343558
0.3759833800140484 0.2278660276110145 0.06797115902293172
0.32903346630234864 0.237845879383201 0.10140432287286671
0.3888395102597002 0.25457991039178296 0.014253412574987578
0.333847501519827 0.23816330229448113 0.1134354789300005
0.34981353101073864 0.23675926342923503 0.12686885546457916
0.31175794905678345 0.19393091441489219 0.044012095500818305
0.3414309526031758 0.2089368072732043 0.04706498872803877
0.2901771393847241 0.2262853359314505 0.08650354738982458
0.4095730397826145 0.368123090391407 0.25891797676209194
0.36127781207976284 0.20633281291773642 0.020559126891612323
0.303832961734102 0.21803311048952878 0.11719450753551541
0.4193182761069636 0.24727077974074518 0.12586454096049238
0.36039836299141825 0.25636423462132996 0.14604223987126375
0.3572074514393364 0.23391831597666624 0.1426190354032144
0.37729281343280263 0.2216830501616016 0.11499474070386384
0.30829804264679694 0.2394736376658244 0.1576625561940972
0.30785655454113225 0.20027055661535087 0.01884165335835064
0.33390377773281443 0.26448742984604223 0.12375120574135678
0.3552074737530404 0.1810838499796148 0.06982281124930978
0.23145948489880652 0.2110025420678312 -0.015335687745732685
0.29482113199981086 0.21831376691167748 0.08409778381800947
0.3001663431429762 0.22768393836295786 0.11870606627870472
0.4004807338910723 0.24546473930367085 0.1346631496020052
0.3204472532795535 0.20656884962411937 0.09357684811618583
0.2822460533978841 0.19638710786318825 0.04038114090849376
0.3529608103944355 0.24325204689495195 0.0829143406404853
0.33721220643488437 0.18817181909227543 0.09842362128017612
0.4135315548984977 0.26421486296209196 0.1621846311612245
0.30647234138933754 0.2151750259199332 0.12613493248645113
0.4086118930873397 0.19729179824544474 0.05435686691374997
0.32059132246072863 0.2784446347132814 0.21133642176721423
0.30586503729428216 0.2710254350331809 0.06533309379122443
0.34342278339559584 0.22171131018879464 0.04828217499512277
0.3973346297535727 0.1589385731796824 0.009369652277712248
0.3033531779235261 0.21888130440005682 0.08720258826703287
0.2996048181741884 0.14444786181097413 0.4790595577749741
0.23393906283637023 0.17874285200406348 0.004262142998470608
0.3250720317043374 0.18919332047897797 -0.010312207368173176
0.42552491562810246 0.3039841905727201 0.1937081816882653
0.3188450908589715 0.2019571374848681 0.01316479425886996
0.3254673540497208 0.27620974201300896 0.09461762143473607
0.41369885339265977 0.25915150435304213 0.16718458816262682
0.3169505314018579 0.17715353350131124 -0.11565373092670939
0.3556069310515966 -0.07661582055328608 0.018979151383931026
0.3457647474409953 0.24571551084358134 0.1219327417065017
0.3624212061555738 0.2466614224972261 0.23199517414630577
0.3266421653335243 0.273565710234422 0.20475430363933356
0.30656594195636444 0.2314987876954433 0.16514565360742495
0.30940999854630036 0.23556956542242347 0.1032970770658892
0.29703801775477245 0.11778602291911966 -0.06855809233417176
0.36969210489857574 0.19180005495809382 0.1143269373157807
0.3968132046446442 0.2273905763711781 0.0385166537308379
0.34720523159003847 0.21225892344304498 0.06399992464147886
0.3289827633409743 0.20217490297631002 0.03903298119379883
0.3323765911090675 0.2349321893370302 0.08928096782597095
0.40425751237654595 0.2601638576671377 0.162840608245844
0.30734593080697437 0.16542598130291708 0.04888471334248834
0.36853470999955107 0.25069567383346225 0.18074297096575265
0.49166705386144827 0.2654605673370867 0.18470061513542646
0.28051684027236945 0.36654496669015657 0.24116048993747086
0.2907853249575396 0.2564268556722027 0.15397311496570865
0.28297237743564096 0.31896973759927505 0.00227050557577968
0.3952576785822828 0.08629462695748202 0.06248170332025893
0.30480061046648643 0.2712153388111176 0.10396852949870095
0.42197718730776046 0.23867517524861626 0.08002207126202165
0.2436196169246614 0.23131763142055206 0.04823947229263581
0.4374422382246337 0.2956034574435904 0.3023574442542838
0.328345024320555 0.2650001787243923 0.16010719980616273
0.3733062458645975 0.2081299883565606 0.03850289712610788
0.37434030266089735 0.23251035314972057 0.10999988205625755
0.3588528262289401 0.3578581060912711 0.171756984823503
0.35430321525876707 0.24342900905580223 0.0872984841055029
0.3494952188385838 0.2472247966290695 0.16162955321061645
0.125589562807761 0.4736486196810574 0.14161380408850732
0.3171550551749931 0.2152190102791991 0.08503261913037363
0.3243967000339296 0.2284385810353342 0.13109402665463676
0.3234513098378784 0.23369190635807513 0.0961895439286593
0.303799361047993 0.23332022239057437 0.0677956238228461
0.33457742617403596 0.22877768136866905 0.12020182015399428
0.2985722238691437 0.1763738475324601 0.11707554893548888
