# .PCD v0.7 - Point Cloud Data file format
VERSION .7
FIELDS x y z
SIZE 4 4 4 
TYPE F F F 
COUNT 1 1 1 
WIDTH 802
HEIGHT 1 
VIEWPOINT 0 0 0 1 0 0 0 
POINTS 802
DATA ascii 
-0.18174940266851536 0.24870857909036204 0.27024648768947657
1.0670063030978127 0.29991810047738454 0.25907045271642914
1.368798510637447 0.18079569342761204 0.29900491783917005
-0.20349273680527347 0.21789543711005877 0.2606829008050653
-0.20852018692116303 0.21535433784126212 0.21977363503015113
-0.17304186759402285 0.23920693544192773 0.20547843294292534
-0.15457655976899787 0.32005559964170516 0.2968021691592071
1.16146284664444 0.2534165369252861 0.28472874562538664
-0.07728994212936868 0.14209806020662086 0.2569279891097125
-0.3384752634011079 0.4605655242615967 0.24176260191362076
-0.14453672596994238 -0.16380097715619968 0.43067355647382044
-0.1969191588976713 0.24285876349770774 0.23863740119247723
-0.3487277967626312 0.39795392671516083 0.2281874713951879
1.1106024107164103 0.08645445565069565 0.18285679033246538
0.9570526712213336 0.23157662776500842 0.4226583512802904
-0.11648583433506587 0.0636475305680051 0.19068590861978407
-0.19691794001309404 0.29532109731906075 0.2601036983040217
-0.38238263779760473 0.22637501181597486 0.1758509641257433
-0.1552189515934117 0.24153743389351234 0.20689101283282696
-0.08446240798309645 0.3351004873108536 0.11952157538436836
-0.1854394576918139 0.18477565619205905 0.2841235229713561
0.0012319963414313406 0.30869704231677986 0.4068294667750223
1.161684699614625 0.14304287227651002 0.31903878698520316
-0.1621345142167172 0.21720155309091638 0.2546044688347422
-0.2582659576016937 0.2856114154846381 0.24205511340610997
-0.2055878117822516 0.18932329900327716 0.3742233731068154
-0.18738086844925306 0.26604000922782234 0.21972063604489733
0.12484956180942675 0.7152767952554626 0.41840436217735544
-0.24000537398882216 0.24952810912608925 0.2538745536958231
-0.22128059786672338 0.23398612501048888 0.2449634415191042
-0.17633709067925452 0.22998418156500122 0.24780696010894587
-0.18578386479065045 0.23704530317513672 0.2744907961306353
-0.084311238996861 0.3634080988266817 0.36946807234143364
1.2285621605379191 0.19361850986587115 0.2819125321756246
-0.10286798318625756 0.1845497058607748 0.28522053989271967
1.2463767669792105 0.2793230625190546 0.264478533431344
1.1697716555497948 0.21268275772568757 0.2518679672824362
-0.23085568312737337 0.1671790324995328 0.26853252069899725
-0.19863539936446273 0.22547766044058903 0.2923215951832674
1.186868983566285 0.23867576499083043 0.2755275335072014
-0.16526310075776962 0.23068838757777144 0.27311157942772013
-0.12400019518169358 0.30699852304788067 0.23931453195913832
0.017141989909063682 0.006039664809208034 0.2428580616006144
-0.26212881599767 0.13505211778814896 0.27758189013933077
-0.21971639871804882 0.12635143907780844 0.15859980689316444
-0.1799625905610469 0.30937073973558427 0.3103012634551163
-0.10141941054570225 0.11364043254457101 0.237444639195445
-0.24759825591357298 0.15696166881514273 0.24152856805561385
-0.5179706768177539 0.22797483333278024 0.1485659004089399
-0.2559202733714301 0.27873634413161597 0.2529671236226818
-0.2766880734911865 0.2571110006564368 0.2542355138161412
-0.15406959232618078 0.125818493346884 0.2066316776493835
-0.14678990184319218 0.17366425950092435 0.22173253675461524
-0.24553974670683942 0.21427333998863674 0.22080069364764654
0.2464032914964065 0.2717731925732778 -0.19332160861119974
0.5260267503998648 0.4188880222587841 0.5617099354926864
-0.1973510164501846 0.21189822051007923 0.24843984304277456
-0.2095951724357974 0.240215584877717 0.22268903828256725
-0.1876430985491595 0.21494554994349357 0.22005625120506522
-0.1796137774536959 0.20394787571075312 0.2583840139952258
-0.1725751501646613 -0.15723352089901255 -0.004616326690339179
-0.17646997735938896 0.22904795871966144 0.25872783556121703
-0.37301302145534976 0.18240469720352337 0.19867402547879465
-0.2628433517707549 0.16889415538217634 0.250022837480131
-0.2545950860311734 0.19620095702228468 0.2722985354818519
-0.1932826921172648 0.18767944789615854 0.21138325344011832
-0.25778098140426664 0.129348122522714 0.20236662611858947
-0.27988679615225465 0.20563828384166527 0.272205075995231
-0.14933590123300178 0.14821518256904653 0.27928874849661156
-0.1898526823224671 0.22744578547460037 0.24701712173029478
1.935372000557905 0.41122137957307814 -0.0037611861380923983
-0.21360092583228152 0.27031463580692616 0.2678227670990623
-0.2363547342184802 0.1534736078112786 0.19550948406123325
-0.19501410483995585 0.29951498764037865 0.3128044663473588
-0.09795497910963036 0.212027922865218 0.264618614116813
-0.23712260804413177 0.2476821015745969 0.18714738495944516
-0.2543030711983221 0.27847696622693263 0.197844003050065
-0.20027879120780767 0.26319169638074413 0.2712840078603449
-0.022486269492844713 0.3608479441530221 0.40451382481560927
-0.513173032401312 0.9477458518118027 0.11180407910576662
-0.19200097584774767 0.21605102353115058 0.2539682970607231
-0.05970255759731913 0.5923873751738995 0.5070517276112128
-0.21829026656573092 0.1606834615353705 0.26876047491604993
-0.25444870346281334 0.23265076645719773 0.21542168401214212
-0.15234511091273362 0.21596444038364382 0.2508958151739762
-0.1546701264897763 0.19256815509191938 0.24736415478440676
-0.6485814160679979 0.21498813024840047 0.04396839804320507
-0.27975469621151206 0.194882471763151 0.23018958888711438
-0.19539905524777623 0.48709713984956693 0.39206257170422987
-0.17178109512899198 0.21803874732857764 0.2728542501935891
-0.31298389799181336 0.2101750436077623 0.25818165470676036
-0.12825286356388688 0.1865045302324546 0.22685491192004292
-0.2073579872600675 0.01784579329878966 0.1786033871377697
-0.33385338531570596 0.42989793391799935 0.26129843074259895
1.1547664851326829 0.15973771115125146 0.3303721733959435
-0.1909441798378566 0.21537783935670518 0.20908152338768105
-0.19093358384303372 0.21846436578724138 0.254710914353808
-0.3394909507988899 0.12953742881489916 0.38255244686874335
-0.2256212769293171 0.15614949361257402 0.1375047696475633
-0.13096196139684935 0.13084057334437205 0.22059168044371802
-0.2691035466218352 0.16906079668817142 0.26036855762387745
1.1338091041351532 0.24875303434767204 0.29548957684818333
-0.21078936197521614 0.37982990390239024 0.2604512481291863
-0.19651484372785433 0.18728215255245573 0.2382573722899508
-0.19338960354940582 0.15948699691236357 0.223066884873802
-0.1474227338377858 -0.07069476615279768 0.09277829835689033
-0.10276653103699118 0.31003404472295415 0.31903246798700025
-0.16350110415686459 0.21249813875004975 0.2749235349614878
-0.22089261225913503 0.23235940942936395 0.25022672223531117
-0.2872246612309368 0.11148771763643595 0.16971433689295168
-0.25630881601426836 0.19449245468408094 0.19978909762127728
1.313467867564583 0.4532372775823035 0.19799065220213663
-0.2892168100454455 0.29912461299485926 0.20448790597683342
-0.2603496491859971 0.17314971260495327 0.1954295497107097
-0.5957383305836714 0.3939600311639708 0.1755273490042839
-0.3205904428981228 0.3205059166821229 0.22793948334332015
-0.16775196665841463 0.15974273243392645 0.2742513828607116
-0.20470974299742295 0.22863182946493055 0.25105053616559303
-0.2940678563552268 0.16675231360650855 0.17193422222143795
-0.19678926947260322 0.23282987573898595 0.16893126382586843
-0.9760153549876236 -0.45933288433720065 1.1457300419668002
-0.20298432738563577 0.2715542929119721 0.22592282291608967
-0.22073227242178461 0.09950767418780515 0.15777876796146018
-0.17538841879897404 0.18588979030300834 0.24534198309595467
-0.18826450534402284 0.20926781691053975 0.2537714236017763
-0.020429625505244076 0.1309894713952673 0.2601423149438631
-0.18286134996492365 0.08588980568256943 0.2373595344864725
-0.15438678456369814 0.18553497492287363 0.22492449101494572
-0.16605806297195613 0.22172741997169965 0.2581953048849783
0.9970821757007826 0.2557028076965935 0.36866454619647016
-0.21027884655387652 0.6125135283013634 0.43029532594960074
-0.18401315061410628 0.231213896470706 0.2469335323972075
-0.18347129872938694 0.21860361283799534 0.2444047014014643
-0.38132283370950404 0.17283026204543717 0.40396902165304027
-0.126459009294706 0.29720843317059575 0.31810481198161256
0.04528084073029959 0.12276971865352948 0.26950563909942105
1.1762633349433713 0.23776476749031872 0.281375632296772
-0.1896309555363871 0.14854546204185226 0.21276908100611536
-0.18037759009840215 0.2502631454958504 0.319768539917078
-0.11927651886111335 -0.05557200088671266 0.15697390659352095
1.1613340621847925 0.22467201151320637 0.26537503482025215
-0.10570598396262199 0.21305750790249078 0.0691841407313234
-0.17081647594073956 0.06955383553727756 0.025973033889130193
-0.07868157382310415 0.4588663824227126 0.3866432653418883
-0.21641149537649085 0.19945094375346173 0.24583211663002658
-0.19941464574250745 0.22266710316171157 0.2210355067368539
-0.03927609876919291 0.2456476596460675 0.3362446392391405
-0.18438896800529392 0.1495194255804222 0.18342597934551463
-0.2189053231413567 0.22414263766447107 0.20964704809627221
-0.19929949762102694 0.19280448318937715 0.18461944332506164
-0.1358942294117469 0.2832938682662416 0.3169015375147808
1.1705331184165004 0.25649553326394425 0.28751021433772905
-0.20317242197944552 0.34388039328629816 0.3007373146320873
-0.2643416991756169 0.3731832571944125 0.3114624765182725
-0.09964936874598607 0.20545513255135006 0.28376491037747087
-0.3218138556422332 0.30693104455295384 0.2215762954119498
-0.18679299615781986 0.20936935871542062 0.23838280603942508
-0.2035386357303537 0.22649240716836516 0.2485394610641265
-0.1520772293744983 0.11165978781413344 0.20878219037660983
-0.1975750891180752 0.21314655746175504 0.245709576802426
-0.13822875620502373 0.1900281162181443 0.16600770512000906
-0.4492328525048208 0.2874341931820794 0.15386447575386342
-0.06741298834164411 0.19365491466905382 0.2821022945893219
1.1897685117580465 0.24973326990425448 0.2827949213368015
-0.34232815340058664 0.36629978046074996 0.28201135369607755
-0.17484997467033736 0.2267487547376561 0.20892249310549005
-0.21785047474307362 0.20782036398161097 0.2581399510428355
-0.19286686932370856 0.20834127498420685 0.21612355683399187
-0.2508171150238354 0.28453105423955094 0.2973009080560871
-0.1868378413851559 0.15625187508038607 0.24997385857750487
-0.16771906562190964 0.14217507642266014 0.21200278333724043
-0.30347754292199625 0.15397426103071155 0.1993874639486677
-0.03901153248557421 0.1957962067252481 0.2910819902299977
-0.19086889660857764 0.22004750426836495 0.249842336345381
-0.21030721663134955 0.3210296630809495 0.20561008910152623
-0.25992514826668867 0.22082456288350727 0.18467082938514068
1.2293877143279701 0.24245814079885974 0.26118768883780774
-0.1986941839153502 0.21840213832655309 0.24524924788701696
1.2740584218023372 0.20973803592727336 0.28101107443930573
-0.13574445139980185 -0.024151249296778587 0.16049319897082626
-0.1710864896760711 0.161874978359549 0.21490506811241517
-0.20030530167072413 0.20039818802649734 0.2476228191730172
-0.14779159673926756 0.19813631489890327 0.21724762769115102
-0.10538387291009599 0.1931166846647443 0.2634698529796822
-0.3018946026043494 0.12349749587333747 0.2300720288072
-0.2638644735077236 0.15938464446622902 0.1972010575244667
-0.1444069886840964 0.22729329313068547 0.23797770366405757
-0.07281060175257892 -0.13211582143927103 0.5071527583302355
-0.20394983934629352 0.23723925877141028 0.25637262701783925
-0.3183298606796541 0.2297885431983957 0.16711970158920053
-0.2379116280025073 0.23846308333611432 0.261161183039917
-0.2266278823359471 0.3247471201926544 0.28973355329553385
-0.20941501723211786 0.2188056016542248 0.2418326640079016
-0.09253578878033863 0.2366472088396847 0.3239035698342292
-0.1884518774931223 0.28394040134567433 0.12905801341116785
1.1836465831653697 0.2308336875432957 0.30423706244772575
-0.08680189868175603 0.23846565638501716 0.1934804470623277
-0.6063344018911891 0.4062236115649256 0.13653940813188115
0.20926137302444658 -0.6322507640849864 0.4881565829230965
-0.1641402946117978 0.22055006316401204 0.27659651863936574
-0.41375646791269105 0.9176544589259663 0.0339473514609665
-0.20696724920325948 0.17224939173496523 0.2664229564627192
-0.48316686545621224 0.35497042473842555 0.18668941313669052
-0.1710696615587466 0.22323803275116916 0.24852118167862614
-0.41488708365366733 0.1696460855215065 -0.6029750809033629
-0.2053617639351586 0.003929340583283647 0.12876770780678726
-0.2548412850645718 0.1617949269204928 0.18006724402445684
-0.19343559448039116 0.21466361769294906 0.2673266318149672
-0.18247296321055728 0.2142516323232826 0.25230630916510677
-0.30746925911287804 0.5665780478668836 0.12637321091072806
-0.11101751207721122 0.3394930293314786 0.3089129488654123
-0.244757852049716 0.3165143547637399 0.2978238775549755
-0.16022196128722044 0.21318521288500847 0.2943456509003113
-0.2448054262923307 0.2185091223097686 0.30295375350127074
-0.19386241395505976 0.19941364612930101 0.25569514620069356
-0.07745979382769974 0.10980478240648495 0.2648059962447462
1.1190993207716815 0.26783054915560456 0.3275344454101514
-0.22166891910887898 0.21491061921071264 0.23037429830013423
-0.45305547094062604 0.3994880412041084 0.32845221692917903
0.04949492416636758 -0.16733723519475063 0.11913906357214898
-0.16970985691625629 0.2129090599972301 0.27375746421472513
-0.3156977202768303 0.3677793755580865 0.264700488250071
1.1280275351497835 0.1881108197575685 0.3825934976408689
-0.21569774009931564 0.2352056940841294 0.23504115649419077
-0.3188865057082637 0.21454548269777263 0.234255023660495
-0.18650909804688354 0.2849851338322935 0.22962836712675028
-0.0020454128101619062 0.28383192078302955 0.36635741387065934
-0.19192907218797473 0.21909626442673868 0.24563208277419335
-0.30480415762446 0.20976370064936134 0.1974230688477121
-0.21468158748646715 0.1949455438355443 0.2639365441113455
1.14232992182761 0.26043324885790753 0.2319528516340199
-0.20312451069655424 0.13339189035457366 0.18916298452688807
1.1418792912188849 0.24169800661472607 0.29311275145440163
0.14424216678591506 -0.14181678459594593 0.197426972343834
-0.22728764866585038 0.16921662385109926 0.23718661389258955
-0.26593069973714023 0.19724737752788712 0.28704573569038416
-0.20935699746689806 0.20769444437897278 0.24909845461550617
1.178500844277309 0.18908842071428467 0.3380591761513472
-0.19602077851664035 0.21699264786680317 0.2577894641497096
-0.1680701511954794 0.2440483072927151 0.21203329011802907
1.2162687069445894 0.24577994597876796 0.28136242985878823
-0.19354117054571418 0.21667729736878982 0.2424317445708084
-0.16654763509893655 0.18906369942337165 0.2064283631720656
-0.16241810446953764 0.2144779342981451 0.24826323054082877
-0.5074878033213679 0.035192712374282564 -0.024561482398581802
-0.16350199609601646 0.09206851397262028 0.19809925739542678
-0.06418493623641552 0.4368321798974364 0.4064019931573881
-0.12493611807069271 0.0753344513513241 0.2497007175352195
-0.25546362574587533 0.21184635142424213 0.21745639765123315
1.1349002993361097 0.23856791322430126 0.2504238934411802
-0.1930246694563209 0.20564913150299446 0.24195269427551125
-0.20243021687029739 0.21632962739272443 0.23413879159511453
-0.14135089232837572 0.2566726289995245 0.29543868552504193
-0.19053937032114732 0.22167649714910453 0.25107846704884196
0.05838476227043543 0.30873544730545177 0.38457170912855076
-0.3058163466035069 0.20543646813879946 0.2169951689912466
-0.1289983032759494 0.20028059984095137 0.2545344757296846
-0.2085745869236746 0.20370081502544224 0.25245557765478566
0.01089314373768957 0.1874906437028585 0.31579371966785175
1.213858993234652 0.28595786426143377 0.16600366257824817
-0.1631254540513254 0.2880997890921435 0.2768134689562487
-0.206476641685839 0.16380385673119235 0.18347633557166887
1.2517071689987773 0.2139006390416398 0.3044592702045321
-0.23843764503598663 0.28959841651899865 0.2969777185889484
-0.1994373540449743 0.2094738337676887 0.24104535154518203
1.2275567010378836 0.23992018539668436 0.22457596192329277
1.2066316069205243 0.2667300382066742 0.189152113496732
-0.1725409259738626 0.1986793945633707 0.3126296422512951
-0.20702260774061187 0.20574874816583133 0.2214751772868624
1.191652716854918 0.23412297674229876 0.275212745995006
-0.176101676258142 0.2248803818593217 0.25750873449050005
-0.25792748544796495 0.24693524244116816 0.23475089003238736
1.2135077870622837 0.24800323831419746 0.2571895573206575
-0.368933246348206 0.04764424790971589 0.23474732867271086
-0.18525298069347684 0.1789100574115281 0.2311726446191784
-0.13207795109445897 0.3086727993160423 0.16347680868368286
1.1095247219710132 0.478711968654693 0.09254682800417413
-0.3410632801191582 0.36575198359525984 0.26339142161153006
-0.23937616531257788 0.18618354590924469 0.20288610060410406
1.1903495021502124 0.24587887196548763 0.2554680420080331
-0.180580582417889 0.2735796148888028 0.23134942061699348
-0.20540866144428094 0.22045450476097983 0.24717068202087944
-0.20719076931854374 0.21986959885663282 0.23777805165150312
-0.20443745581955852 0.15375368700807712 0.2257525636105271
-0.0901454974004281 0.28683657887675906 0.18482935360593444
0.014273332033411634 0.3877188029609613 0.41498793693568814
-0.22478645196551383 0.2570391285998994 0.24209025964444209
-0.28921429620433514 0.3444289177339641 0.2338407619266718
-0.2369008986251515 0.1745348256600181 0.2041255981244774
-0.1105584849003094 0.4015989520996044 0.3834985533164854
-0.44892033245130847 0.2392843295532714 0.1565546425407831
-0.15981660923850427 0.20059562124455965 0.25900087064869126
0.2992093779291878 0.02943894006122605 0.35691222316641813
-0.2513948558662946 0.6665606366215968 0.46764291625990495
-0.20950354945041738 0.19445400887074982 0.24280746994919866
-0.15012842735521303 0.2667648199583539 1.2922724933687277
-0.3222407536590026 0.2408827076202158 0.26084511585223424
-0.22407864093887042 0.208077724753565 0.2820056600870089
1.157145466230304 0.25673910962623836 0.2659126482815424
-0.40485988499354164 0.28773270353786984 0.36332040059468795
-0.3551886016113883 0.1754388354916614 0.18119268043062675
-0.23158353490525485 0.23010159425263055 0.16968025156795363
-0.21347767142358975 0.21511815734763218 0.27079979935331266
1.2777033898917551 0.3397806273504216 0.271543500090047
-0.20949884168516064 0.19257376211908195 0.2715533754575574
-0.2143381404556095 0.2304072227443612 0.24902681805782834
-0.21219702118168016 0.20527860938965148 0.24012015934413
-0.19709456164366657 0.18812870310856056 0.21403135903162251
0.22180254700998603 0.218203198657676 0.44497622552059113
-0.22198525544648362 0.20063029005842736 0.21216074218222047
1.18090043699587 0.23978987935797136 0.2799656985753245
-0.15194160131582635 0.19642246502885996 0.2611981365924123
-0.1345766746177901 0.2507323157204837 0.2760863269628544
-0.16787069603600457 0.1495475820081964 0.22167778153983875
-0.15778660916680565 0.19671710447174462 0.2596922549811751
-0.20611003741420575 0.2609465862230138 0.23150320757434883
0.13728270944281462 -0.055694107282675986 0.25035041596220253
-0.18674477794382938 0.12803173918442212 0.2637788832687704
-0.30425794633327996 0.26020955463538087 0.24368449410593485
-0.06206788143103381 0.20005501868647002 0.2987188120447968
-0.27562058693747815 0.21771643753292835 0.22123744960886427
0.1184724226778826 0.3672890103898965 0.5340358853357543
-0.4157331840733747 0.3411449310252834 0.23155089421554464
-0.14633240428543104 0.18992577537733268 0.2255601139639225
-0.16543968639416562 0.09026391440133352 0.11117528131086374
-0.1552177997145776 0.24129697921256366 0.23132778462070291
-0.006550607661580443 0.10596113763374149 0.6019408445947931
-0.45887080325172747 0.9309221779712118 0.05407241595736423
-0.19467174638791107 0.22330870526010926 0.24477745839479326
-0.19228379757694825 0.21477984811994588 0.2196125992185074
-0.039465763344708193 -0.15326614857018228 0.0782557488174973
-0.43339752396263975 0.6497006045604365 0.3509140076801458
-0.3606651377949106 -0.1159782120208348 -0.049127412177242036
-0.18625152971904413 0.22784037247815547 0.18294894360721514
1.7209734047531384 0.2596499841565958 0.20362532725516758
-0.19455318172910552 0.2788768202832159 0.25019239682671923
1.095215300085897 0.3100609519910904 0.3604701379582309
0.21605342122610693 -0.2317857360260689 0.4832204610544011
-0.2008943613588201 0.2331888861930338 0.21116598409820142
-0.21249497545278473 -0.001856103972585288 0.1239093984161741
1.1504840544561148 0.2630694628669801 0.28265766161840133
-0.22242658613910748 0.22036219963658255 0.2744216236278163
-0.19483170729205312 0.22184644960267974 0.2432019683313058
0.10786229790704738 0.21643651976299338 0.35431620070254155
-0.7995836917621375 -0.31102186175796476 -0.1877822750133049
-0.1755187229129831 -0.07769172215327558 0.48779964564809575
-0.19022289598373732 0.21915579410782016 0.25847102423337276
-0.06724582469809093 0.27557312624433905 0.18960942747904141
-0.23485749680045842 0.3066408677466228 0.2988384651112881
-0.07279805938902939 0.23877206893769198 0.23334822204186878
-0.1843099713499896 0.2200286153603912 0.23876985259192907
1.1583735341978496 0.21401695109037178 0.2934991905357833
0.03765779175095929 0.337250745879345 0.05750755381268391
-0.18898509069953207 0.22561469669568623 0.2576365578258333
1.1939532443692968 0.1964550083789618 0.3382502645802674
-0.19512776459504266 0.2128572845993375 0.24813657279177903
-0.21956639052478977 0.2282409387478168 0.2668916879786707
-0.22588502189690018 0.1578550708277504 0.2536240830283134
-0.15775582579104253 0.3628745479710034 0.39291304560561
-0.204348732610228 0.18950923218983462 0.31046596881149924
-0.2461381138138563 0.24297726874635828 0.22904082908726764
-0.1959959149852466 0.2177523546775717 0.2488947012520839
-0.17867498916081104 0.23123791006790384 0.26780023688667143
0.29685111017977306 -0.044713767220486034 0.3340205650204098
-0.4542605057328899 0.9817481841394624 0.037523129823824775
-0.20721527012460683 0.21800554998623056 0.25301514608199227
-0.2653091313243152 0.20592700240879935 0.21018135483328138
1.1715068662014119 0.22123445344573156 0.2888323159857862
-0.1892197319983353 0.2093637734801348 0.2442590597192691
-0.16576866709274896 0.21415180699870007 0.19419476942621827
-0.20568378966530076 0.2057962208650963 0.2315454269873385
0.1671935623564309 -0.05624378352426618 0.24550849502179517
-0.1654665307395078 0.26037086312737756 0.2913732491737022
1.21027193597385 0.1951865948200009 0.3177660624631642
-0.19510298416892624 0.23188932704928789 0.23789542819486087
-0.13945183496338132 0.2023476466439149 0.2682192103978025
-0.06666923292718252 0.23846240306160382 0.2772096476643071
-0.17353617156931023 0.01707623822690607 0.16593551274831952
-0.19578049612249515 0.22998264696897763 0.2198729968580153
-0.27657601535642584 0.26316484945391494 0.20826965643357198
0.2229212648118164 -0.0052277473621273884 0.31173616630698575
-0.1979568356361483 0.2514828323984091 0.277978061634542
-0.1936954329534899 0.17871767363459412 0.21299973466437905
0.3664321764219096 -0.1849291655013161 0.3276206206873553
-0.15341967905305864 0.18260993835473016 0.27253399394419375
-0.1801134792047776 0.22545440424713092 0.28212165598077377
-0.1991798139065395 0.21407290431838533 0.2577577206688204
-0.1643250711619828 0.13379208017742883 0.22977759960366484
-0.17049264405710574 0.37371910566648125 0.33430601228576506
-0.6491601852906541 0.03717320805364466 0.5003577910419779
-0.3787767162182547 0.20953694633811892 0.5860485394220376
-0.1284490950820043 0.07296099429214564 0.1733660933808494
-0.1875838824961562 0.23613254911077775 0.13252362208240243
-0.48139102643750675 0.1983490665722769 -0.04921997134084677
-0.18719428391719362 0.19376803438581192 0.28150362059221834
-0.4730367557472306 0.9261540234793699 0.06905143072391695
-0.19093028576288873 0.11355738251720027 0.21367448621197127
-0.16425510023921674 0.16610610552044136 0.1769487768967224
-0.03550474256896052 -0.03755143090731394 0.14657574727172573
-0.08841508098700501 0.12052867662740141 0.19688565549213877
-0.20568271039222452 0.23322286484059873 0.24853733975291448
-0.16093418501034762 0.24097267126850852 0.2458651593571517
0.05544438773199545 0.18077229026431496 0.33164068710044603
-0.14050316779150762 0.12346030494339288 0.20432926745901625
1.1604336758959732 0.247344273186755 0.2741976069494285
0.057247369206663734 0.0827383140670861 0.2787528895936475
-0.20028251243164163 0.20737290827470645 0.23117038042323657
0.0954867298106592 0.12474637540216804 0.31165431691459844
-0.21960311674617117 0.20262836635004078 0.26665443648896314
-0.11903021683630755 0.023083819784204707 0.15563433052054165
-0.18310406830356385 0.2282169431458385 0.23342384864217536
-0.33742498328095394 0.2633082408219991 0.18331415444363586
-0.3403354965253129 0.2325127727552001 0.1866002548824497
-0.19265318563120104 0.22327917068386682 0.2534887682322733
0.9450433547137038 0.21607289001511276 0.3533417706604496
1.0238852809896883 0.26836352463433855 0.310587874572235
-0.12514606670788453 0.17168828988390317 0.25229355217093996
-0.2798978816337865 0.6256273041806253 0.43522007614492964
-0.3487397481204937 0.9358788066824815 0.08366243269315987
-0.1484597173963067 0.3397190106819039 0.3848240464331525
-0.08917593652989808 -0.004056536904414543 -0.06156933079762439
0.6631660546355818 0.32381386460667727 0.3569879137451153
-0.298890763262861 0.12598264663239434 0.1760944608053734
-0.23460093001375526 0.23155288635447846 0.2701193074708499
-0.4610712724226005 0.9824427144200456 0.04326227490273027
1.049212990860923 0.30068473213719926 0.5153853333503946
1.3358605427565635 -0.004793667365362353 0.6314052456592236
-0.08164685152857487 0.41404348132131474 0.374883528029585
-0.2097448782992899 0.19848877260912445 0.31375551511636957
-0.1784125248651378 0.19391538120052587 0.2652524760042496
-0.20993874532129553 0.30605802439234253 0.2168984785142527
1.1732110971174876 0.22911618002933665 0.2642087904855259
-0.21845873942123717 0.2062071196112072 0.24249570135437182
-0.21173839242993608 0.22705639679615786 0.23358555357640398
-0.3156244363237164 0.17916143164518417 0.3377158323090441
-0.1668547727006171 0.2974034390436202 0.28362102123776367
-0.2593088205025822 0.24915621804606758 0.17713835976516634
-0.2306573871828732 0.2543182797768395 0.2680778241584676
-0.19768491637523766 0.2197662477376383 0.24738007264463135
-0.21784433015187687 0.21188508571000852 0.19338439331070845
-0.346551834520227 -0.5092601357244178 -0.18258265541959418
-0.18385311316889386 0.08048432814192097 0.20510498772998176
-0.3150458633064659 0.34602452246029713 0.27628280138867467
1.31226718396249 0.15177268297762225 0.2230181774505695
-0.17215061890760808 0.5960154201240897 0.4561009662039339
-0.10259522924724251 0.08745219909052082 0.319870493925805
-0.21589339047406497 0.2226790652953241 0.2973276095241175
-0.22159798645898832 0.21514587918636607 0.2072439658182077
-0.22055415806084966 0.2581045025856099 0.17339522385603345
-0.3256187034029665 0.251633054807229 0.20641627849894917
0.19436185740713086 0.08119543678648711 0.3940982697648394
-0.2889332004457401 0.23233028596112604 0.3287332447627307
-0.2014500477072545 0.220392902151886 0.252252981682048
-0.18312276365192304 0.1792856496179951 0.21767218854380133
1.1947912921454815 0.1375282568380527 0.39643231714327953
-0.3001834985440155 0.26561455179975724 0.2514316516799511
1.188692079989977 0.2830785192098517 0.27730115405651645
-0.2157757437924488 0.20970072402091944 0.2760154447252603
-0.3715173921872861 0.21096132896764175 0.17152857593271165
-0.3034233734777274 0.18002174786198566 0.1517129413003886
-0.1740364132829768 0.21106902684886109 0.2403720221291934
-0.1866207488488243 0.21873441417132256 0.2265042411316358
-0.17207999503716565 0.20105856593633575 0.24435231697700033
-0.04070837254553794 0.03132326269101782 0.25618466676650087
-0.10641364227994643 0.11411598977340986 0.23960065950771536
1.1586170340324315 0.22070978519428763 0.3720931659453868
1.1559180042747244 0.2796887240015735 0.233430701620847
-0.1682686812682732 0.17413461687939957 0.3161592688173158
-0.14934090328591765 0.21560230439710892 0.22260205805088162
-0.16674377465946577 0.22935476567482738 0.24195604747359312
-0.22937471479654903 0.3063609512012704 0.29476886128907154
-0.18986155562464546 0.20049393202461374 0.22542257411100763
-0.1001121872397448 0.1099108260916637 0.2247452120367086
-0.5232745536351615 0.8070274587188067 0.12782325707439668
-0.2328901899354321 0.27782942886534556 0.09057598200257644
1.1826937653489438 0.2405064169908968 0.29608204901444424
-0.13830427262547573 0.2176262873781809 0.23934180240374303
0.055462432526724115 0.1301263716486858 0.31302091395257037
-0.18258582073042362 0.2084519122241062 0.25758701643245274
-0.1433249378818715 0.2015985598044665 0.23386516990302653
-0.20200975680718614 0.23465463313139878 0.22706565962897685
1.1842886778187989 0.23522417300955567 0.2696464285273521
-0.34652690473077996 0.09111673443490531 -0.044021534634197224
-0.5305802365786292 0.2516913958048974 0.12972003068790627
-0.023433745996129574 0.15129886832261263 0.2965512834029198
1.1180792599640057 0.24736809095321632 0.22491186609343572
-0.20529309627752923 0.2085444429758354 0.2671321391352137
-0.20444122871398918 0.23019423110471848 0.3056841452430774
-0.23290151191096697 0.4629227482057985 0.32357885043030876
-0.23424771852640447 0.17437301955173723 0.23615687212621594
-0.32573742546824747 0.4254413740295462 0.3333348316909195
1.1804896589123928 0.23981736135218057 0.28584240331922217
-0.19644938727699923 0.2138034704202596 0.24465480052118949
-0.4663324281212624 0.9110676501684623 0.04302287337949906
-0.370723066729056 0.30144856128723063 0.13377732614071647
-0.1792563394168667 0.2257766551920497 0.24014688840517806
-0.2553282648320305 0.16747254062835282 0.2502585516451177
-0.19841912976102094 0.2277206800813758 0.24265029832663743
-0.19488222232521935 0.19117411620415226 0.27021891837890166
-0.18299783987677642 0.23005073071034587 0.24524009272201397
-0.2180865997864032 0.2335850517284257 0.23537957644177254
-0.2209428253309369 0.051092079493685105 0.14515071274951197
-0.17895408654784717 0.24918453657727468 0.28706633949610705
-0.1644385236998005 0.1883042742761063 0.2520853943941148
-0.13875712881385027 0.19623312357927603 0.29885193950610756
-0.2464235859709163 0.1582234456455467 0.1934482092455312
-0.25912978776869977 0.16418453396558164 0.23398656729668232
1.181395024872785 0.24137948458627534 0.27493810653960793
-0.3406871316057902 0.2366773692844788 0.22975519081349205
-0.48198722514894143 0.12046257204093536 -0.0649737113616311
-0.10461959350845973 0.30232884260344406 0.3290079635385439
-0.3250470239124752 0.2720911374150461 0.20454726345315066
-0.12750899097420643 0.18115842453075004 0.2731038574757605
-0.32300578815723213 0.1329123878539491 -0.023889602880558414
-0.39266736323136797 0.17801807900559652 0.16360006271904126
-0.3612252309876851 0.35637221508311256 0.285842291969459
-0.23125672435153888 0.26419769543079497 0.24201423284301882
-0.1870915572323213 0.16132698542551793 0.2256212445113448
-0.5263390928025728 0.6486147916714629 0.3127670773064608
-0.18564834180021705 0.12869428041500441 0.2063447344494449
1.2550714958818503 0.3058792684749676 0.23238855939408154
-0.20371701263347575 0.2356187756593897 0.2480583302321122
-0.18022135726482702 0.14307004914226695 0.2315580317274737
-0.2939604684293613 0.3240675401939228 0.27580507459076387
-0.15101995239777466 0.2884184285606466 0.2845624152676862
-0.47975987516430507 0.4795084767714286 0.2743980095745826
0.9717242055402551 0.416697397581828 0.08030487244761275
-0.2054057442958026 0.08208820809588246 0.399101549503456
1.0696776162762092 0.1811928901953479 0.3840409512338283
-0.28065923249315006 0.5073974579622131 0.36582534801286215
-0.1460282475440522 0.2141762018305826 0.20607736731153636
-0.28569639329930396 0.24773040223131204 0.27485143029326764
-0.13021711556906723 0.22908121041299978 0.28174360576275603
0.08469740460935782 0.21214347403875422 0.382734016491014
0.03587574510460456 0.11461037580930622 0.44516399706334653
0.5211548399571768 0.09966292984924507 0.4740594494070933
-0.24877895962930552 0.25771648008444004 0.2338917751915517
-0.18653720344369162 0.2116379960660879 0.28753418763768934
-0.30382814011915116 -0.0040492340927897885 0.10060746816446908
-0.09122282796815284 0.40395860036227305 0.2041534858494174
0.08346333661370409 -0.13958335710501046 0.15382922617121153
-0.24498775631028025 0.4166603156466806 0.358114264948199
-0.1459996168401858 0.2394579365369509 0.2802336855530996
-0.4680952820353781 0.9447113903673738 0.07301174055501747
1.221752060401485 0.2538949294997508 0.23133457074240482
-0.29148205432619534 0.26912861336383287 0.23796562746122163
-0.21342041788562938 0.3532765161882594 0.3161902060668069
-0.18074446323370807 0.24019449907314083 0.22373296171335255
1.0215243903894162 0.2577358712132565 0.3715926532946696
-0.20462726168744894 0.2194693560594203 0.2563244873944228
-0.2040692230879131 0.22227107647900368 0.24990162541001837
-0.21111953513496928 0.21542495563734576 0.26193274996850846
1.2252514605925882 0.18697416341382223 0.36335106289611474
-0.15722632597133668 0.23802484238103716 0.3195887148470433
-0.3030529665509505 0.43169159417443836 0.3125071488176445
-0.20610690456410907 0.20112490949023254 0.22689071063584265
-0.19500656224646207 0.19821748111232296 0.2468211432898073
-0.21112881187025323 0.19600458834321444 0.21795375551619145
0.002461571396167983 0.22271685826947873 0.04839678860103902
-0.0556914841172329 0.16181892687612276 0.27521100081915506
-0.27553463820780166 0.17120103584892377 0.18806269710674428
1.2663868826790718 0.2578178384800367 0.3012309788366565
-0.22757273673983036 0.16304267696165198 0.21157708609428028
-0.13426856967862477 0.08826419992560375 -0.10467342887591258
-0.2118025029161572 0.4007824061542635 0.3347052868649598
-0.1091998808211514 0.3189094131143406 0.2627439311437172
-0.24840309563492724 0.16808034796611082 0.3325520734701115
0.20581599618452628 0.2550813322212946 0.43287570009073306
-0.18774336793177326 0.11832126127441711 0.3115122011370488
-0.16660149369616306 0.19475091355289464 0.27885654458705744
-0.593529620071962 0.32447840979482123 0.12204861925320643
-0.17025730825277208 0.20283793788308913 0.2536958786229775
-0.17950671600382861 0.22499034696377862 0.2613699705413808
-0.21438917539191493 0.22714513282764415 0.24553105090799932
-0.24529561419396373 0.28900343933854344 0.22022310024533454
-0.3043212053715365 0.12715229615700707 0.13128694712310107
1.1220032149287533 0.23963023849519516 0.32052475406871395
1.1329212823239914 0.23997940487407732 0.3312718810654047
1.0995411942278253 0.08873489382875732 0.036419550645277354
-0.1965719990911481 0.22189021321850078 0.2516585946932679
-0.36709459619416407 0.27601673837240526 0.3122163516741665
-0.19690199462456803 0.2121900268252972 0.24300301152426584
-0.02056824885204378 0.2198507364360296 0.3087357226803533
-0.11340773714597674 0.2376288562275306 0.28475283384165095
1.1567975112109252 0.34150471922293946 0.2204265380344168
-0.1889273181038078 0.21382324962362986 0.2921768582568518
-0.19909107382409275 0.24418890849266006 0.2870784072149206
-0.19402432829173222 0.22693657517088184 0.20821527274554796
-0.22573631133599292 0.14533454188037354 0.20573516402589576
-0.20719309916017892 0.3655680855973884 0.3338162677967773
-0.1751748191686886 0.18656330049390135 0.24443226590031486
-0.20253592240212015 0.26230288260470047 0.25970762936134406
-0.17163958822381176 0.2291757795958631 0.24274543591917563
0.9561475146144005 0.10661125528859827 0.21716927327881308
-0.2086663304488212 0.23962490993358188 0.2427807544128484
-0.35647965660562875 -0.11760836305393241 0.03141556904694198
-0.19428299092558632 0.19525180458401792 0.2364932159526063
1.2913196853073003 0.201089972246848 0.17190979162836584
-0.13863301825224994 0.25872847141685895 0.188322826572076
-0.16130698351693695 0.23944197937089484 0.252773880459344
-0.1973330407124365 0.2250838407502158 0.2172057106959926
1.1808664486896703 0.3131895225051835 0.22711228263980843
-0.18532322520280786 0.20026700095934302 0.24377734760645353
-0.24597166368903345 0.1664630557727378 0.24733645101116508
-0.3140358681599338 0.11840576975302497 0.17455194118210215
-0.17117833231026225 0.1290441428929796 0.0641028669386543
-0.3500889236378839 0.3114636318653652 0.10093586762661744
-0.21960826864143712 0.20723689179072835 0.2195053639252933
-0.3480595067669583 0.48181177052740054 0.46680271214233926
-0.09735679789208973 0.5138662899594522 0.45803319922396213
-0.2561817005538103 0.15093854257571593 0.17555990975955638
-0.191006991714616 0.16187714292306055 0.23120746468978837
-0.34539351936484763 0.07471956918435296 0.1310161397673113
-0.17486388199674252 0.2103233721736899 0.24212470570000733
-0.21950943073588292 0.2280992195571514 0.290887566668232
-0.09543285992620554 0.18077506795690113 0.2551990814188514
-0.02280701611360314 0.25534917706856675 0.3412033709920763
0.07969941591545648 0.019831508292753597 0.22539654170685708
-0.20609527551101792 0.19806086194518002 0.22225265330300203
-0.28811543922117266 0.34468753472332025 0.23927299430044968
-0.2245138380697398 0.20594467938468597 0.18625536470338488
-0.1149981098008368 0.15265114317323025 0.1618797280192723
-0.10100864383564101 0.2440491773054987 0.2671786766752149
-0.11164323097963802 0.23703546996620162 0.26067636861969845
-0.23256910562443522 0.20729687917012996 0.31547786957145263
1.2602514603819657 0.16570137186903366 0.2839375992477642
0.21742666435875435 0.4165059804177389 0.5022214800229818
-0.2728490889790578 -0.038871193565654494 0.12507647613577433
-0.29776745768243984 0.26406177336247083 0.22480274877986517
-0.09225914119953416 -0.09754443614922081 0.13258793466152952
-0.2718844539945309 0.23622383102723177 0.25330898961811954
-0.10131239837113526 0.06137677517565976 0.2135549703076549
-0.46562304446425173 0.9363340752249627 0.07204853833886204
-0.6297213801001362 0.31735231667067865 0.11560592685205506
-0.18824231800903135 0.21597694022489122 0.24528173892521465
0.07970245771785756 0.1850873272082083 0.298318207594491
-0.3009800972405543 0.25825562874803154 0.18890213371250297
-0.11314479312697756 0.28541385243721606 0.2755354832947319
-0.2894660489070304 0.19455873589555495 0.16517577119088855
-0.19320785233603033 0.22387172842660163 0.2349500750752611
-0.21279419741628658 0.2453238920309957 0.25426198740214545
-0.1951191779873227 0.2502686388216091 0.33984917640748336
1.2201618225139441 0.21991647343031673 0.32108379214182037
-0.24936972533441804 0.34469583230284684 0.26630159848591006
-0.12138940668778275 0.1917971076468632 0.29135764214623805
-0.2388228097930778 0.20967529351167968 0.23797312743900534
-0.15904073737773672 0.20773088801824713 0.2466192984156521
-0.008810868209238265 0.13067981388309136 0.29453034604387085
-0.2432782141061125 0.24063868166442148 0.2907224888154474
1.1659464946760636 0.29497688589063387 0.18069371523409927
-0.1821633328345058 0.1457472263729187 0.25091006024112517
1.1579724818340082 0.25228903557072613 0.35623779320802385
-0.3183495038025086 0.118152336191784 0.449877535709561
-0.15783296746148778 0.23453727965906523 0.2693828723828773
-0.1603129726711927 0.22547907158974567 0.25566644612442246
-0.32033683444822714 0.29943219244862007 0.2630699920089512
-0.0061749454999073805 -0.18711786816525944 0.13168051847802076
-0.10513025121068154 0.2409560427175279 0.3202351594761126
-0.045450111997610065 0.11591980888547937 0.2649563860394011
1.2407026220682837 0.22338656496916087 0.30125352745545797
-0.28115512111654084 0.2754032876492829 0.2659142279900948
-0.19561855299747322 0.1777861159001759 0.23074755066190278
0.2951835198589805 0.008035820818264483 0.32871264892739305
1.2244831002093832 0.24773712144494198 0.3117940354263169
-0.0112844810670083 0.033238390382578586 0.4293737826057509
1.1842227484356158 0.23558545885985893 0.2820748137295368
-0.32386529659429186 0.3198232013224924 0.04247613163984454
-0.16206744732667744 0.5233412940532105 0.46817348312252705
1.2022782166969392 0.23366694925196896 0.25978025859670595
1.1811155155417907 0.26719110443899297 0.23672384485004727
-0.13956246155457563 0.21414583157050515 0.5487448150738317
-0.18335069275261162 0.254485836130101 0.3452962821113914
-0.1715699413241225 0.2094940832728156 0.2321194515010916
1.2041339734674636 0.22616939510803036 0.32896372421461706
-0.2234376835803431 0.24531451093317003 0.3108108894907957
-0.1848797561715969 0.18148928059513025 0.1788186686553246
-0.3004951654240813 0.19082803087802347 0.2540653719473909
-0.18839691839525585 0.19845903726184133 0.2331215328758276
-0.3239296321050631 0.45964737365298447 0.36034381602134147
-0.19750963483375017 0.25866730060037924 0.24595781095817415
-0.26725666331608977 0.2581238362295011 0.2391713978017549
-0.20941510200316316 0.23672034891275473 0.24177829438558263
-0.2581426755349412 0.24304063300115786 0.2570240142216278
-0.23683005680618407 0.2051694020080106 0.21913989786450827
-0.31300836649761266 0.31288644212310146 0.24263226557167172
1.1889408814051876 0.2458930709143914 0.39846032622800465
-0.1288742636157565 0.11928303221910141 0.20970475228747887
-0.06894762104013807 0.2826341175892253 0.20238163307287493
-0.22886090470213105 0.18874954275426603 0.25483431386379607
1.193152607701279 0.2609409086122412 0.27840256749868786
0.2300727460217047 0.13200567120281903 0.3466358850833444
-0.04727047922283134 0.24763172290275293 0.35437138718732797
1.1080242153122697 0.2729200806627148 0.3282426443817883
1.1193145150861596 0.251569078250526 0.2760671590557848
-0.15048621644183413 0.2524530307918411 0.28149028552199695
-0.19301045000173644 0.25557664648718514 0.2303196819044473
-0.2054665429196234 0.2197967974155688 0.2555547885255862
-0.18882491946393998 0.21058349772226848 0.25131901377204713
-0.11285413451801674 0.4174943572789971 0.39196226781845667
0.3338786628365682 0.05452177493856425 0.9946387943129764
1.1970039030752275 0.4065421251872863 0.3521463004466625
1.296042358042314 0.2842276246958022 0.24503807173540793
1.186585349294802 0.2316167540145102 0.2798353481974516
-0.13316415997262254 -0.00318701624945561 0.16347810002039864
-0.21039397140495453 0.20718999917374958 0.2896153329044324
-0.2197846414420752 0.22125089767716588 0.1672114898667587
-0.29134182779139906 0.15234903572100222 0.15164180356987345
-0.19071377444777227 0.2444075131848109 0.2508271751953828
-0.09473702005746532 0.16127006398434673 0.21476618528416225
-0.27631295011686063 0.14395902324453402 0.20992107036465768
-0.4688866624029231 0.91038166080304 0.07298995866410962
-0.18723389776451427 0.22874226241160045 0.23427460440791492
1.1264566643699823 0.2827558644045496 0.22503711012646477
-0.18530972853533 0.049858282996552816 0.15528764359177671
-0.2143515126792579 0.0796007195475994 0.19780827903686315
-0.6438576553145907 0.21221889305189734 0.05455081648369742
-0.20632077460575715 0.194459599713511 0.19867356730594565
-0.15805131986141419 0.47097921258546194 0.3869928357301262
1.1924187556191583 0.22775507510877446 0.26752342748940805
1.2040440573307478 0.2703352108436974 0.29064453011923774
-0.18405909697480638 0.1506848746278564 0.20268137055731472
-0.22926285684073378 0.18376615111310457 0.26600786527586706
1.1828948737823168 0.2232446625370983 0.24600782774734853
-0.17922484213541168 0.1368164668556915 0.18663429222311834
-0.2293360728261291 0.5075760168895727 0.36539345749855556
1.1582510741625498 0.2768100453536846 0.21921925062419234
-0.18267386891392334 0.20765958256799877 0.29940211451202003
-0.1832707166721974 0.20157631393715292 0.23635318569995434
-0.31535703988447494 -0.019591180866058266 0.09152458828738474
-0.27780991725585125 0.4091840140780505 0.21003081179304672
-0.2248492769186612 0.17190488013574168 0.2243097668680889
1.5054467482258076 0.5167268443254045 0.24717175040397876
-0.460214613398918 0.9123335421204359 0.04521708119351331
-0.26031526429162 0.28008702739344926 0.24275541360378838
-0.16986864233092547 0.09690080098017972 0.1869740036291887
-0.002438402656338212 0.2590386268391569 0.2808001765766761
1.0889648531593537 0.28617602861858416 0.22403937313784184
-0.1943286638770303 0.19046013830345032 0.322509156646845
-0.11064415608933587 0.13679179641123085 0.23477811757688016
-0.22881830810882775 0.23097956532321007 0.1891210471561351
-0.2168864997635609 0.0266326789550817 0.0949687415366327
-0.58557830235155 0.49167895313971144 0.1797843654153155
-0.140680435359684 0.029185436523647468 0.21878786264372252
-0.26059999988140703 0.31627502921850237 0.1331091523434793
-0.2067592677623793 0.2670544533722534 0.25886176073927913
-0.13552051259853215 0.10920123507040103 0.23284624780789898
-0.17652041484961956 0.19127409682920415 0.2554485050430202
1.198687466315647 0.24664050566644846 0.28152480063647545
-0.26401187305367557 0.26769154427421427 0.23717182536123005
1.1464230879184072 0.23547999382820706 0.26730852640227454
-0.2703914613490497 0.3875004445541066 0.30253369897340576
-0.37186094626135 0.19879624392675055 0.16467038296077874
-0.2017831028859831 0.25890483294146804 0.2512564217254436
-0.21361508483100522 0.14401649954075424 0.1920278834608382
-0.16994967098877112 0.2293552975286275 0.1858943221179885
-0.060567908484131294 0.32470484410927725 0.012645970895064806
-0.1955585234834274 0.22236101475161263 0.24456338579540216
0.0703860279805184 0.09615180695686831 0.22815162925735422
-0.381842825648846 0.3503654964251268 0.23689169702223012
1.2045705791942822 0.2529466300625529 0.2886358764451984
-0.08031377939434492 0.1782414749396395 0.3423414914877867
-0.1674063756781834 0.21545757610806504 0.2697190182395701
-0.2493614424006978 0.20933362518455567 0.2204981601266951
-0.14861039427144362 0.22724353185078883 0.30630245346009133
-0.13001934227045808 0.3665971614371415 0.25277377540272994
0.9635962239545677 0.3255198999997617 0.33567358300641104
1.2025141652580373 0.2573593432381074 0.23718187499181909
-0.19572497525221877 0.3617162936844238 0.31333162932975256
-0.2810707929715477 0.17504063094487776 0.20267109218615076
-0.09869041576388327 0.22025890313295804 0.17281419696301725
-0.1802542007768011 0.24536647713236448 0.24963282002458698
-0.1785347427723991 0.2531418770256266 0.20121909031057328
-0.5078561047916139 0.3854452809529647 -0.10330697623930973
-0.15081819623803483 0.2051579605607401 0.28043081636691625
-0.2664393650592842 0.3784130384235027 0.2606079630478604
-0.11286287087598623 0.12139271522947581 0.2253896693173374
-0.2491458458789566 0.2635218407847759 0.16737036193924837
-0.8141133613810609 0.3677186604752478 -0.45523919164524784
-0.19613520183779087 0.2461460657500396 0.23777197480939094
-0.17039876757299055 0.21914430806178586 0.27515099054701864
1.1791873303002802 0.2300984555128025 0.3057872459252735
-0.2179121457182447 0.09704785794326654 0.20781777573202476
-0.21207013494432658 0.21954858208621886 0.27910792156376374
0.09807999307778914 -0.15229052556739475 0.2172029536090747
1.2917997314271616 0.16678214406334746 0.370527488595485
-0.19562212997357165 0.24784193212232708 0.2520524787558145
-0.15151660505227937 0.19527845560560309 0.35588802315852774
-0.17099003513121147 0.21666691269760463 0.28134615964538057
-0.30219169163339643 0.1996830611863203 0.30102789636677585
-0.17969274622805642 0.23119977283988646 0.2961434224073969
-0.19457749447536798 0.22713158614642737 0.2512353020992606
-0.4988306465763088 0.01917319720845967 -0.06262637137173499
-0.2733591099033674 0.48902111937275095 0.4004983184849209
-0.4540025712181688 0.9168474194204208 0.04555766577274767
1.16451777199444 0.2175021608690315 0.26502486675714465
-0.21931993109963344 0.23571233783849266 0.24257693435953342
1.1795674146154198 0.25009507190017644 0.2573910908611765
-0.19967757451053103 0.22907468851946078 0.25516134092933385
-0.2579957384418492 0.23124706803406525 0.26140711090550894
-0.1837362679144121 0.16559599047960205 0.19850575191992448
-0.20519821736630206 0.18005220678026035 0.20121212560623292
-0.14303945539433016 0.22573129149020588 0.2485765869429457
