# .PCD v0.7 - Point Cloud Data file format
VERSION .7
FIELDS x y z
SIZE 4 4 4 
TYPE F F F 
COUNT 1 1 1 
WIDTH 808
HEIGHT 1 
VIEWPOINT 0 0 0 1 0 0 0 
POINTS 808
DATA ascii 
0.41702849862598157 0.4166851893664614 0.07502258373467896
0.3080566899111261 0.21812229688168827 0.011925049877120841
0.34964825589817394 0.2029990491886906 0.028098341068925947
0.3209352431906325 0.2619985714953543 0.20397608468380213
0.40232967547990484 0.28811523711050313 0.14796541885166903
0.22581483361847177 0.2569143952147499 0.1389154779436126
0.32138560464562715 0.28266815206410456 0.11865470505472331
0.42827580964373624 0.22500276079586 -0.01098452845876352
0.46639387417425837 0.1301643607627625 -0.10712322623234627
0.38036486652185886 0.20109254639351093 0.0868220858700397
0.22292705530793455 0.13900734121202163 -0.09297057019198007
0.3704735182486729 0.22849241528875552 0.09799406434416369
0.4285403080692163 0.19822789097682403 -0.02238955320241587
0.32280443338677856 0.19720989495775143 0.07128844014857805
0.3687003526350878 0.22850774643535487 0.049310983906181605
0.3444304203893296 0.25416656903675516 0.12174606956298817
0.14163970475752308 0.18911535079992348 -0.06458534885406664
0.2989845907410995 0.32481696422429707 0.28707052099736075
0.3062242173432992 0.21928264687821297 0.10003849385336139
0.1906917991019128 0.23010221479609072 0.07629370045438577
0.3296222536933868 0.23605456956750004 0.06755563801516473
0.34539503391465587 0.2529492816376546 0.14405044361356545
0.36016746777082176 0.19249565941177593 0.07441290987873117
0.273445984090813 0.2176006254552476 0.10211177023067819
0.34014242400280637 0.229929370537036 0.10040252304975184
0.16007481342086294 0.38091393133741747 0.36210242822915006
0.34468432272284133 0.20965821314317168 0.07450215671345006
0.3282129978424848 0.2232366548391269 0.0694905864914972
0.362541244582701 0.17493980366636208 0.025799460280410358
0.34619072449393684 0.21650459622807716 0.1079902606413441
0.49506138538822597 0.2738933493544664 0.1616988024946977
0.32211482049345364 0.21078661347772254 0.13147456604302477
0.3084999951617817 0.2344280311235991 0.16197743774574747
0.30959053963314886 0.18423701344860888 0.09867632079109967
0.37901157660428453 0.23711714023826858 0.1877613554932367
0.13002223774097388 0.5867985242775831 0.06317162731780002
0.29439696679376937 0.2013516919281244 0.057004553487786325
0.3589196046561085 0.22316809464604148 0.09457681636845905
0.3479534979962864 0.21863240419719432 0.09416650233086443
0.3293150060590051 0.24563609038197853 0.17842195246856818
0.36080069974107687 0.21798393368467828 0.10819882555607307
0.41690166026216957 0.15237300342214155 0.04167950891044825
0.2209677657359066 0.8325388590098726 -0.37490412059952405
0.275674740300218 0.30875199145006604 0.2140542538758723
0.41249070358733775 0.14635653985254748 0.059360507345303404
0.269663128570528 0.20562651142149946 0.1697173073459055
0.2705646193606128 0.24836695831609745 0.06036986346228446
0.33237589420718905 0.22123150973007455 0.08206403472800616
0.34210412876126384 0.19236776715464998 0.01703058870899099
0.29090899649679614 0.2078231594932447 0.16535428977087463
0.3515497735364619 0.17409913238527963 -0.014436308768353001
0.3139387309411177 0.15868670277427555 0.053445912049355115
0.38425766243864246 0.15663317695140222 -0.0358231467381529
0.2245994680749135 0.18580341718838156 0.06867970319821382
0.3138570200302411 0.2508951861296964 0.11928863335576523
0.6655510042772619 0.1433678509762899 -0.35035111541907327
0.34347531642029594 0.22343294181233375 0.09809791523841227
0.3266739843122366 0.21782412224865766 0.09437349154305252
0.40187616754349165 0.23421673941837184 0.10625697666630174
0.33986068537660685 0.2879388998531738 0.20407571133057445
0.3733026954403158 0.2579141574687185 0.21246274434034262
0.416446714934807 0.280631663662291 0.14826710400549814
0.3414544852448387 0.21934323764945418 0.1177621601636929
0.39269039174217824 0.30466266706419276 0.2525690119456101
0.2114518387556643 0.2646798505370356 0.1577583321862619
0.28927101651574105 0.1971398075436923 -0.010876088769492753
0.32858980409750416 0.20564164186815503 0.05636855453764156
0.30220296888452935 0.253889389562147 0.17360697327930552
0.32891771965816474 0.19917102180230017 0.07837790013488188
0.47765101341502714 0.2568896450080018 0.13490083801931974
0.3016971017910919 0.23286255903175856 0.09939611903324419
0.5136701824152681 -0.04136957779562067 -0.27126370489855844
0.361004187597743 0.21482961131798106 0.0692794347949075
0.3487925784329775 0.23693030255560643 0.07925846743107456
0.3424265533304407 0.22461751658181583 0.10187913020982364
0.3550796332528279 0.20065909512203461 0.0707169176945115
0.39493373436080503 0.3461796139094844 0.26089547143868685
0.38494505794906786 0.24795434689576723 0.12672693178348027
0.3616439998070007 0.17967588605193896 0.13516769437808307
0.3406362269130341 0.2415129351795713 0.10717251148352602
0.3371100473051172 0.23204916397094166 0.06371184136085617
0.3481389165513207 0.2394604053736913 0.07358898545641068
0.21378095126536323 0.17922965670459234 0.04965136972018058
0.33264136781764364 0.21888565700204765 0.10949960393196534
0.34598048789412417 0.25148058057590106 0.1251681505109019
0.32874060861563237 0.19129601675652452 0.011100851787048782
0.3332052476166467 0.19049695873295036 0.032889270412994165
0.3303143813397753 0.21724358925227705 0.16929976638442668
0.3644636055586261 0.22488607272916283 0.1142182786604451
0.5232695064443647 0.2107247632209237 -0.11978210864923255
0.3562441710163853 0.23038223446511097 0.19137402466218134
0.37118360938022477 0.21706394899482007 0.11913974059537225
0.31412785393739284 0.2461090952739653 0.18731276043719447
0.3349326430282531 0.22610446342744694 0.10800555965434455
0.32583766280485804 0.1992101876860346 0.08617874943413995
0.34816593933010154 0.26031062654587345 0.133644011046826
0.4404370300833875 0.3446093814294926 0.29705324419710166
0.33718144073209544 0.1377508426258771 0.18760489376380463
0.3274484261252155 0.23398906951015874 -0.1525010147994692
-0.16318357109486215 0.6094919894317741 0.19678128903282754
0.29871384204972173 0.22530612974350106 0.024799433489476996
0.35865425300252696 0.25247549927161117 0.0735760825149896
0.26134275536227847 0.2870118349372319 0.022912774718008677
0.5039554784825384 0.22952562082724626 0.012712948976542293
0.4501085680095116 0.28869938623850544 0.18186461203637805
0.3054030865842208 0.17377546722489967 0.0684995265177264
0.3198079582628566 0.23605032469731668 0.08751372237776422
0.4670626111936542 0.1585790950186663 0.14185082904572255
0.33129799757850265 0.22520722640047097 0.1341227074944129
0.3278941049213131 0.3195786561897478 0.19705581194577348
0.2881279023261527 0.18582931404951353 0.09479930571828277
0.3263690549366771 0.21557983639493727 0.14018401030894267
0.3050423617873008 0.2067525934324408 0.04776532622582863
0.4073638474187078 0.3105360265906256 0.1509631367487856
0.3139176020117844 0.20983967529893732 0.0653807891448821
0.3430959647510292 0.22963366075228464 0.2116069370267155
0.2614346427904053 0.1457884498110502 0.014177678107358815
0.32389148057094985 0.25935074654307755 0.029141537752977342
0.35615250576489643 0.23309650293114714 0.09013978922158117
0.3194623033910915 0.2260794856930204 -0.020027809445466005
0.33549642778847044 0.3010249248470416 -0.04832884748060451
0.38001638514346325 0.2150889881856699 0.11503378614648341
0.3442480649523958 0.22053111445414686 0.07835501768008157
0.4123633713244885 0.2550785441952712 0.14536418194828116
0.3489692883993172 0.210828335759345 0.11564446284410224
0.4286503020545922 0.32773581589930245 -0.01957053062290015
0.2846705874416955 0.21704978224309457 0.10581791813012842
0.3776388824761199 0.20764543515491596 0.08401086822051695
0.40595070897529695 0.293658274355181 0.23512866971245217
0.32361755619673716 0.26848169869089133 0.2472607224251533
0.3831621174244617 0.2420559131933544 0.14350332963823575
0.08340670648243531 0.2865038144295795 0.016469761513690173
0.3243601938393965 0.2546325992632319 0.21919669846991496
0.32550029812472303 0.18859233732695202 0.10417988096841668
0.3224273364620416 0.2246687011104882 0.0929338948990619
0.3810491008577799 0.24948563405064306 0.050714230322910225
0.28626735923219826 0.22858281450518803 -0.03269416145896287
0.30214725659297414 0.2560347031206902 0.19656591102298648
0.33635315686089484 0.22093628901214402 0.090747131382372
0.37546680195325166 0.2097369681963528 -0.04112546593682964
0.3216834870220282 0.24085720376197628 0.12176301232248932
0.35559690651524534 0.20829673136947235 0.050994775827291505
0.03951802094678669 0.41402401774318776 0.38410900058966035
0.2147216724119403 0.24860927605837446 -0.07886581171835871
0.33206722801202204 0.2715682392731651 0.13661441695023768
0.3263998744383656 0.29024089424216015 0.08840345083905277
0.3412328253564283 0.24800022579421466 0.1586477095416967
0.36374179010277885 0.2550012629326659 0.0764731865380952
0.33913750763598216 0.21585900110687817 0.10089986629900238
0.3711996037100391 0.4240998661085058 0.12661548141932144
0.33448238345579284 0.18046844961685338 0.03926853097202354
0.35482346451065894 0.2157387324496085 0.10205136385388869
0.28909723315786096 0.14685010826144662 0.05523112307668043
0.3695074452523244 0.24750072991588468 0.15957181483813088
0.31721491783017086 0.20511091146137517 0.06676854673395383
0.5238998007852729 0.16388849696841135 0.021083402078375002
0.3360252593270161 0.21521497747210105 0.2074782206539112
0.3757013995347336 0.264443484326506 0.20478135825749177
0.2868477918178769 0.07742915615740742 0.10790711682619758
0.33159117341386946 0.2966799380247096 0.1921100264486597
0.30009675363899646 0.18699593547646032 0.023601366587598704
0.3447451743443537 0.22132129393952482 0.12992309275698233
0.33294153816876815 0.21089709632485665 0.07685083400147619
0.3622761975767048 0.270415183008879 0.1973402241266342
0.3149385273675449 0.19799385924586943 0.03018661416254531
0.3380248990763306 0.2536759083202895 0.09496801007531985
0.377557578848041 0.27224760662673475 0.12345812285593638
0.314018604273258 0.16696992596095583 0.013775657097852445
0.18600947900552 -0.22463551268077708 -0.23318473914687843
0.6202751032078595 0.06832596877572428 0.42267598955430685
0.3802043832014732 0.24889008878264463 0.06812224249253518
0.37519256659308553 0.22387701709905627 0.11247679159473023
0.3214820752750285 0.27292802026148877 0.2467868646822069
0.28631573699263413 0.24278254155800028 0.13345790185658757
0.3483133097457909 0.214914720444483 0.07779239789471148
0.35251536734935485 0.21218684523148568 0.10310653400317449
0.3469156888104976 0.2212277947721475 0.10143672779996393
0.2601638195229441 0.35210547888446797 0.031349317020328726
0.31361196407200964 0.2274477074258101 0.08701358349000543
0.445890844921081 0.270862139891932 0.0991369651854086
0.32102484603925063 0.23062843039113545 0.11513810117503454
-0.04921283359858819 0.06579515860002516 -0.29623289102309514
0.4502005883719562 0.21612708420792615 0.1623525643516075
0.3148907799356522 0.20491438387063 0.1350475033342775
0.4270893480711777 0.25853135890244516 0.06425582805306362
0.4368151954920023 0.2441477931090219 0.1834855007886489
0.34566223356395653 0.2362916535187196 0.12374453776281769
0.5066864348943341 0.2809474675929522 0.24737366839620734
0.31100126122345273 0.11647674037376987 -0.022001722376558064
0.350487439754545 0.19025140730785495 0.004552804723743975
0.34696187933991496 0.20285336207382443 0.07404469675736891
0.37979739809483704 0.25799421589050553 0.09228639669635186
0.36049851143347666 0.21095348660688273 0.023076007448139535
0.3964239633784672 -0.09710735141190696 -0.34782921885808094
0.23415692926744214 0.28306162876441476 0.1205630607866226
0.20290020510145723 0.21054551969621116 0.09650723363884595
0.4787427526404002 0.30127474021952594 0.23255719942433473
0.33926882929895896 0.18804683365127062 0.12039569731255995
0.3322756065622201 0.22280235880231203 0.08245379427989974
0.3800146190329201 0.22492059526531705 0.07706329237650777
0.4123652398418045 0.1869035873120879 0.026330080506383524
0.2568867335063203 0.30485045005448796 0.30647077476312745
0.33443099041673463 0.23636957761674182 0.1498695062518749
0.3439566931921689 0.23217350996436892 0.059965582134253737
0.34670105911989424 0.23852754555329625 0.10935610558610165
0.4090812225876306 0.31935092386193276 0.22776617130240595
0.33865515295343585 0.2003974803702846 0.017296073327386807
0.3607541314320599 0.1650338276600678 -0.04556012477149807
0.28998644883363056 0.21169399859084592 0.0667024504114977
-0.1655933945456951 -1.3679247629580402 -1.3073043041514438
0.22422526882462535 0.18386067225279135 -0.029909827499579933
0.36339789638293496 0.22381331551719086 0.09906774355093262
0.33708737627790697 0.25143000203968313 0.21694510460999084
0.2927855647577644 0.17196185534101005 -0.03041290151764997
0.2789574388003899 0.21542743020432908 0.10698381128567291
0.3366702019442158 0.21922701720076532 0.09713382473063348
0.11393218766963287 0.3148353342279222 0.12729007792458447
0.2085561805733107 0.4320485244247152 0.24849208588570093
0.421783328682551 0.23505830151312068 0.13720890865943147
0.27674702187512423 0.25636342334166784 0.0797952814375833
0.37543441125019683 0.2657013113153539 0.10741045548626005
0.2908456421432106 0.22849417818932238 0.10364161388503135
0.35752460909122874 0.16791026122038488 -0.057807406536610983
0.07192243324573155 0.2322909330742391 0.1344876734763858
0.338619051253076 0.22985013681145006 0.1172458412461026
0.3790695839578717 0.21064531925398455 0.12431703084169499
0.5304505070915866 0.20876085342928263 0.21285051669266863
0.2990150365578472 0.2791730854137313 0.060278042268066656
0.35089796441369003 0.2244538751010623 0.06412152293449935
0.36208080014529287 0.211936303645615 0.09151747139512167
0.3604343551918987 0.24254457652986616 0.12516926091880975
0.38353313943424894 0.26911416531146415 0.14180178905591845
0.4012051836422046 0.3171533042786052 0.22031183829099632
0.3331082440022044 0.2527792711914145 0.08217469305861869
0.32985140244852573 0.2170141249541615 0.08005975049874792
0.3259661442996702 0.2565717328913024 0.054797366143560566
0.46865585521712205 0.21954180165289472 0.16308527091125313
0.34564965364566547 0.24559722450467802 0.07432922666293962
0.370552104165327 0.2108141402658248 0.04161009062013932
0.30697344035637286 0.19106278998745552 0.0210490106522343
0.3822215370122848 0.22393400256615337 0.1587159401849192
0.22086618973295913 0.4068268018900483 0.18362289181166602
0.3219484626088871 0.26565226302510325 0.08143045784865421
0.3462595546964451 0.23520018108922613 0.08020143800428059
0.39519057052096684 0.12447318867695856 0.22179382977616058
0.3571841652482419 0.25868839783264264 0.05755777696052178
0.33742430794353595 0.22355336716746876 0.09378645270783181
0.30023134353514536 0.2736581632396451 0.16689408523902216
0.3380815991449708 0.20363093303144808 0.007767493334270625
0.405270619696239 0.28143535656940344 0.24926785986032485
0.2830145447489514 0.21525296714946762 0.002417595313133347
0.37999672722182254 0.20407203501639515 0.10897957806116665
0.30924509968694736 0.27740195710973126 0.04240701099895716
-0.46938946880874255 0.8503079196024999 0.1606953699062501
0.3342858427753441 0.2449209249396631 0.11763172627712493
0.3564085650970412 0.2496627078052427 0.033160240400775365
0.36686522670333943 0.2224881143253299 -0.020201822743501907
0.34088530818220875 0.21739006101078928 0.07393805583032531
0.24526631339621474 0.15345722474910417 -0.12688924565668458
0.4041058837517255 0.3070670107271667 0.23295372504648526
0.3408721573814546 0.22756403448633478 0.11851207103470074
0.3358162731631893 0.17939598261563106 -0.005821526190459281
0.22006462136008054 0.29990082554390085 0.2798281407647494
0.29183737892388706 0.19687876685617312 -0.0005966017343155272
0.35034075232626094 0.22309046826512713 0.09335549549953726
0.3548242127860135 0.17547405310475028 0.058940751466650454
0.3406121860629554 0.2516019565890417 0.06963173483718776
0.09974842578665744 0.44858045373874234 0.360853247305414
0.36574822903997983 0.21861737515179414 0.048681649721828535
0.3233535527496656 0.2740738729425658 0.24037111062770578
0.3798857309612913 0.2078672766194245 0.0016395797036352633
0.3119764568493224 0.1770281712450128 0.09830893268187424
0.21271087254368126 0.15919445028444557 0.05736308232525289
0.3699269601201678 0.25449710704639017 0.11635854826278091
0.3218280935068947 0.2144782632414035 0.0838700897496949
0.31624462031572875 0.22708654930870864 0.12857219074486181
0.3749842661704861 0.19818791221305787 0.0855381739486063
0.2754980878197699 0.2050437778530636 0.14571007756066479
0.4320495036594423 0.23599220420452127 0.12374532324798793
0.23228126607197908 0.15573292757176205 0.004801296002625577
0.5141005484105392 0.2574721836033689 0.2378418036792027
0.3492321770607276 0.22874415904159662 0.11143357126445608
0.31806670869164577 0.22576930784660476 0.10472503337913963
0.3658991112386616 0.18223358040170012 0.06510640390015965
0.27267326803470837 0.28089884233949647 -0.11749108195654401
0.41758329924546445 0.26522801003542895 0.11263327058962602
0.36051293850033517 0.22198058642109686 0.10400351655439977
0.3791364881658694 0.1697172000503997 0.06519301912045705
0.33833829104818847 0.2403654241269635 0.10015414992351168
0.29953311261932924 0.2367102676277284 0.11623631392757261
0.32450594853892767 0.1939063298150927 0.06146114601364161
0.33991740014766947 0.29225024705993974 0.14309189805329936
0.262761306379403 0.23423175570260923 0.12538107404583343
0.5367714092913758 -0.08857646102194394 0.028530230092655984
0.3738577562130416 0.20674975842285903 0.14264044796890119
0.44975983318772705 0.1531113953387262 0.1772066426188985
0.33685396690235336 0.11124184736314646 -0.12604642910091002
0.3088444337237064 0.22117765939734113 0.16833176836490793
0.3991098879513544 0.2637971317320478 0.17792091349464556
0.33618528380894475 0.23008266500417562 0.10620723106529795
0.2544031263518036 0.2059352467695703 -0.0039488519981745185
0.24178956915633876 0.19541239921230158 0.01645053374714678
0.3541063694284503 0.2162578994472426 0.08695523110517911
0.10796221480569557 0.39189383925040033 0.1073402000556598
0.36941727100841604 0.12456312937555936 0.06407794766556663
0.3439853516204039 0.2188788004420985 0.08240581412744064
0.3572373642403761 0.22854326446929463 0.08994483181527357
0.34843056581750886 0.1698427763739403 -0.014987405254260011
0.3815795160483333 0.22013127115081943 0.10249564180642778
0.3307646678528897 0.20430071166018138 0.08139762064300271
0.39068117925552315 0.19441492113125491 0.11771067952446401
0.37719873979659724 0.25727781858816456 0.20138461442658695
0.39138216118676894 0.26344130753956563 0.11804061140165345
0.4003547595372936 0.2336184615710124 0.14297413524643332
0.34566752248356636 0.23411405757553894 0.1314474945004349
0.33831694495211195 0.2202912994503663 0.09631598203711178
0.32579904730297926 0.23317475411698751 0.10220574087500722
0.4338229625337249 0.24592003681138408 0.18291812498765125
0.3754040338021696 0.07263700870473144 -0.21411005279040296
0.32265485334662003 0.21876416948319388 0.13861060707802153
0.20284089231185476 0.14884889239763766 0.02795189497405204
0.3955466518395383 0.22248974115476017 0.11067893072753066
0.3592880546326427 0.23441869841899177 0.06788159760915846
0.3492690628531676 0.24351866129491384 0.1431449993446563
0.31951963286435614 0.2167819936443891 0.01345030732696273
0.247318826330428 0.2983136820103027 0.07699016457236496
0.33886323982045496 0.214055730919398 0.15127664485827097
0.3608007991767863 0.23494915539086492 0.10515716991815793
0.2883234665901 0.19568010311732564 0.07999049429908212
0.0009174305665311522 0.16883017161185876 -0.06545339424521046
0.2580424140573996 0.12072031998229704 -0.007436251544476136
0.37041883540382514 0.23810217431645242 0.13435158336918107
-1.1422975437876204 4.7202002066565285 1.6762462472711377
0.2843078404112589 0.15860398120565833 -0.0893522381031886
0.13449222270986638 0.6028583248962747 -0.21075293415779583
0.3188767256875593 0.22997162193399845 0.10835022283438889
0.21803068006832405 0.16435853053066296 0.010047113566059807
0.3133632668871229 0.23098149501102228 0.0646316450284985
0.2952114100759644 0.1597983119943791 0.05429452955799263
0.3872880759886925 0.22337531969292002 -0.09344984486946828
0.564118782782316 0.08203447385301388 -0.0035407068180290935
0.3884040459445828 0.2569306579673736 0.11744988285019531
0.3511194604274408 0.2421048206167029 0.12829723927796977
0.25465768287087087 0.29456623867326925 -0.022698928842942223
0.35991295486631714 0.28068522286810094 0.41078678299032845
0.3993193256223435 0.23513887676328693 0.09887176148245658
0.31750844430168 0.23540239840320965 0.09463157894597884
0.35040591330104576 0.235398135947662 0.11042417838552865
0.3595010531547018 0.25550705354611125 0.06497479492009006
0.3424647210175067 0.217713786253654 0.10790112329470958
0.3468792793088653 0.1840695221859221 0.10191575326001612
0.30545810149328645 0.23111217154468022 0.12631431743834298
0.3264295630127094 0.24328336248517246 0.07519521182027233
0.3115810481676675 0.21801871054739763 0.007700075521285044
0.37465825981465173 0.2394358262113343 0.12405813538377686
0.2754828470573045 0.17002015526452396 0.04192226617465167
0.3672930341646463 0.23977679303027344 0.12124212411499968
0.24056580081719403 0.2192012595794779 0.06852170334958885
0.4585539773420919 0.2930368666409606 0.10680763511902569
0.42550462958161006 0.2643372008781739 0.14412243582982853
0.3996873089106856 0.269981734230214 0.11576172703806265
1.3283989476963853 1.3910726051150561 0.7853961737434787
0.3803617806152033 -0.056963869795339406 -0.02172762550245011
0.33828321949080475 0.36835341025268065 0.20628803203574364
0.2623335868879906 0.13548191855224445 0.02844554008086675
0.3573282921242651 0.2158490054222284 0.08382132641007445
0.2903183653395729 0.2450491988728345 -0.011022571609458964
0.3561185302504839 0.24048330275610397 0.13800441542093722
0.5191279017913075 0.17688034689852827 -0.06474420422637195
0.3051565760171684 0.2442363318702121 0.13354829546088354
0.3322316663703475 0.2325615342176377 0.1055286569201428
0.366486666642615 0.23522313077589274 0.06430062143127202
0.48902988829206606 0.2147013165441365 0.5170916930833016
0.3570490018112764 0.23080796799246173 0.1307493108204767
0.32773169819773784 0.2611515595263256 0.0892951883209605
0.37105800943461986 0.20503055651028035 -0.004187387663591835
0.24127532773061944 0.17417391346145905 0.09365312334904274
0.397740566114976 0.2818294715885088 0.2433026901301787
0.2681066016996425 0.2524787205864243 0.030727357268190758
0.29884634318226233 0.24439342379639584 0.13606686504769527
0.3393458591326919 0.25217806951403077 0.24274779403148727
0.36081787205915816 0.30413356415004955 0.16086608683623638
0.3679646498378446 0.2259898130658371 0.1188248023200913
0.4026809120962582 0.2729905008297493 0.10345427813463459
0.3699805291326186 0.2109356390521384 0.06505478387205699
0.36234451845152194 0.3756418004389701 0.2570711417766063
0.2905928359350298 0.17532389972367923 0.056902782499292925
0.28389191016431425 0.26841264231021 0.13047883584914644
0.9484729507355638 0.4623083433509123 -0.14582357091708786
0.3660211033424048 0.22878242455600173 0.03709037838271456
0.3762789078439255 0.3062983977606848 0.20929376973091962
0.2606511256326485 0.11202422186384808 0.30538279964679305
0.30404021959512306 0.20617940641344035 0.06685928835489108
0.40836188541501883 0.24964789323681202 0.06175150614578229
0.30432762398166346 0.20660791291595615 0.07919077999812885
0.40361569201448333 0.12250001653129061 0.20745900948999463
0.34013305758548995 0.17399582002298075 0.013945113505940299
0.35919227292738753 0.21974091735293655 0.1003325807954667
0.3892919779973454 0.2535552555592062 0.11828016687971399
0.38593444529041676 0.2570810002116275 0.16245864521627595
0.2749237190175222 0.22633864656992841 0.045787777690449616
0.49126441467052473 0.24504678961126558 0.1557628041975505
0.32178240427630556 0.2363450005896368 0.19756865830109405
0.3121517212294975 0.18769853279815152 -0.012708119479611923
0.41693290834800223 0.19350448281429067 0.0223858760390101
0.3157297073831131 0.20706947281529153 0.06374026704168045
0.3631684675301585 0.21196938009236987 0.085043043096789
0.4347726757901853 0.09478667562160581 0.12810151812479376
0.3338526132885562 0.2607192997333385 0.16225681490226407
0.33338316647152055 0.23903083263499525 0.09866325017185318
0.42380190460811207 0.1910482546404637 -0.06239911591099201
0.32813566546940365 0.23216429158945573 0.0990400473909574
0.35047403541148014 0.23125444885158686 0.0884488345295722
0.33272884233635125 0.20071098775736118 0.12485986107735414
0.37189253692466195 0.1533330132728139 0.09922485843699747
0.37215191096926503 0.28208681271141245 0.1437522063867931
0.3334245805798588 0.16390928527023618 0.10244467475698116
0.3234897010879507 0.4432708760388522 0.27520773799945175
0.39425914480057145 0.18872232345842122 0.08411936988522939
0.23242959925312334 0.20584501292788104 0.08384642716467283
0.36826308573452593 0.19615642477546658 0.29012781056641757
0.3264147067919083 0.2252668671237643 0.0952639779270612
0.3550049502280075 0.2358380354789631 0.09581645940497197
0.19054983986303853 0.10118149033969814 -0.07808646501274552
0.36637603039274325 0.18440390824542874 0.040459498154120865
0.3913607848570564 0.2679973173411554 0.02288642672024821
0.3799505712721043 0.1824390770568698 -0.0025083680434647704
0.35174059727552276 0.31694323100421684 0.14832770608745705
0.29082136408803194 0.23437284038210748 0.1732079270954614
0.32400734058566627 0.22817741092028143 0.18573064486315616
0.39928368247444723 0.16431853600393254 0.04552765428877592
0.3384321168407354 0.22517268087266018 0.09494207220018325
0.3568546533701209 0.2293472856665062 0.14009883823777614
0.3773753604642991 0.307026031351711 0.13110882284942704
0.3832344581477827 0.1604122803772725 0.077188279411331
0.3335273897233435 0.2508220254627389 0.15387803871269057
0.3454287722923368 0.27131383369214745 0.0817489990668605
0.3541357503898155 0.2361483479600679 0.061324370032792785
0.40095067517424354 0.19601037761816542 0.033350300278584655
0.4089744926537122 0.34702534564495124 0.22900946959200041
0.3618664402378613 0.21609097090197338 0.11818229384678602
0.42125859392257325 0.2391108536292279 0.17667663804843414
2.438171894886594 -1.9607553274979068 -0.6788828098585782
1.0405900789463516 -0.0224070469753741 -0.14804782011034945
0.37916377662205036 0.2348818681860223 0.16410225085772367
0.3738083592676986 0.2295424178447263 0.09423810602396543
0.13728805652920073 0.4467620462207833 0.21602555704728843
0.3484656270804294 0.24297749814326153 0.10198720161670849
0.3396192293936622 0.22806741541423037 0.10989887130530462
0.3912184760163626 0.23243567178106161 0.11186244059771866
0.3930422377243872 0.24467843636918474 0.12360745038718335
0.3422805898680821 0.22050145253213316 0.06377465750217937
0.3320720616240038 0.23501126739199663 0.1331134513650909
0.2899781179717422 0.20016230474256247 0.016805989592313608
0.40481124837248217 0.2564528338452874 0.12822386743135894
0.3269496588650327 0.22352625915961255 0.0843642716833699
0.2950859923945899 0.223677966951783 0.13319377752193873
-0.21513292051210442 0.5484491667174325 0.14443566127852137
0.34568885006811456 0.21811230646173385 0.05952331588332527
0.461180681581709 0.23883048340019286 0.13674781212185394
-0.32349740733383214 -0.1633788810234904 -0.3142671407022135
0.3405640009018214 0.00677613022189405 -0.38323717477794617
0.300736802985341 0.1720203468069883 -0.006803349954196847
0.5851536032867415 0.25336042845776774 -0.16143636381551119
-0.12463010279573439 0.44588151487937466 0.32386284894252526
0.3504512873484771 0.2569641241152283 0.11361026938882901
0.3461706052929969 0.2508950140058772 0.16361242854847546
0.32969068358241316 0.2224125316691925 0.12660041500234342
0.34305758841725265 0.2455800032651041 0.10373958967478814
0.4180375774560048 0.19349412352352147 0.024817973469410504
0.3474640679012282 0.2476633374176913 0.11445207963176074
0.4053407377376317 0.214409022228935 -0.02323640201872479
0.34580125875297085 0.2335974323299297 0.10714362890726647
0.30573597400572794 0.13818824898635285 0.010747754896385686
0.30355484465464144 0.21910940218725727 0.015303990460310501
0.2751871389059488 0.19850874680219022 0.05033301930316725
0.3232499261043813 0.22603653406741842 0.1019331107179795
0.2992992463476014 0.23602588299353044 0.1331050350219698
0.3045762800562102 0.15300231005760168 -0.15611019751021615
0.33015246447308755 0.22753660892752237 0.05507731613036526
0.28686734468044506 0.295553281494648 0.17925960024498977
0.2742270339234665 0.1854470181949921 0.018405052058668048
0.3804682298434727 0.22908991458052697 0.1179426107085817
0.43785064405224716 0.20455576969878564 -0.05775965767534785
0.4743151265819847 0.06257720889486507 -0.2434606737040781
0.2912059089136392 0.20147735145178558 0.0027328238494561674
0.29475152032711094 0.16235919983866154 0.1321775118967139
0.3007247362836978 0.2921560397567191 0.18605029814546015
0.3630807678335657 0.27854648370490054 0.14930820473341555
0.4381573051933003 0.23257882026555876 0.12029854999386203
0.36125885808627345 0.2707020832025364 0.2040063797185212
0.3490856532219766 0.19171078945305453 0.15595527160888878
0.3244345865672358 0.23572182745184023 0.08736734509135147
0.32545939009352765 0.21856383776720634 0.029259345209496246
0.3970928190528582 0.2120625403644283 0.03113820189554417
0.35298933936971366 0.2832586856427781 0.1540954937277519
0.30433560891995626 0.20029980718123852 0.011454092077272549
0.30361345365687953 0.2881023478697671 0.22020571909698106
0.36691799720691165 0.23031699501333947 0.12008423780369526
0.31687675862747255 0.2768781485353884 0.1804095663283647
0.35475143710081625 0.22038614852115757 0.06896893327929376
0.3517905602294604 0.24228660002140145 0.09329691258456307
0.3183501003804139 0.20022593491383134 0.059716149086341375
0.3241176439829587 0.2268567010270175 0.06624395168186936
0.46819349944814803 0.24343760170813766 0.0723102344422557
0.3096475943856092 0.40803048544742637 -0.13856956136004328
0.3700466456158864 0.26506667235599934 0.15367542834772507
0.30353374556594304 0.257450075131743 0.03565075810212193
0.3996198317416315 0.26651341714071464 0.0615548754853279
0.317777067921412 0.20616366065779346 0.06752268455375088
0.34317318424228915 0.21830046670496017 0.03859920727131794
0.3412727501010693 0.17365465993098894 0.1332098710606573
0.46020963246859026 0.1574207906198808 -0.0500323215117362
0.3407254173472296 0.2324373864962297 0.08847268517280327
0.4015201832791462 0.22836314425026671 0.11709376356527912
0.3360651708971716 0.20490961077473457 -0.018602617160553336
0.42036300604152643 0.23514836721514598 0.17292459779451974
0.4818582806997824 0.2819029089778553 0.13309360383641433
0.32803456506231043 0.20565775015032273 0.09059174333479802
0.35054159235288296 0.2677298258256542 0.1520235185740404
0.3532066421016964 0.24417829693666704 0.09532443669405666
0.45173032222265874 0.27499245420821694 0.08230227601342222
0.33759159270266537 0.21026406648897478 0.08625812775903796
0.354946059372665 0.23818455200385813 0.10135230178912025
0.32202952935281814 0.20506320993538907 0.13053321053982359
0.33970911680437155 0.19013771689577652 -0.009342171432308533
0.42968361001015865 0.2819183602068449 0.15572142263859234
0.25165949284604494 0.5210947614188086 0.09403956984399997
0.23191725965381238 0.20237996646338274 -0.0033324832930929915
0.29738393689595455 0.19423627594974846 0.051498441550108964
0.37685370310823885 0.2845072402575397 0.1701175514859301
0.274929634507572 0.18736603556220643 0.028352016047506368
0.319353871383413 0.11739007428441539 0.04213113134527191
0.2226227410958188 0.23302652180439054 -0.04297661568023159
0.36685161588069093 0.25134961884461404 0.16128353810967155
0.00780178623030281 0.9361478642299801 0.3082338901428443
0.25407305190498164 0.29298562245944026 0.17406501546876996
0.3413298041608641 0.255840506321249 0.15402518309150537
0.2534163721802969 0.21847419990487538 0.08980899674818943
0.31240310428518114 0.237978247378976 0.10841852107201078
0.25088068422712695 0.1798712413007877 0.030868676655813942
0.22045743976426024 0.24515739246351131 0.12453719701952082
0.30289787920227695 0.20242219042626175 0.061819392546766494
0.32047056631276405 0.23045804796224445 -0.021295560273273395
0.3856277779481445 0.20888544191991798 0.04407866876255184
0.3247560494246784 0.2330269040263886 0.09184392547179243
0.32076087489335237 0.2640193967304185 0.12407956896441874
0.36656856619242717 0.2463565689488263 0.028232258888792217
0.33140582304611144 0.33228997279553596 0.27715196056178115
0.18393332450946787 0.2713222940204787 0.18231210063177627
0.4384940608332073 0.2645487131434834 0.16461043416835253
0.5175565902046912 0.17213822337122053 -0.28237633317749555
0.3102370019549312 0.2206568981967365 0.08810851990162405
0.35561224375371125 0.1871827674635682 -0.03661624043191125
0.3227885353425961 0.26993213098178614 0.14143481213818632
-0.19706316654196598 0.4289332198174378 -0.24865677646238282
0.3806653878057915 0.25806038291456446 -0.0007812969985394602
0.39023936727420505 0.2496473534982755 -0.01625468831331034
0.32395353752419 0.17866873881931156 0.05879154837808187
0.38870713569758664 0.2551887733707474 0.11491523299832807
0.3660784668548587 0.28550154117493776 0.15839819685307077
0.3977115300868377 0.1962594154309727 0.20834175689527967
0.32128597953561666 0.18198529928756102 0.06076436270708996
0.3050007886835431 0.20830854871219628 -0.0024523742128224058
0.3385247313702564 0.20442202660589714 0.0699505361439492
0.36378009857197924 0.22610402287506304 0.08539946865482761
0.31661223035469277 0.231694707458729 0.13900615173396602
0.29275242130185575 0.16246579901131497 0.0462183370793241
0.26788098235286384 0.2671863264161516 0.1709595780840658
0.3019423344162817 0.1953389349646386 0.06699700913318907
0.326043795358828 0.20889102860479625 0.0978348848362316
0.2823213005841154 0.17604488508494853 0.07068349985375733
0.38652778615423244 0.2175312825958997 0.13146555524019732
0.2252170665806119 0.8747337562276556 0.5127084663122332
0.38656372701566966 0.21920652491657222 0.1317040946205168
0.3332615434384536 0.21766580227662757 0.07105117070958045
0.3304996747807536 0.22725336698570686 0.08688096200782525
0.3769303010654994 0.20412535183844227 0.0870389357490069
0.3121839537504343 0.22983247129238293 0.15840448103749338
0.3151067701850536 0.1991557799897805 0.04787912828989249
0.35264390521288647 0.18026898274666792 -0.0019427566573853028
0.36248206888586765 0.24215107858117335 0.06000022144743866
0.3228292567695803 0.25217961267750866 0.10211669926169975
0.32133392715630293 0.25379087420736823 0.14177842688590658
0.3087636693128246 0.19395744441531804 0.0735441144359612
0.3412213203325223 0.2567916968649939 0.16255081348924705
0.33107730631884635 0.22325900084489092 0.07428053475202034
0.24388623775205076 0.19191000586960172 0.1264424903896213
0.3908753213291476 0.24655499738909725 0.10588185681532991
0.30525748471481506 0.22861175028393177 0.119850083915793
0.32500000048949573 0.2381499521105468 0.13936536342708905
0.3197317470203416 0.22613985990420815 0.06295334454452473
0.25381471751174445 0.2757313647058197 -0.04866274583318386
0.35069676327333354 0.22224110954567777 0.10249416889104168
0.4283267360146681 0.2612701022247421 -0.020701370833435817
0.36101870434283967 0.2394427601485063 0.13110986221960275
0.35086150435219565 0.19461617017077515 0.14485244579302048
0.34555582261441486 0.28264357803659834 0.1805736785100578
0.3517898436440845 0.2276919440801919 0.10379648688021348
0.40398567630390403 0.24674866530814654 0.19649535172963795
0.38061781035624165 0.2646351032487928 0.129157018334368
0.3046087225671954 0.27765829512543405 0.09261035136489681
0.3511866473139662 0.22147896822073676 0.09035500667954466
0.24513301921265906 0.2500011443153767 -0.14986231977958653
0.3444442108594359 0.21127322616504784 0.04169598323289847
0.32865624743332944 0.24236741420864405 0.09284633563454747
0.34224131317449746 0.26590831612065813 0.1805447728059164
0.32146318935701856 0.2389000189353112 0.1505436889222267
0.42369643381861977 0.2429681235000345 0.11317318750025152
0.3490244508406448 0.1565307669667675 -0.05032567001038046
0.44485159126307394 0.25232551426933014 0.0536114339413416
0.2578524995545308 0.16951147845450976 0.15499365357851502
0.29459545647486607 0.20797294926964582 0.07757570462796082
1.3437380046444645 1.4082561242395428 0.7713366585028041
0.48704963637101173 0.28467947529364324 0.3863161454392241
0.3221920670994507 0.2019786874517422 0.04743890715734267
0.35573051152240964 0.25038563102933153 -0.054447160110541404
0.3136641741870534 0.22566668942303636 0.11220643852570333
0.2408545866807117 0.3434374684245114 0.46315886284159546
0.05815420182622688 0.2555044203410404 -0.23482903249282572
0.3368025505918837 0.27393467484550627 0.13310855204272798
0.6817259762384111 0.17516745367055364 -0.7444874264873533
0.2711253504963054 0.19979089326517396 -0.002102682188592553
0.3821410806712322 0.24623618276231696 0.11432274198526216
0.2613058639080066 0.25679144419893873 0.30299042100851636
0.329672585867371 0.21324004834769994 0.026358365982645182
0.29006750877863396 0.04457209590653122 0.03745824155215871
0.4328137025758281 -0.15761840796409388 0.23577111883486168
0.31346396813879096 0.16930652040372252 0.07459439314948213
0.35105855874525105 0.2389319388100546 0.07768116758765586
0.3194838708237313 0.2244429947844253 0.10274666154501233
0.11607698230173469 0.741075054658765 0.5043992397487784
0.31354018291153807 0.38102322791844756 0.15056817416105162
0.3551136865412161 0.20094337016463726 0.09987301082178135
0.3220278584209666 0.2614637564609552 0.09057151901993166
0.3349948102959246 0.2205851694581895 0.13502927245664864
0.34871385709863034 0.24897291328403526 0.10380907988198373
0.33445769824234617 0.23110868948435837 0.08874867785087304
0.38960067524780584 0.22343819472530413 0.17034123302799742
0.3472063198850037 0.2400593843101575 0.05591512196195936
0.34630075960660633 0.20019556550353457 0.04971221865960729
0.3535433119078135 0.23747167272716752 0.10619992527904287
0.3974116778004486 0.21732905922056034 0.09466789417578525
0.33440419842457914 0.23738261139013161 0.08300264416382674
0.3244011828650173 0.2156024531257117 0.19309212534076892
0.35769651899208554 0.21501111862926336 0.11388881626055536
0.34428194903580334 0.24150432385850706 0.10928494903885166
0.35344615254257405 0.42952762853757065 0.2861161511007424
0.3692018302722886 0.23016835007669556 0.07786350782748741
0.31421769916690323 0.18973047084769235 0.16963393948537941
0.36080773326874294 0.25773851986764384 0.0662890286211848
0.487383390195248 0.17746794073130445 0.05429477299853147
0.3435108087834351 0.2380975054207113 0.09111619073232191
0.3385912220435472 0.22997762876947547 0.0949310949228277
0.3719313588222093 0.24440640684281334 0.13377798266762397
0.29764905693188837 0.19498205724205775 -0.003377957869034276
0.40298285262093714 0.2065585142620847 0.07828116877641378
0.36972865506621133 0.2184667311282027 0.13532947693930453
0.47601626142301257 0.28260365662275433 0.20494965384439467
0.3550749726543927 0.22333233414263987 0.01787259205300984
0.332165935014217 0.23194352125905482 0.10741170650155141
0.3447391546285985 0.23125363716519587 0.0544029051872883
0.36664473555428856 0.2620027552796955 0.15729367740050293
0.3716243434593878 0.2620559012154615 0.11585185093885286
0.16871473559029937 0.23469447140472255 0.20221008509855665
0.21549169047179362 0.07806390524460483 -0.015115362236073793
0.30925684773868056 0.16125035755015915 0.10079224021154687
-0.3687059767834455 0.11910871540688106 -0.13773568688733917
0.2707398705658193 0.33402938908653823 0.18468350543943757
0.3230808149206297 0.2233060971155112 0.1296912042424765
0.3381504525343928 0.1599812035245236 0.12063482567035066
0.4494421714723842 0.11064584050791382 -0.2501980507803694
0.3783888715320529 0.1816541819184181 0.13032923747346103
0.3277479118804365 0.18941185145585848 -0.09651423232463685
0.2682646841175824 0.2342698870225206 0.12497308719866851
0.35553673697478416 0.2537142804238499 0.1499176250086407
1.3063834762786541 1.3993461695995109 0.7725173610818956
0.3017796185127395 0.20389775134343324 0.004712813368001889
0.3355050097837733 0.21408546806831907 0.05417944076125991
0.3578430463151534 0.2218728638320755 0.09601233382838359
0.32143618960087394 0.2190262583940097 0.07651765370526675
0.32514828754045766 0.23612542249054513 0.11996445233251052
0.33238065180725584 0.21265526366207155 0.12796877079750857
0.2637087799299138 0.2698218248542332 0.0664349783776288
0.2921279232264453 0.24130460995748138 0.10946089728506081
0.24573723166327 0.18380976564000662 0.056077926476604034
0.3558036984424007 0.22304862497627198 0.08835142258013207
0.43986707523059465 0.29328965244224037 0.12223171760817308
0.3365025984589778 0.20216584658113845 0.07812863241611012
0.3664821745600193 0.2615520356454937 0.16594194415661434
0.34403232803742867 0.226101180579235 0.10521049974380503
0.44902779833162754 0.3296077532185393 0.14113273828107253
0.34170753637167195 0.21553320704208545 0.05383978024437397
0.25967736164750477 0.18466467047167612 0.046448230910556276
0.3428778990858632 0.28576949138277996 0.10164604686262635
0.27497742330299957 -0.11694839442506577 -0.023833650875587864
0.36940736997760837 0.22237872168588524 0.09013003649907603
0.4539113612807171 0.14364431629397245 -0.10256173192918538
0.44533331043771796 0.28723029848273995 -0.18535820058617958
0.3310537999057743 0.24350314750982704 0.12451266446508669
0.34388716102357364 0.1763201237931611 0.14374931914900912
0.3361596496478967 0.23152131101224427 0.09219485644746328
0.3739728669962119 0.18005131210551895 0.13228515614616754
0.3558975032038916 0.18446987741825183 0.009948568593657114
0.27316036593177273 0.264205284438475 0.19438629184556078
0.3279427178853922 0.23214267173099756 0.14945961632824378
0.35106773371069266 0.19495938368129373 0.08813064283532412
0.316711973680583 0.22741659101069445 0.14121431702281484
0.3760459086218475 0.2201597166742033 0.1599193178060716
0.3259043370909467 0.2117256355942061 0.085274279465267
0.3168915713172282 0.1988446189932631 0.07405731398205262
0.40613891117915557 0.19442098464841706 0.11815583577558186
0.29327280380179843 0.18576619718396614 0.08193293165362547
0.33318098678427077 0.18425735369882545 0.039976655086860546
0.4308607366290005 0.2437607614267847 0.14527151472317712
0.31409142906747434 0.16742976060083947 0.15862719103475342
0.33347780447559217 0.17594970436988433 0.07029333218986267
0.2948437794520373 0.24675987881138894 0.06777393072061955
0.4097300392890304 0.26586993522134605 0.12565614426446814
0.4796034904153714 0.21269319219911154 0.01776133289564541
0.262178805284492 0.1542357992742609 0.04195586068371426
0.5237245487949167 0.12410164579823402 0.18001675508627102
0.327061143116282 0.20836785529346002 0.08926457961024425
0.32197521163647025 0.22154961676514517 0.09033758876411468
0.22427257985813753 0.2229385069982186 0.09895960536223924
0.24975976258210153 0.19145545877751147 0.11901212494861113
0.37670516826835865 0.2105802145311486 0.09617573565851956
0.42240109179033425 0.29317459091839737 0.3457439706521228
0.310557010174378 0.21559271611045006 0.08551342237697668
0.3189046566715774 0.21370930266746768 0.09741120297579187
0.3481368666780895 0.23168482982674732 0.0768126760174681
0.3599346833928365 0.1835768774251676 0.060422802205749804
0.35060104395640224 0.22561427214569107 0.07632962595779702
0.25900907794104455 0.05237556926775255 -0.12772604857981662
0.3634499365840611 0.21930813142603256 0.07597510162834453
0.3031825844753371 0.20253485336762367 0.2999711787329602
0.3936571849123709 0.20071150351579092 0.08037117063364008
0.32801196482667194 0.2221990399904996 0.1256794365543783
0.30985516155485016 0.20269756585128107 0.08048289651550533
0.3624332565245254 0.2312734242055683 0.09643444871187512
0.30663325155524035 0.21485822313076142 0.09785734265295787
0.33139787828429235 0.23324015688764632 0.09953116387973182
0.30007193034946056 0.3176111219138562 0.01695023285606112
0.34738956796945786 0.23703670465454252 0.13928292370363238
0.3671137450978108 0.218747731358377 0.0456654428290193
0.3885456024048892 0.2095587896016866 0.07231891436654792
0.35313105316464544 0.3030167340283185 0.16730445100662905
0.3415900938933589 0.1746724251341334 0.118249038714481
0.36033557380481795 0.2336097272701636 0.1209365105093525
0.2792554058995478 0.32557562524378625 -0.19119326557168392
0.3642309864736575 0.14613538410559102 0.23279349761605772
0.34422000921858853 0.23763146445143946 0.11680637117638071
0.3643303729920433 0.2684679154550338 0.15230835855487612
0.2826775289543946 0.22620680810717886 0.08803257594379943
0.31121722817412945 0.2458302804688799 0.12498187856610343
0.3226283406930861 0.23758141578288416 0.15801067121172707
0.23491408862787466 0.30554206531300565 0.18532183332038699
0.3088850183862917 0.19204857493940608 0.05764429496267098
0.3443405058777387 0.18512077490888146 -0.023562285517968462
0.3227901892445004 0.2166126055217319 0.07670238485147252
0.24548692660911797 0.1907801619092595 0.046442393924337466
0.32580932519931594 0.19366870985082585 -0.02954835238887199
0.3430146646230128 0.24358402954518965 0.06581051372258173
0.37855175224734694 0.9015923688340877 0.44784214607486206
0.3387182499962904 0.20517044423976927 0.08172188108190426
0.30719193584243953 0.21787435616457174 0.10117970698158274
0.29077227004671613 0.18311457296061917 0.003950433362831518
0.2753901538519159 0.21099423076648804 0.0835962800215384
0.2738834802257486 0.2172183494709543 0.0825147099506296
0.38261309425055856 0.19970090195864998 0.05771071646408643
0.2359424468412783 0.22091580771530062 0.16064269333742232
0.36469919267750583 0.24152436388067144 0.09293514532366487
0.3897360694726615 0.1447812867578051 -0.02070322212294684
0.43236095991414913 0.24072914244300136 0.1432583617008163
0.3207322180929424 0.20146800743499682 0.16573088132284397
0.37985612887663933 0.21981609188395623 0.06832375579075745
0.41730961763462915 0.24809908942499703 0.1394784970246974
0.33646105811880034 0.2215986326054491 0.08078988686887101
0.3872493203137708 0.20847716706315111 0.07472042803306067
0.31467575012368343 0.2160916860660791 0.06832139896296496
0.3018202252180515 0.19683099739846455 0.05950860366957045
0.35563271701869326 0.22287425211303002 0.019354928600421317
0.3565590996996235 0.3001900935420707 0.24898427033633652
0.38149624106893043 0.16601553591991092 -0.021365694812274683
0.3837970362959595 0.23066594858556755 0.024930972889961822
0.31117434894694895 0.13563168605919884 -0.3696179411994365
0.19430461417832134 0.13697042472941234 0.14801069452732918
0.3021553297412254 0.1858761005402414 0.06132022814138338
0.3500243245341039 0.22010263238864525 0.06490788355418431
0.33178246363507924 0.213653420629754 0.0846796833871366
0.2371377267626258 0.20794696678112246 0.05121145441003705
0.2845023077520068 0.16669336688562453 -0.01532787117253065
0.30641618692871475 0.26764139695380607 0.12548401323024905
0.3898487981957999 0.21874967786038724 0.23282616333329997
0.3518373006255331 0.23105360794747298 0.08833796551438411
0.41179607098720794 0.33511798668436654 0.10256522298449511
0.3334666171908509 0.2522507291186855 0.10412971018823214
-0.016812294301928432 0.41973688795991393 -0.003811698141504394
0.3078516567152292 0.2824805299406137 0.057029773363467484
0.44873793492672576 0.24926450284365842 0.2849191629032646
0.3782357291267573 0.24777069246022165 0.0789852249377958
0.3408321649010162 0.18320498624461834 0.147870671862961
0.4126524120799502 0.355622538974103 -0.14220964715039486
0.38948485960656853 0.18886180817122522 0.11276082401755616
0.39415735810442243 0.19445171500105118 0.06250704784899597
0.33881278009340576 0.24959901154895192 0.07116787852359607
0.31692825378101475 0.26156826247127185 0.19246525869994002
0.3187175029432865 0.24660102180197896 0.10092661281390747
