# .PCD v0.7 - Point Cloud Data file format
VERSION .7
FIELDS x y z
SIZE 4 4 4 
TYPE F F F 
COUNT 1 1 1 
WIDTH 809
HEIGHT 1 
VIEWPOINT 0 0 0 1 0 0 0 
POINTS 809
DATA ascii 
0.3340002084316325 0.23916558784631547 0.13886180736091092
0.32345525908480965 0.25651623570698234 0.16271740884549502
0.35999037613473206 0.22006207168863057 0.06301516518368544
0.3354382467184678 0.2500300847082997 0.09967701585290456
0.398256142072384 0.39351385272050265 0.2461472459362426
0.3496465480837685 0.22348262949165587 0.15003613443646202
0.35604809388496506 0.23133007583835763 0.014507202738414549
0.33475173281547654 0.2280202959603912 0.06032863208376682
0.3401615483400917 0.2541747222798847 0.11605162207162323
0.43937007215747315 0.2917202397049721 0.26124858481347246
0.296502897344169 0.17989811774387476 0.05362937361087461
0.785896440753703 0.1515243685642247 0.43912434133932265
0.3369471530785262 0.21441807450601402 0.18121724508925752
0.35460706895226224 0.1908452775927998 0.033617230897846184
0.315746237130071 0.16177566775367325 0.05200720569636985
0.4334176333893538 0.2854424521207193 0.06255307241193009
0.3284549701032802 0.20985260077384282 0.06680125092458411
0.3049563338270218 0.25160141257282476 0.02737322885130311
0.3836794096825429 0.20875770084674627 0.02599228222723582
0.5561465536257231 0.04734644685112244 0.08044015065092935
0.3800088163451676 0.15358269957262394 0.29651288283504584
0.4548468669334511 0.3211084236421584 0.14391792628413214
0.44417361547485257 0.2594509854348246 0.15720676473887352
0.36410866968145683 0.18512955322185576 0.05015468855413019
0.4394252450768761 0.24187101080616458 -0.13117161480354866
0.34942033809612383 0.21729996122373052 0.020122413577354337
0.4666823992151592 0.7696676519902894 0.4239923294921084
0.25956531641014635 0.15289118911401545 -0.18435689311388614
0.3934096614260625 0.12461548926680166 0.23249970162099487
0.3339477173313412 0.1905333059987413 0.07752385991892652
0.3057713875060841 0.17725990328118257 0.16257475330593252
0.415103128766134 0.28009628462021396 0.1366227430134188
0.3689808121347937 0.25233072887053254 0.1267713580509735
0.31677391523356846 0.23823975252993534 0.12080259071909438
0.3308460640307942 0.21495541312495448 0.12205075368426321
0.3988247055083889 0.2924822933870814 0.14743324654727985
0.3879425975036668 0.24526017768781117 0.17699693379293535
0.30537050624215567 0.19660486657130605 0.08745198598671777
0.3864302393507444 0.216944467364371 0.03355385129430033
0.3519849437586515 0.2636937982841232 -0.0521466827329391
0.3238829666989034 0.2157922409631965 0.12766149340083643
0.3472441065828491 0.28716110218385893 0.2574636996093176
0.38732554643500805 0.20561434113163557 0.09629966142458102
0.3771130994524867 0.26650814442707826 0.18926989472399214
0.40178474354360105 0.2420252285764235 0.1670483924084749
0.35111209780993136 0.19732106317057685 0.08425382121276925
0.349290682722625 0.1896442771301281 -0.022861857964343812
0.3718440034204207 0.2196859511769702 0.09119303941614021
0.2700103682590793 0.21386784773585532 0.09105738268945629
0.3586592766591252 0.4349482703423462 -0.07082211696264551
0.3275264432728022 0.23872855635377732 0.11824501473810756
0.3088231078307615 0.19691427114625526 0.05152232966025849
0.27691647557692534 0.21300806096567726 0.05875207453470921
0.3340141717117433 0.2288476043068357 0.16689242206521726
0.2368066460392697 0.3141725241345199 0.014875190286872453
0.33881333899707045 0.22321004748313555 0.1278859216948831
0.4267609195898956 0.2787056865691113 0.14883674803725455
0.4428370793827696 0.26011017324493935 0.1603452844482831
0.3400066081873092 0.2961404114273165 0.08186833904582613
0.46512296268258524 0.24844957909189702 0.19955023295111118
0.4185810664077678 0.25059554632220227 0.07065797566993126
0.3768143571842302 0.2925959959322313 0.13338704511407684
0.32254582701759205 0.14904389115680772 0.11676069703557346
0.30890485288698244 0.24519107094509707 0.047638145623011496
0.40001659442420134 0.25451408861681557 0.15759787070024345
0.4083862559395044 0.18533094905995995 0.08926328017000174
0.32459561066838205 0.2570596026576055 0.13226720151027394
0.3667490095351269 0.2360329204411471 0.03216500884627749
0.3619913195286415 0.2548020048342039 0.11596195682531629
0.36292063280515663 0.202244391838164 0.07677057608668747
0.3284048616310997 0.20348086848844105 0.06507499579987552
0.3518228570721078 0.18461563478321352 0.007020986147310282
0.35054876490656284 0.21142625442413987 0.0829093037922064
0.2775805937959035 0.20896629820173018 0.0375168282700713
0.31518063924342243 0.2231444667090159 0.07643769762789532
0.3455922225144974 0.21482919807812095 0.050715981339081395
0.33019411649615904 0.1638205216629558 0.08962253673028897
0.38455561280538575 0.2148529037800273 0.043868994840863706
0.334746174153139 0.21242170080057576 0.09780572422930334
0.28081123448124856 0.17569074224047654 0.11351619049912642
0.3073445083156656 0.2775114215433092 0.15405243243881728
0.3721892389017398 0.24599389792447823 0.09342298430507867
0.3662750473457663 0.16132229178884927 -0.045331758984190174
0.3270780007180889 0.19542657197447966 0.08071292939213492
2.647184924516125 -0.18232100404881635 1.1769808843497032
0.2496602048243517 0.30623465915377324 0.5637284536923914
0.31758459142798756 0.21275580025402974 0.051113392287660986
0.4339410426215977 0.21304862969128635 0.16140020063977545
0.29614829603846715 0.1975604358040357 0.08137175063397706
0.32438323918712797 0.22630933737903547 0.08757915176394704
0.37081798782188 0.21973956377323134 0.07150728469846968
0.37256850560187615 0.25612530286171875 0.1251249870426534
0.23200539959624678 0.2430545775948474 0.011456327195958238
0.38965534814221314 0.24296469116998765 0.15353482891312353
0.3267368674273712 0.2508922125690276 0.16032541899397756
0.29068763887302396 0.17360270035300118 0.07456898144708646
0.2286357813002553 0.2659218077843377 0.08470567272343033
0.2973322403655061 0.15157530600254177 -0.014799124543372955
0.3255740492698038 0.2436906648913606 0.10509735332334458
0.39574911462838713 0.2623021015784843 0.17739482171393206
0.25402673367656803 0.20251291257284265 0.05390612201949807
0.34736399493706926 0.22657696584352038 -0.16207827047128376
0.3584102097896249 0.2833698020572655 0.19008688629131143
0.6642528548154587 -0.06293725394425564 -0.19805268104866514
0.499937257329492 0.0921485365031316 -0.08710771647099591
0.2827778847577065 0.22055172939293755 0.039749170381838894
0.35871390278876447 0.24483206307840533 0.0921904759188692
0.3266017563369559 0.22380535038939797 0.07259008548453494
0.37376253614883126 0.2161097588523262 0.01215248638956723
0.33493611406362334 0.1892405646669033 0.016912383356952887
0.3247185167688542 0.22521735511713814 0.12114451663842374
0.49263569581944466 0.29527404258536194 0.018646189056624962
0.3739197712405655 0.24912575009346938 0.1453124681793838
0.39933393463195443 0.27683594478551754 0.1692905186895075
0.34780035562002354 0.13525414174431205 -0.0347287689881739
0.33727540256936095 0.2337146346284129 0.12716077146671978
0.47354279180854064 0.2404862716250733 -0.0035376751065427925
0.5001053948432883 0.3099407544783048 0.11689999259073147
0.3749143779752444 0.23779086642227298 0.14898534847262113
0.3566655005854642 0.22479001252665398 0.10580529278207962
0.35632441357761024 0.20356003395362166 0.061371467858435835
0.21527315056107454 0.3072293107707935 0.18954701411021802
0.2818470617960429 0.188362009936327 -0.027817944834879427
0.4428136038675916 0.004435753156286637 0.21081858495637107
0.3176577404173315 0.21304272639976318 0.15740311000374163
0.3426225486653607 0.23348522834128005 0.12267691945606884
0.35901505204383 0.23890194299069378 0.08662809014278139
0.7605652632957458 0.16494728535087688 0.06785917559477639
0.26172793621324786 0.09098731766221135 -0.26585320558868375
0.4066216792988513 0.2206174065796489 0.061815147958043326
0.29517255132790865 0.20870996648905304 0.06065340134838948
0.26980662602822747 0.1257660637846385 0.028123095082492
0.35164727638232307 0.1613593831567499 0.09065974612802563
0.38171155480389984 0.24260911751230196 0.10773568239352471
0.27510695207197955 0.2124758539089271 0.03441403869896931
0.3284811470145712 0.23294095863045072 0.03518651060414868
0.3293879289994379 0.23724305100574838 0.16512213645094675
0.3263921462894075 0.22430489674844978 0.1344453712145537
0.3841279009128016 0.243911311721547 0.14048684574152048
0.34044565624111556 0.2319053099938344 0.06931193276743386
0.34633090007150713 0.22330443996484917 0.0783364502938042
0.3540327363813418 0.24452763334065253 0.10169508070846689
0.43828210727924954 0.2712350181861325 0.13813605091594638
0.33119866091307415 0.25081786302052933 0.12428041670045786
0.48156499645629935 0.2543786961737169 0.1674255366369266
0.28388173183529375 0.24074362929619042 0.09217614373672234
0.3220258311311852 0.21512955898444375 0.053606254687565524
0.4392920961768709 0.06710938936308253 0.029330185820455767
0.3299529809186197 0.2236603575923226 0.19708838295501607
0.3359962681644504 0.20222231457904627 0.0318644995496129
0.2984345184848394 0.2304306479085909 0.13565935074866786
0.3106320191943155 0.20204894611367763 0.07166051507113025
0.4315952439780517 0.23606772559709555 0.12134931429764606
0.3604645471815928 0.20285458085858465 0.06803343824645935
0.36883147267408845 0.1018114127564047 -0.24647232276511488
0.3474241583707567 0.24821301083150615 0.12969796945624523
0.39742885075419565 -0.014793562510647007 -0.08670020995336358
0.3590354669303224 0.1641910669539044 0.051132360136278976
0.29076877616356 0.2560964837909836 0.07617423314513871
0.3495619367273548 0.117599739184854 -0.0186619872456788
0.3426401068592355 0.24863543946098332 0.09685193468368425
0.33364305709221753 0.21554132066432885 0.0847642248998568
0.3482244293451515 0.2122111439903449 0.08935706667813292
0.2682341512892208 0.22558173770593726 0.07883318418195984
0.16021573174782588 0.23040468982566153 0.07003406069360096
0.36091935623935 0.2668431421973594 0.164339174000105
0.31781279925884576 0.2373905754462129 0.12392205805713274
0.4703512605125866 0.26885646464904767 0.1629660594656741
0.32706575754623657 0.22255397340191507 0.06632271362050801
0.3200685281475728 0.24880686674836738 0.1586999899933801
0.3196546220190868 0.24900056186271513 0.06578729460468935
0.34367966543922535 0.25264484701915535 0.08974147595273507
0.37368811126702894 0.22821251203879456 0.09312570015367783
0.3301591145907281 0.20198501062772323 0.15905246835873754
0.4087061949762756 0.22759895149251008 0.10607656629048279
0.23804384952822488 0.2081277246406188 0.05604470248104576
0.3273465548158754 0.1467475246406309 0.36420705282736776
0.3379514089608904 0.14903864479501294 0.04446017574858274
0.31559309913620837 0.2199661253208518 0.07678559887651204
0.35296337324530214 0.22378993124620195 0.0939715124769549
0.3611580193072541 0.23181686271124136 0.039807860787448135
0.2577051363766998 0.1789988398460025 -0.05983239772719173
0.35558679812933747 0.2876286044399876 0.022361049195907867
0.3227504037833455 0.21817850559773433 0.09784315213738637
0.41888177237689206 0.2539431016859055 0.3064962032605081
0.3121650238243774 0.21780283066492245 0.06541947931978598
0.23158821582698863 0.349926598261618 0.3476126582405641
0.19539260067537612 0.17799028648633453 0.083292695583566
0.4675536290109079 0.22146483593175503 0.16022514162501977
0.34462539470254683 0.1646064744334126 0.0017518291375751005
0.14847652284865376 0.24852489357414242 -0.29566588622658685
0.28092948414939656 0.23886504801984643 -0.006221524238725351
0.423013828831472 0.2730735131938502 0.253963442664741
0.37757382011322704 0.17531562308037962 0.055528772127246384
0.23825979581619094 0.1897006320934338 0.041705232869247766
0.43504119346570747 0.22943718946626745 0.11048541848380466
0.36073885389745897 0.23196567585111438 0.14681087936526183
0.26895815136458623 0.27758369621349743 0.17629040418870545
0.2343987810621826 0.2918705960499892 -0.12381231349105803
0.37071181604657966 0.2390966739908862 0.12416906407491979
0.25620838951539326 0.20029875598041258 0.2432956626895475
0.3649349129854329 0.1919469749524012 0.12893208471945172
0.23732163466397083 0.1758524115098794 0.06496950244411437
0.3904155807815357 0.20264818634407789 0.08442404857436259
0.343883947075426 0.2020682764488697 0.07230580240675977
0.5379813216931382 0.1212873370843397 0.13145809985940105
0.2943024472510558 0.21411407138597838 0.08423923919023935
0.3201284381904088 0.23830510596457088 0.07507154859351317
0.3518601795569083 0.23681115906222772 0.0777377665198884
0.3559112877688193 0.2131494495403672 0.12610250385893096
0.38516106760933155 0.16623871644020483 0.04910337303572021
0.28465720545707995 0.20566066025540408 0.01782568670031992
0.29567714005671064 0.04219952692596962 -0.2027209973311983
0.3574808461280128 0.22863937514071608 0.05813166196450936
0.2542911845432343 0.17059968321458996 -0.03833222670817804
0.3131731576206249 0.15603594664925424 -0.01563763519254735
0.3780826166496922 0.2536609735986417 0.048599737871512616
0.24392979721082497 0.22280543630910188 -0.0379134073606906
0.4314029684375953 0.29374407892404975 0.23459163938218808
0.403105284327836 0.20930368553703715 0.027499739087289754
-4.539969630443082 1.0521756427095 0.2626267859187976
0.3505094014006147 0.2569432681660544 0.12932698256608433
0.3875512265917678 0.21532901988055642 0.07247262164436563
0.34803401515287646 0.21509972421480938 0.051699344711607864
0.3580495442852225 0.26338745728031654 0.1422937683743868
0.44939168801991514 0.15622113530488946 0.1040108145052443
0.30741586101966334 0.1864096153029493 0.0005686755558684808
0.27857475031883894 0.22606267179315864 0.09849656297795661
0.4141825008940003 0.20179309855407723 0.03145246155312975
0.1873593137206342 0.24452503623052735 0.1133987406491741
0.38326423978614343 0.2503967139191161 0.13685164303481656
0.3479955874913685 0.21048487133914762 0.09119914195960632
0.3631873237807497 0.18510938699976975 0.018647522933861183
0.34186251101354515 0.22734268944901714 0.08458750798098436
0.23085673839079845 0.09828013872329677 -0.01566172796164267
0.28336722629087774 0.1787398390663384 0.04493223914298028
0.35156341166305083 0.08841076879298271 0.0124422508415023
0.22970081978493795 0.10437225685038243 0.03708323379468936
-0.096560949661324 0.29854214255479405 0.023663650510400203
-4.276729660403632 -0.16835342988207458 -0.2690617396300041
0.25814264965015354 0.26267652792849105 0.10777898163773614
0.406363442649166 0.20587697885727607 0.25375757583833547
0.3104004413148971 0.22310090863889798 0.14743156098045063
0.3039586526244875 0.19817041743766595 0.046715268793661835
0.3625280267193034 0.23498397336331323 0.10897466868006234
0.3304908424175039 0.21105759358709975 0.02865019790024803
0.3206250946245177 0.270662295296475 0.15294577168016588
0.3701742270721695 0.27827936135430775 0.16017693760815632
0.36948529980972467 0.2437110802903817 0.09777659485675372
0.37129093895966037 0.19526821333046485 0.06415467564139021
0.42831333838384467 0.21199232648980626 0.10000308683891035
0.3566267462355057 0.22966484578813606 0.07020358762986234
0.3370677647975526 0.2063160334467966 0.09160626652216308
0.29423930967590195 0.26894467066207994 0.13272025331681903
0.30539469453762536 0.3397315621115524 0.14809794491930006
0.33654687376909465 0.23582166520023407 0.14690325174328223
0.3590724000571015 0.24719480724155574 0.1682017723225755
0.342634058064462 0.21432401504571885 -0.003009580433371184
0.108625928899869 0.3875234756664554 -0.07248366257741168
0.28772972579109535 0.14892086455850517 -0.06596099393485133
0.36519087926443206 0.20626775187081137 0.008637538329452354
1.2285971199516013 1.412709016707666 0.7182262632113776
0.4425068257859408 0.8518084661615006 0.4878065330975545
0.34269750867998994 0.21598744537988068 0.08717368275671333
0.33273407036966773 0.18602728858114403 0.03302184258802754
0.21865784108476305 0.17991670400883208 -0.1343868241445989
0.34717995575985583 0.2404894969291007 0.11900785865122998
0.30696270106130896 0.21120428067993657 0.15793455033954729
0.31698518841581347 0.2231704360172273 0.13657627753082124
0.35010168496836513 0.24854496959596872 0.12158854773917938
0.3245593620515592 0.18415118377561157 -0.041098585482103545
0.6128335972662171 0.3232404920952092 0.4572391221828127
0.33190984443800176 0.22800606624832653 0.09355765484721701
0.18597936548762561 0.20433827059568443 0.13546163986953275
0.4041593031770674 0.23847704455101848 0.1874807457368206
0.3224003322744693 0.13543245711204577 -0.004537531125180294
0.3890360422978887 0.20880135148186696 0.04139281280382079
0.5698758116527358 0.08969400496813762 -0.06285461299805206
-0.13343479165814642 0.5427437705628222 0.17602494290530046
0.3247536757907028 0.21215985496837675 0.04281965386957154
0.32990024605516055 0.2762934204034764 0.18377445447401897
0.3992026392637058 0.20653589601366207 -0.04491701046202934
0.3248127350482122 0.21429633984472218 0.08393625507149238
0.36800412505908753 0.21948472203561664 0.12027363811844793
0.4569352893183236 0.23235318769812352 0.12319007266583526
0.33782257906835866 0.28912420105793046 0.1474295262625276
0.17987507572090067 0.15674479090623095 -0.03087103704558558
0.3185207411784745 0.20422610919521844 -0.016393255507239246
0.3452354305418339 0.22603277695091606 0.09474980675764755
0.3903550641175286 0.24436242782905992 0.19944876165905612
0.3098339497563529 0.23142742681352502 0.019634066475447298
0.34864735545968983 0.22084548863810483 0.0951358844464778
0.32026291338662816 0.17913559083487485 0.07796672961097784
0.3056761667082242 0.18028378199679196 0.08497447810506742
1.2721561545283464 1.4042866841663368 0.7095612252078638
0.36298598202208154 0.2538447719406207 0.1274224199446934
0.3408745261860986 0.2264918835964238 0.033329545779878345
0.2590438299950506 0.17984238385460571 0.16007499052120977
0.3905747658177461 0.23074210527309447 0.07037768035229419
4.122986599723674 0.3997822439139611 2.964801906384224
0.3308177563155965 0.23249836899393017 0.13039059999005076
0.35777567166570634 0.34623314068912237 0.024941264247203776
0.4319423743887114 0.191435239893039 0.20303955936827833
0.38984798186569947 0.20855745373600598 0.09788944459162963
0.4285860275288087 0.19906931618155 -0.037387162930102136
0.24919540478563817 0.20382507426147356 0.03982280036962038
0.3394188375283562 0.257910493927767 0.11417698104686735
0.3185234882060115 0.2083779447173697 0.1077417126179796
0.42349514271535327 0.26515119816977517 0.1201450399249211
0.353579551154553 0.31944757276150426 0.1535472490924974
0.6479898390276162 0.17246758679834784 0.0761537053967487
0.36229860980195383 0.23224674083232344 0.09145630453562603
0.19277361323224795 0.3017827986760153 0.1932492216378705
0.4623185598227053 0.27232669371045404 0.11736843504215244
1.6820345881487668 -0.72933422168677 0.4693342670392724
0.2863289754128999 0.34287528324220773 0.016454071200826093
-0.007569990214790323 0.173566540501497 0.09396645127432635
0.3245561421065588 0.3021198056543426 0.1362836179549589
0.3148790170016724 0.22128443525855346 0.08913881194652618
0.3097003071429185 0.20422364654032776 0.0559963464747284
0.38393661464800743 0.2258228149179331 0.11844601788907028
1.2435975602935514 1.3836322547994087 0.8474613636692538
0.34409825338046574 0.2371859974821291 0.07634018581936175
0.3076479986498981 0.23941609868410296 0.09307052870042298
-3.618628334586546 -0.3171074822811022 1.1630000143487536
0.2977281975008168 0.2050906211655672 0.08203762148448845
0.40098495864204153 0.2799524098053041 0.11017564732725305
0.47538537143714166 0.23842771278916075 0.07568961515549688
0.32650666727386124 0.17121128383844564 0.09142834172533298
0.41568263408898076 0.2671313646028466 0.20641616003777585
0.25679656375891113 0.089140303527941 -0.0006686767508767844
0.40929528198773824 0.2357996778088136 0.12989743758139127
0.30861550018173034 0.17575868736719258 0.03734023526826036
0.35577369082486143 0.2020885615298056 0.009751076518639934
0.3407059624500448 0.22306312583138777 0.09919675130086603
0.47894493459807563 0.22301361333850878 0.16119859004902537
0.43309179010586263 0.2140536236351238 0.04969497727566363
0.33009494200186396 0.23580073907594112 0.1729718521888941
0.34312206966214376 0.2154812754152573 0.09753544195470454
0.3627594887101111 0.28042946379608225 0.2199845658738866
0.26297849809824925 0.16921561557683162 0.06870814459932717
0.34352772553765476 0.22385792152304873 0.0642069091564963
0.26162437347922207 0.246976447646162 0.1981200530954368
0.29917322896301357 0.20717404629652947 0.15510254457720407
0.28936465449962157 0.0930792071533233 -0.15387352512402686
0.37145190753179236 0.3639158067689152 0.2859061004569696
0.2668466010664332 0.21318396274588736 0.04973172720113439
0.31730233137759 0.22328457667003931 0.07416670027586747
0.3336385922043803 0.20251269435922836 0.03317586301130859
0.33854867163492486 0.22331724216158477 0.07543816306495899
0.3385326496320431 0.24994596185894125 0.05513406157075451
0.3961077879215793 0.1974271357818509 0.06823513986074659
0.3369506712354706 0.2555388516218642 0.16927479573706705
0.3360110245803867 0.20629326477838106 0.08465771308932801
0.33451619026934054 0.14834640244808384 -0.04043102473352178
0.3815251119235086 0.20619803396590441 -0.013004285369461854
0.2914528115188091 0.2122180606486097 0.027758943646318812
0.41143494298819405 0.13234946960051275 0.3015076190259549
0.2854984085276442 0.19685313699187645 0.03306269663829653
0.27420730917904734 0.07178684118341039 -0.46270066390277975
0.334647585288792 0.14576486423476354 -0.044853446030572286
0.3451654965510045 0.2470248463370126 0.11637572993360834
0.3921697472879657 0.36239355403577633 0.15154504649252942
0.3597615876118425 0.20555713438248802 0.12136848965795366
0.3862240047374996 0.25804653460062354 0.11059964457359683
0.39039381959486263 0.1949416389819021 0.1435594029040601
0.24763024498776076 0.23187528789559053 0.01951049109464975
0.3381134293521484 0.2154819363673539 0.06380428283839024
0.36935866132185424 0.24354697608700349 0.08208668566777533
0.48158109632288415 0.2322420203560398 0.1366715253331705
0.4072348124628462 0.2303222257550317 0.13922879338441874
0.38598991745223543 0.25823466899734626 0.126006581111767
0.31764992403913084 0.16802499104990432 0.004205860034943498
0.40842305366768983 0.22481180552694013 0.13709051186623356
0.48287840990558095 0.2960129816174799 0.0937703228939597
0.3817025267781844 0.19749383301081025 0.1410243147471988
0.3566022890579461 0.2569935570954982 0.09642138928882105
0.36936309193276884 0.2295901781415921 0.07946901366929637
0.3042610283815179 0.18934526203275936 0.09141472116985483
0.23586187779952184 0.17510722242431598 0.08430302844206494
0.3682581692358582 0.30217147109704 0.1682379489702157
0.3588310065827045 0.21306050743353921 0.1364542212905917
0.34338623326840434 0.23116268618697688 0.08635831193366528
0.3507176912155927 0.25930652169590473 0.09541422872274552
0.6885732435726482 -1.6425550097959842 -1.1402799244069968
0.2769956308380017 0.21664049001458352 0.1421390341490536
0.3544055218003024 0.20761694458553848 0.08749970090943293
0.4492741431247964 0.22641737976617549 0.1885994409604166
0.34527796536104916 0.21130091857364164 0.09015995360798001
0.3276646152865226 0.21351760456136049 0.061616409939773575
0.33343772577691766 0.21162749293912952 0.04544154123047406
0.35664605572077335 0.2259365802458575 0.09689407094433022
0.3611738851945461 0.2707758348533673 0.1652532250152916
0.3690091820568 0.23882954432976078 0.3171696175235468
0.360236137699971 0.19625990022844064 0.0494609681030056
0.2611535277527537 0.22744832675547855 0.07422984504390229
0.2910976893005568 0.28135121234632265 0.06818514123798991
0.31739527361909836 0.25216438902126015 0.12654998419341723
0.44051196670596937 0.24916225798662595 0.030250315718092224
0.3849592650181535 0.24853540861229817 0.09191728833897628
0.25103189914810287 0.20745975512741666 -0.011101697434753532
-0.059557043116143404 0.39970102912110406 0.10270015953332745
0.2431852804047594 0.16672002193143953 -0.008095290166693303
0.28401715741148337 0.2079874512835147 0.03937959140688463
0.38555160235523545 0.25043855002181203 0.12671674673626399
0.4346756362458848 0.13259239249495636 0.13029083508672556
0.3346090921432534 0.2735871322125263 0.11212878919084801
0.2730311293821046 0.16895007311035215 0.025939857972133495
0.2734027178455136 0.25917995587072085 0.10008245701945384
0.32344351192907084 0.22214966544727588 0.04596476069377786
0.292791915864143 0.20062907323342927 0.07585194220177982
0.29481469326533727 0.2629066609221695 0.15832919793997746
0.3282229826838545 0.17230551001271976 -0.010053816559718598
0.42860161715805134 0.2726586712757637 0.1552097394108216
0.4154317303857624 0.30690992131474104 0.04733225003816699
0.3979736664457221 0.26248815682171767 0.06616536831657527
0.3289717539583421 0.2292316112893502 0.0957860103923025
0.3904138313693579 0.2465596036825275 0.1899538518121915
0.3448122914337972 0.19472487687474427 0.06963771026769905
0.3825029393213839 0.19721692012515746 0.08231082347691654
0.44450141678639454 0.18956448242198576 0.2251139730339844
0.3156538586520554 0.3071945703420056 0.21331437802477637
0.31049601184120945 0.21706942861854372 0.09741676444204472
0.2748793511711085 0.28624334019630737 0.19454657746966575
0.45388224882650263 0.31499737735930466 0.26684434393941103
0.39730079109382643 0.21755884034431006 0.07914726427679852
0.33760899549295686 0.2347497150820601 0.10408370587940396
0.3885525601850617 0.17667506711504188 -0.03778365864087618
0.36149561903391714 0.20976420897400772 0.05373127714452153
0.3365268952838818 0.22380211769443292 0.052010584700923346
0.3152350079480186 0.19881346574740633 0.12716026928256952
0.2950665168074522 0.1740944272337117 0.1015212863538153
0.33195755417258965 0.19217624310314818 0.0908343445617561
0.3365956535768788 0.22730968706423482 0.07654125944222301
0.26326611081051965 0.21146198333386224 0.030344668594636914
0.3397694608518975 0.21996170234871215 0.11846776084806265
0.3544040209272765 0.18676715243248054 -0.018809313937396155
0.34548951436087805 0.2071451060895555 0.02253397563680437
0.435258472668437 0.2843436736637983 0.13925459333499646
0.4542956859299636 0.31295604716852665 0.14720785604296793
0.3650764520172771 0.22958207654616558 0.18768755892114086
0.33743557237261257 0.2259500554693119 0.10797788593987434
0.34750836652040107 0.22407175870390006 0.053650861785286
0.3306714740041059 0.20839275249043965 0.008179030989765579
0.3366538846470917 0.23387743629122326 0.1429039640607641
0.3477185622057277 0.20284651960577094 0.11206100001406583
0.3887391444987145 0.20163108397159135 0.061768264839173526
0.3581723950322271 0.18085607880860266 -0.015751889461284918
0.32602616025357634 0.2523032710368369 0.07414817999969614
0.2744668325558024 0.20406014201410017 0.047069630982775834
0.3032124772880138 0.23110581994656343 0.06716079895464588
0.342664734507224 0.22687561983109106 0.05480632825930343
0.36549062748852634 0.21962000278409732 0.09075405663404013
0.4375331103934741 0.27299468561400886 0.17998939734357577
0.3033789823368238 0.2882159326360636 0.14145201179570677
0.3977932614156998 0.21619659561352478 0.14173254395188906
0.3230649488718029 0.18375216434186825 0.0301749639688893
0.44409448993872047 0.27712736339742605 0.09436898836605678
0.46330067819715737 0.23056887911090485 -0.007222409202682911
0.3607282688710711 0.20753128370233753 0.07158173416632962
0.3190608210331902 0.20690633038819328 0.05964532606857631
0.26251354676506367 0.8758381912529103 0.3512615066916567
0.23478683111190435 0.17705326861309345 0.04197048085774213
0.3753955792857937 0.2971429581957352 0.1555152092133767
0.36766513067075834 0.09596166117475491 -0.010220512307441254
0.3792147195058533 0.25857041124641 0.12230305977068667
0.32029303586116953 0.16331321860758408 0.058380959320743386
0.36518489680435096 0.2193104567725186 0.154065232750753
0.29403681269516824 0.174659718717038 -0.06461012912930642
0.3494304904817369 0.058225083809588796 -0.088098399122444
0.46150539952449776 0.23339587354587366 0.13609312422377684
0.4138619698629924 0.2011278506134886 0.09245983161163451
0.17543978381277725 0.2921186207125146 0.10144838481407703
0.34027885376195854 0.23342431499172278 0.07515780645978509
0.29187105600676944 0.18411801844808906 0.08459629576042005
0.261905082861972 0.19602901802669237 0.02115626362110845
0.35999102870039223 0.21702222719478925 0.1097884423513733
0.2743881518492941 0.21108179338851585 0.0465827841868105
0.31921200170194197 0.2872959621577138 0.1479342032817499
0.3012958780745123 0.205054475962541 0.01816453695781206
0.27590833797704306 0.2641013506478771 0.16038291486040634
0.3740669623838784 0.18078327859770127 0.13632318503799468
0.37087971621623694 0.36649535285525303 0.1314953805661787
0.46844707644046935 0.25755713624042187 0.14929026898153097
0.34725351808350524 0.25248452693523404 0.0702155174126915
0.3545767851220205 0.2359160613200828 0.1010677583167876
0.28822261338567046 0.24953296643815293 0.062267517616078294
0.3441361031542556 0.22108745545078534 0.0783541841445583
0.266485474500314 0.21305549031140458 0.04251135273833029
0.3470415886411615 0.25281564678515167 0.13344389179573568
0.35371383240311616 0.26679383742097684 0.07150021675306562
0.3632761319260851 0.2609782236237663 0.09544737247344415
0.3685325404194657 0.2171262456925973 0.0881137718491658
0.3284891289447529 0.5859079387070665 0.1630192340922889
0.3440414720535898 0.2722099123041346 0.18525125595112968
0.3475609277239755 0.20701891201531453 0.11963169842664456
0.39888114381648165 0.25444610272766965 0.09813561478273414
0.34727138250923417 0.18693117783195135 0.017912417103801204
0.3838960663479867 0.19481324266126876 0.14939739204004354
0.36263319628503154 0.20223060155049666 0.038872858652325704
0.33890136853916886 0.1968129783287509 0.06943239678594182
0.3567409971989832 0.20171524724416656 0.08996703240566717
0.33587882784564727 0.21015759356401986 0.0931446111840728
0.40666750755235626 0.24212221356566488 -0.11418606931877662
0.3560927987737159 0.2002150189165377 0.14532455469543493
0.614160738131659 0.18555513358516862 0.10432536060618247
0.3749140841629526 0.22948352055691146 0.1543805536087035
0.3290227874800138 0.2615900704520584 0.10982662881272631
0.3176897187741048 0.22258330797616566 0.08239750324918305
0.3551854198574347 0.2566779371358052 0.11251687771769525
0.3062562678262566 0.25516881323797236 0.22523874107289998
0.38065378353155666 0.2696113196782761 -0.025088135171756676
0.368438836328977 0.2270335960297416 0.10539139741095482
0.3618326692113385 0.1997831329631765 0.07251378258871455
0.2990880865792178 0.23129680168008804 0.18243657547581904
0.31525682988679193 0.27101902411418166 0.1831901110964509
0.31938480407465875 0.2531637651767369 0.18254778864874766
0.3697826109975466 0.2247584971212575 0.10836679859968967
0.30849508816359617 0.21759789423165898 0.12283604903738876
0.3778806456581094 0.21683760241880634 0.06527958199674799
0.3193555872195759 0.24861294088181296 0.09876886838557652
0.2043342675115838 0.1989142013723324 0.0926578032016323
0.4001206439620546 0.31329567053128926 0.27636802901824353
0.3120438790016067 0.22247072470229057 0.11091423172584314
0.38783117418211077 0.20461804677692896 0.0009884838077880431
0.3426430822510582 0.23322564161645687 0.11685673601525082
0.18297773324358957 0.18058368885795062 0.11324786490274619
0.394558468498559 0.20021747549188262 -0.1372559887193603
0.37889796929609076 0.20537757403042178 -0.04503644062714329
0.34455281095125656 0.22107020430303237 0.08889246401594164
0.3100082874781833 0.1999562837969222 0.004797227430628936
0.4062505366170228 0.2470755956076971 0.01301323657403941
0.3718801296406298 0.2507083447322316 0.09729645157634081
0.3757914591143958 0.16492734825249045 -0.045118589888318184
0.3456101270448073 0.21196393702044247 0.07005889972133161
0.40175116961140134 0.2574545324794997 -0.05749479160776616
0.34642194504402823 0.20385672664794185 0.11544511063090113
0.3531367694197627 0.2306895266123945 0.11560534922188026
0.3173252078364186 0.20079022167277571 0.11073873992870631
0.4700748540780211 0.3955958878048307 0.5021941636589133
0.4428350210196186 0.2492975237679218 0.14594829064694181
0.33181727413131057 0.24606713564784854 0.13757500522132204
0.2888625379505356 0.19133169748052126 0.07769694817156392
0.3353648914556686 0.23000883593749677 0.09404135403401881
0.3941407260768415 0.22093852266601743 0.19456634841327514
0.3135530156674804 0.23040583080091892 0.0980932297672723
0.32613384198046447 0.22348828931583853 0.1310502703928762
0.32599772455512266 0.21592590108156173 0.08570771084211515
0.3619124011258066 0.2768471102818211 0.07906465747080915
0.42168248562657595 0.2161854919275754 0.12263319210977386
0.2858531494951535 0.25068741692513186 0.1815043904467899
0.34540941920297996 0.23340340165033524 0.10032287979186094
0.3512556534752207 0.1998969377683295 0.06632212780434088
0.3812000957003079 0.24438711834071114 0.09537778840859801
0.3870458879300429 0.2180320365715005 0.08332153017619248
0.2713000838130313 0.2060767532704375 0.11891001495007458
0.2255501141141707 0.19910211631375319 0.03245413564170008
0.32749199882175617 0.21108310864218538 0.10017943025228249
0.3419188515368319 0.22086244099807573 0.056950701213253296
0.360088491691414 0.25882062993392196 0.16131668709996916
0.32959179878136524 0.12639326604828227 0.006461558283092472
0.41024439543363656 0.2295997927137563 0.0976601854880812
0.33312152373017057 0.22955236816272873 0.09481325445324273
0.2954944734492244 0.11169012314265103 -0.10700254992426039
0.36610446952212783 0.234217949725803 0.1102371208709485
0.5074739924668563 0.11522694655951682 0.17664446797240885
0.30432283140349625 0.1873015302887211 0.010981201004142349
0.29442518359232395 0.19576332261527796 -0.006859516252774256
0.440923482048305 0.18775785904836084 -0.011375814945225216
0.3194775743064895 0.20089869284731776 0.21205691161134155
0.37327128205087945 0.2095345504488364 0.046829384988967604
0.38612904689955485 0.2602371070591545 0.06030453375579725
0.34392222887797175 0.20099180039395037 0.021037211729179717
0.36729053580978643 0.21941977989021666 0.04982874412826277
0.3655140483760988 0.25351477400938904 0.1176244854048889
0.2966138439253143 0.4072769151369613 0.5371704672799495
0.4451551894323984 0.26944461384624674 0.1755120618798287
0.31455516981894505 0.22975107430967512 0.08693867176732795
0.2660085809770436 0.1540785306983281 0.04725078721327236
0.26623796702253344 0.22607759509386938 0.06906693792879537
0.2889058952362831 0.1670001651479538 -0.003918978561657127
0.755444396551809 -0.6806268770677661 0.5318878359919381
0.31215714706233655 0.16349218091157525 0.19702177822540534
0.4759263524580035 0.2513914465566245 0.309780853086977
0.36920660363141167 0.21851720735190838 0.03300368723304814
0.4232982766435498 0.28806547621888967 0.14761047606634747
0.41230003125679104 0.2250350979701352 0.06948905422910912
0.42576607821698076 0.2749048970780166 0.15304760834514752
1.333559799008242 1.4600956535168734 0.700781235853583
0.33427448161572215 0.24108402183935596 0.057485356506333574
0.27095155925564995 0.23787384233864373 0.14771713465142966
0.2710797251605186 0.23157965614413456 0.21495199039944168
0.31241378445196233 0.21242019615178265 0.08639100030222835
0.34254039801706426 0.21705155450712255 0.08451744631133806
0.33853944787423984 0.31139153859027147 -0.007771238557751303
0.31480898236021915 0.21867063713722246 0.05705601055358045
0.34149926567096145 0.2642175482323239 0.12727512987675027
0.3381694200303542 0.21670970856011706 -0.03991033285434753
0.3651525568207603 0.24634446158432866 0.08913584983636724
0.36078660793259587 0.21803001888744689 0.09218099834392035
0.2619605703057033 0.20422170461802125 0.046963475324773185
0.3712216693888877 0.24487162545290175 0.09301215768778093
0.3331194621074758 0.2138836350525395 0.039371712169241846
0.36948777110956144 0.27814541534343107 0.06871006194772633
0.31825969328967574 0.2521020705649022 0.05974155052236085
0.3329165353526946 0.2212417988667994 0.1092943994125335
0.37588802501285556 0.2787916135696662 0.12421558567191937
0.26637447749388343 0.11389090961057491 0.17139792154469546
0.3180441977968371 0.19478090374667545 0.028041783306221646
0.35521022025380944 0.24620971355757604 0.144574576795236
0.34968923361206805 0.2854752707031025 0.24910561269564369
0.3485363166904847 0.23398939111973505 0.14667187649044422
0.2793239801742686 0.1878560423061515 0.15103690957212734
0.3526763062987186 0.2262435614644005 0.12151050981032085
0.3238904512484737 0.24341421527697094 0.07123904297591821
0.29113350394734994 0.22306958970631285 0.07679526659461544
0.33171599224219506 0.20836149003480386 0.059653226844289975
0.37624879740283745 0.23135674669327955 0.09649299562525471
0.30016826623375437 0.15878099238111076 0.0610215840921029
0.29097148385028504 0.1550505144810188 0.016507510476486686
0.348355404335706 0.23943100953363228 0.09776777027735761
0.3025399525486421 0.19248815701018884 -0.02408443553355255
0.3283272467688789 0.22904886036829453 0.084487523307061
0.4487037036079613 0.026812434498367566 -0.061618645869828015
0.3975151220972464 0.26779141134453255 0.17104680015810914
0.27581298617464256 0.18853774156109182 0.015181168849608184
0.4733162038469203 0.24894167804703216 0.09398923647431445
0.30494677097132694 0.27240744608377554 0.13697620654082243
0.3013527885363203 0.20433850148657484 0.0772144927913132
0.35848494049274393 0.21623276320312357 0.08278007498375928
0.4550321670658093 0.24741137447395545 0.06873040344613912
0.34518776465273504 0.2757403318550473 0.1680674864591083
0.3887622416845602 0.2477892354745279 0.12198030515133951
0.2999614016277974 0.1678216382426001 0.051779281162609436
0.36260949357745176 0.24567480234497907 0.24912039561183974
0.3279524482868652 0.18988639021831943 0.12699351678782023
0.4308788738524072 0.24474911201616578 0.10771294261544995
0.4182631928974274 0.22610170274052166 0.09897266142860417
0.4204729759629231 0.2592592441019548 0.16347823717939036
0.48531361284020136 0.2232323346225087 0.12667712633700035
0.3320046184062164 0.227253081453199 0.111335829961007
0.15815953471961564 0.13908911340044483 0.19988153841296707
0.45397860736773055 0.18239008744680518 0.05059364735760141
0.3492254217397317 0.23410713017426588 0.08502538253512171
0.31699689702863054 0.2203865227877202 0.10835950190104882
0.31773810155760884 0.20893867969067514 0.07008738394581826
0.3403908837751288 0.24582992935052062 0.09319222157662921
0.44088566699258536 0.2094043081782928 0.13980644867295666
0.27954832360950377 0.18144191565043855 -0.020272386299723166
0.4137022852085295 0.18346030699228777 0.02414467526254782
0.34323735768529673 0.2226736025414766 0.0938461326757789
0.3972125708286285 0.20280421179039365 0.1477414419455556
0.3772122175432173 0.2519767569149849 0.08355504814537085
0.313841212765297 0.21145306694856458 0.044052743290350804
0.3064002542028561 0.17694092327766953 0.0035144785526028954
0.09617443353860722 -0.4555865162535042 -0.21209999658572087
0.4248145652089903 0.21522973231267883 0.1542198798636747
0.5684476565280505 0.2407221844045182 0.20104549647814451
0.3609022013434071 0.2369903832542093 0.12166461530725314
0.32196826200214446 0.40378008026362977 0.15755230035382795
0.5169704416215808 0.20901869952513152 0.11639723875126151
0.3244993157760945 0.2196607768716632 0.10607079204189063
0.30899016835337534 0.24901589643917532 0.048695737877835654
0.33633096157467435 0.21844927899967104 -0.017578614468618525
0.2984258409546783 0.21229097961268906 0.050881993373536716
0.3615220457007666 0.20521185660906838 -0.07143212454687387
0.5986578241715392 0.29144069369704084 0.4735761090666699
0.35075692937985536 0.21532506002799323 0.0165300188913875
0.3569933535887344 0.25363291879202166 0.07307931014570102
0.2844765022661022 0.17352070976477307 0.08321436475509358
0.2993495151293928 0.21469269526235735 0.08131120575045259
0.5683470779115396 0.231080411896869 0.047553293438994615
0.2839898586403251 0.2995731633255332 0.1415931303767195
0.3583531581607815 0.19702792641471945 0.050810151868688536
0.3295551749607597 0.19009987987988097 0.07939324629577982
0.2858681366960667 0.1380631639686385 0.058150535164799066
0.4447449170015574 0.19580138582341533 0.09455026242878262
0.3080384229011628 0.20762902881438094 0.12262465205347439
0.3714013507302809 0.19143388309471732 -0.047597693632667415
0.3991325884917103 0.2147362568720439 0.0895376268239545
0.31005936897392417 0.29997991890761 0.22109181690822766
0.3638549161594824 0.22159024779614356 0.10155196805419564
0.31143045662736313 0.24245233041798997 0.1168830324540977
0.39425001171855456 0.15964561739286864 0.15174449715989624
0.3755881416350064 0.29826449182560566 0.10897843326473833
0.3649759242653374 0.14663327513983404 -0.030247028722897085
0.40522587804535704 0.14613325536706157 -0.14311601140171604
0.35206868773968836 0.24575176029192392 0.14794278865504396
0.33300084679194697 0.20905587905565426 0.030942647977838078
0.3363533622059265 0.21874675680876976 0.11585731195060589
0.11924085122799966 0.8115544474906073 0.6398913330458242
0.350475237527462 0.22291192754255462 0.13438771352385004
0.36268321710494433 0.21461476335403518 0.009631269741561255
-0.5446072095030559 0.3165115835650454 0.5784066297833448
0.35611116072605853 0.21968500222386922 0.09143188612506492
0.18670731491907588 0.29058168418852404 -0.0279199261218821
1.2418714404682447 1.4196735303483763 0.7165063913314924
0.3411402972370752 0.19405118687876666 0.059615233363416564
0.29671770832968036 -0.06627044690756634 -0.3235762556223989
0.3183555332530119 0.2643413514230417 -0.06290125455579698
0.3071678740349597 0.1875246640729813 0.012209170916491985
0.27398551829162443 0.128004154789636 0.022061522941442036
0.37164978827270545 0.2671943880649934 0.06212463452402517
0.3133278659872474 0.23915301021273194 0.14047753560616627
-0.2553871807034227 -0.2228945266244864 0.04062434744436416
0.38306724577724083 0.2898953289363817 0.3297984184899292
0.32861657796541976 0.22074022635030133 -0.00038948100687719034
1.231507499455347 1.4074865454183225 0.7148224652046338
0.3870913731783787 0.4235619966716939 0.19153837592094192
0.34437118900700625 0.16155195854186388 0.09564510225197864
0.3903519922864973 0.2056468178860058 0.053286438498247435
0.37208265457127254 0.20772336715333495 0.08267348985938838
0.38921464903563674 0.2854539177655653 0.03322868417933478
0.37646102022472405 0.2528618001626626 0.10911575592929523
0.36723941851556674 0.17649297207825043 0.09396184770453431
0.46313791427513706 0.06161440288397557 -0.07476158730575833
0.29959662760757055 0.18675996835685282 0.07217192784668214
0.3344676388826997 0.20710625250870862 0.1081233440200009
0.3373366130365696 0.19155862526963574 0.04689636413847609
0.32897237735332396 0.18886304788139796 0.0403562635007404
0.3431441855171329 0.2622655410012271 0.1350309573926438
0.33114791647682296 0.1795762221489241 0.03793389937300162
0.39219472158126223 0.16670770489069753 0.005374751399216393
0.38043595565031296 0.21620035458207099 0.004385120785570962
3.0184575671814002 1.9548881247447412 0.5402721853793082
0.3105879459231744 0.16273381191096803 0.03176618591845681
0.35403530883337453 0.2236415865052095 0.045892725282527635
0.3156976036498236 0.18999655672260474 0.09850962481384329
0.2678826275594588 0.3546251323353431 0.16178808772170328
0.31590542667629506 0.1808655459186923 0.044350469500969325
0.38121889384197516 0.21961706952924942 0.09840017285213776
0.35211716717213903 0.24553709178954364 0.13728501233805446
0.3222126963242147 0.176248279301916 -0.01298942381080792
0.33289424350179786 0.20857801841313517 0.10223491438026144
0.34290446775827377 0.21778063416137172 0.10495292115876964
0.2860496328079023 0.24405515198435523 0.20394412923083394
0.2022096647865368 0.20362911300082942 0.21331341259030978
0.3629030499228776 0.19826122170144345 0.02683250598343534
0.36767832325510597 0.23699927410602584 0.13479644709055094
0.3067021161476191 0.11107224690043438 0.05031467316689486
0.4716994145963298 0.23523457841912432 0.13929464698823324
0.29542153919175007 0.2350878469769384 0.09473994301268363
0.16615362173624248 0.20797096116058356 0.07550894209836656
0.3386404185016829 0.22445370010373722 0.09454257454063963
0.4023775552434472 0.23274488965542162 0.09435315090364327
0.298398747960988 0.19689165076820814 0.0030301593403549987
0.2948823796185991 0.20577418924710855 0.0039566265290744695
0.5570997130355408 0.03919406972394768 0.21275895798331135
0.4129386142965643 0.18529849929311126 0.07182242261436045
0.3792039531307694 0.2606792608546442 0.005419172105632697
0.4035812109553376 0.2620131540401758 0.10295483950048379
0.36126321331680344 0.28358185264717406 0.11836418829579998
0.4315330667110686 0.23464597344381843 0.13240640926697722
0.25302528469507024 0.33008329938934367 -0.03451512579655969
0.3483594784435411 0.21900361793166212 0.049155547102628816
0.1978585212388424 0.11455139845293161 0.01983036116983783
0.42363820525855544 0.22321571990748623 0.08752237562003984
0.3437480033733493 0.22336720851394887 0.08911621328491037
0.338722546519449 0.20326864075829576 0.05857587399026443
0.30551346006720337 0.32960148733715755 0.07732699070109561
0.4212237621145647 0.2268794606358 0.15693534959368094
0.38688683116501466 0.2862376009104821 0.20109192144866483
0.24858769847338635 0.21399124190742214 0.07415908704604135
0.328307209959803 0.19723803936585682 0.16577937709227797
0.3259427576395808 -0.4018980868553399 0.2726410155132015
0.3633965256683638 0.24483049274397217 0.1288727745475171
0.20000892456698693 0.2510559169406008 -0.10543709528606371
0.3338786203166251 0.16222697390412577 0.05004304805815707
0.3868484400727539 0.24268821681425834 0.16696100391465052
0.3114764400576462 0.19537318258068126 0.03609347990575884
0.32065402432915846 0.18741034462890127 0.010342422452779942
0.495782947959043 0.2698690961425996 0.16347055631202068
0.09261876404876546 -0.045715047215097115 0.11260010193851144
0.3164803293032037 0.13174952410358287 -0.028325503140678165
0.38782538323910387 0.260413883874719 0.145483855852234
0.2477453704449033 0.15087762761612566 0.0033767460235196722
0.2686471754389004 0.19046460408324606 0.045203941188503904
0.34662347937468496 0.22884857520108426 0.09178577009203082
0.34136593544599236 0.22574908678001293 0.06682133144971658
0.33167798779061286 0.25509172665135793 0.19986499802774915
0.280029016391822 0.20067486144249358 0.04222444673196435
0.30421696993644787 0.2003884156529665 0.07031387631332109
0.44712249689274586 0.2528712813798393 0.11715644778718115
0.3451834410674337 0.22729510847182155 0.07652554082986285
0.3413685443510701 0.18939795478000576 0.014870023497280727
0.34270704836959 0.33316622983429056 0.09815291627688794
0.35598235647910315 0.23328548839091923 0.09345577555544082
0.2476792036086124 0.18059697865723479 -0.07231713608877044
0.21184843380615348 -0.05745962961680107 -0.16237776211721666
0.3830165868460682 0.23774404203824417 0.07548086616003502
-0.045400362249324644 0.660642236324037 0.3897379532670726
0.37156898053476084 0.21575784436606682 0.03434812214197791
0.34419099943352194 0.1714697870206976 0.05033504462539895
0.37052924287473843 0.2022776500061383 0.051300734865236564
0.23862286525105958 0.23527563063558432 0.06726216891819092
0.5902483461683801 -0.28943725837419265 -0.14130464720268776
0.3865705680181577 0.1757809808703712 -0.033284197358327106
0.31847352378488836 0.1953985312857469 0.10936521547593259
0.2549747972822729 0.17138997470854633 0.018540967070578063
0.333786586789671 0.30093981815460324 0.10282494965491651
0.3087560722162266 0.22673638614278957 0.07299071138032787
0.4473601489569887 0.19792596148062103 0.0033808707243281333
0.24606139135900662 0.23182709619172215 0.09776620758552212
0.2738442258055329 0.1978617911942422 0.10020729730038624
0.365965608430713 0.2350292495196129 0.08398965870807729
0.3430349651481208 0.21971526349497594 0.061446091678263315
0.3685146364547194 0.24574260097674028 -0.03730465500055402
0.3221918836061235 0.23237317125942525 0.005909617862116079
0.36831239597856325 0.3105909493491197 0.14500078511451875
