# .PCD v0.7 - Point Cloud Data file format
VERSION .7
FIELDS x y z
SIZE 4 4 4 
TYPE F F F 
COUNT 1 1 1 
WIDTH 808
HEIGHT 1 
VIEWPOINT 0 0 0 1 0 0 0 
POINTS 808
DATA ascii 
0.36053099430074553 0.27000011400276946 0.18452596081742456
0.2974416134258888 0.18163787669331555 0.04186675796864847
0.386847341067039 0.15978099319426065 -0.15959413300505787
0.3453824953702451 0.23659820537952214 0.08803627414835091
0.3359463127087281 0.20319711081933178 0.09621195851292441
0.2390415304870146 0.37053203687295877 -0.042825203839313986
0.3371603903562317 0.21870245261214905 0.08034321714409032
0.4407628365047884 0.2732630066345223 0.15667270255957533
0.3724622220911584 0.20641325645955533 0.10473181904943374
0.25421904130352857 0.15157181641237116 0.012761821307691434
0.34870017827181243 0.21613559926865378 0.02470993273499289
0.32064988592460963 0.21227601979757083 -0.028010484888000065
0.2425046960499344 0.27400353707051295 -0.0009008912063421803
0.329988490726123 0.26334075797500134 0.16300577501965563
0.31162115737998874 0.2780144848868389 0.14160878553644807
0.6089248011248287 0.13862383589783178 -0.058630171683788035
0.38518071181800906 0.22488197072567573 0.15698842194450435
0.3603292077939102 0.1638876957359514 0.09194102820063677
0.362365675658225 0.242787343785011 0.10959185898732926
0.27111127471130203 0.1440903146252026 -0.01586656764493455
0.5743824558788617 -0.09916428653863818 -0.28828521874550006
0.39947407651186495 0.24401136969883908 0.13509863267559297
0.6762926624620036 0.06895757178018869 0.06566361933336395
0.37830212375789074 0.2517315295519893 0.1398213513699318
0.3706919042687389 0.2839038180055695 0.20571769507321847
0.40046043080388927 0.34307348884027533 0.2734796502990946
0.34529671881166735 0.22744196674437944 0.1191430559087081
0.33406448354757856 0.20442147666830124 0.08269227252358746
0.24712925716322331 0.2716392178131741 0.07466365261996089
0.34643173088787194 0.21868664576470564 0.08685650495495167
0.3719922113953942 0.17498404698429226 0.005726465288972804
0.297709517529853 0.187094921865679 0.0825707354992744
0.311746553616544 0.23347308417663726 0.046547509540801
-1.4818187232957882 -0.2750861502255333 -0.2842802868325691
0.3363696990639937 0.22328582713808487 0.09955536253718833
0.1935265561176891 0.8272602240687661 0.08188137210737523
0.33897966777456645 0.20839012894961684 0.06718975151656537
0.34230091146616815 0.22167654995575958 0.09849137970931565
0.33585543364449677 0.22375418425889393 0.046198305896155034
0.29713774735193965 0.20615558306199944 0.08958693319071642
0.30173277741388915 0.22327089006194 0.0917542774562321
0.35332451260705966 0.21711988684781147 0.07755412979693688
0.314207707381712 0.20533137056690975 0.06744517883473122
0.3955311095951686 0.20222967084484367 0.03390411134019189
0.29457766199249136 0.2937056791567443 0.17735380602290718
0.36362096767442154 0.22965050560753753 0.0889810256230561
0.3587579336879827 0.2374891063046931 0.11721958820166378
0.36589025113065077 0.2479498908649873 0.1673670836321861
0.40097328011080435 0.19376262507185515 0.06319928794604834
0.38480409478053446 0.23131729002798807 0.1032041635917551
0.31265066757795523 0.24789548621939161 0.0853759587026417
0.37581319886999154 0.24590174751023142 0.08831492374009997
0.35305809802005683 0.2568687407075174 0.20897497938514675
0.3417303904211906 0.20927081755385757 0.0511808849165476
0.32689086698682956 0.2456696581083122 0.07724984867152784
0.36682757596263116 0.24251710864132292 0.11502531541688654
0.37538508976342655 0.22203573953278521 0.12293836532289504
0.36560841892872986 0.21498451614797887 0.02024859547097435
0.3538055948892662 0.20762946676381944 0.09256635068950914
0.1979372557344874 0.2228803229529035 0.15460636468013433
0.35246580239535774 0.21819686871197064 0.0939549781090534
0.2656945652664717 0.22502374372372458 0.14459693643306082
0.3963242802185789 0.25095613065317934 0.11366269974053012
0.21559236514053737 -0.008982165914375173 -0.008556570969673771
0.3082715148598538 0.25616007478716085 0.06627914163721016
0.29150490073398316 0.201736050663186 0.05371137780869617
0.4034999233470842 0.41490768030969605 0.31867690368201806
0.35626558709194 0.22915904481371285 0.09963134699142984
0.26531046576462813 0.21743281960632999 0.0556095240947343
0.3182717188369395 0.21450827066556144 0.028490426935974256
0.3543571311791993 0.24191207328999553 0.19687075187836456
0.31466773014844307 0.1983417069316431 0.11486267443964948
0.3396850092312036 0.19495826515165504 0.03487162267654753
0.419749286012177 0.2712596885502876 0.16923677628366818
0.312224328181145 0.23932454721084184 0.07950375048082492
0.415059743946415 0.2711100678025957 0.16317993222540395
0.41628870449054034 0.24581028003015604 0.1719855028780728
0.3858305310871373 0.26060777633492194 0.11283638397227946
0.20070065876936383 0.037484407399617226 0.045739637664695465
0.4497593191867679 0.20094085618023882 0.018896112440444313
0.3689507861723058 0.23699973832498245 0.05895910078075417
0.32687503315742106 0.18944476471153848 0.04996534732956093
0.2905326432377535 0.24260914197773786 0.054562485995703014
0.39016818318845026 0.2061056004964712 0.12653413805391267
0.3123326994116269 0.22386450038240469 0.059370814692130125
0.14050580222084363 0.18520830316367665 0.2958373040840314
0.25009471773634573 0.181192609667022 -0.041512223530190795
0.3393696343502768 0.26499016330404856 0.10115009434028366
0.3935512565629722 0.1940754783240095 0.08601075501948685
0.34935162125950114 0.05687772069533992 -0.1396037442736997
0.393539532153909 0.26527273432191123 0.10804790762233552
0.32666046461264386 0.24554622517000269 0.1003464913795824
0.30141551367808006 0.18804733403521823 0.03806957496726682
0.27190366627692697 0.12816201262562288 0.10300762328634505
0.3156288399420504 0.20889787627885426 0.03248960008150448
0.34932378719591384 0.20069106809775406 0.05840577062775765
0.2471878988740457 0.20901879417721148 0.013648397838124993
0.33113383148541686 0.22816518978017086 0.06564926040820751
0.2887543563180941 0.23097581712937654 0.13395635454810417
0.3566177184298738 0.21894712601996957 0.09042449581517076
0.3680569398539433 0.20374208745111844 0.0786332023670866
0.40248609844658745 0.16443025127742317 0.07271094251746035
0.2677562790627661 0.20627120060052562 0.03703799474394032
0.41073894155506707 0.23967651945342539 0.07318627924141197
0.3501852126121321 0.2208680055288994 0.08447774186123524
0.25780519892214215 0.07638308461314125 -0.10937956067152754
0.3713881751026804 0.22304529423431063 0.05315763701057108
0.13968850672492295 0.30092796767614516 0.1670446190354795
0.276705354911968 0.20000142231842233 -0.004651410858656391
0.3572072584094599 0.21889629426112833 0.019354862551281826
0.4812058573503464 0.11842451351995464 0.16616036603389261
0.5019388603742811 0.22695534397198003 0.13478344985463764
0.31573319735679206 0.21290096576650797 0.057755192252031406
0.3613633331883648 0.2205990475621462 0.09112992954609922
0.40884677958908355 0.24025537062527746 0.1297516847407394
0.3657492636725692 0.21270335147244168 0.04814741734628569
0.39312388942212806 0.22985987916882777 0.13731779451308057
0.30054218743836714 0.21248257009341387 0.0019130638258673116
0.3060262017791189 0.1879445677597289 0.08952468740369568
0.33117336496650296 0.20080953674749935 0.09813242366894315
0.633278465093781 0.3288210349831786 0.4458343380882326
0.4188974711423299 0.25057698183856303 0.12509326675812815
0.3094252324760589 0.21382271593581947 0.09304269421055267
0.35187030922188 0.2162064089114324 0.10458704951435038
0.2953333092043806 0.23751879343184612 -0.01505127825889474
0.40922280294677194 0.22108297128220045 0.11112437005903075
0.3427608769566177 0.21919988013885927 0.08530280925589295
0.3882445373533727 0.3895741269956545 -0.15521385946027522
0.4897745433503218 0.3839326499721665 0.19066103951729474
0.2597961586561439 0.24617189658596317 0.11241828996807612
0.27995460864644883 0.1992149101670151 0.054515982558157816
0.32994548529254075 0.19012229975346884 0.11007821685728914
0.28378358595159625 0.17796147844663324 0.12595081925380214
0.3441830077917416 0.20439526600702607 0.011884442506840287
0.4009310656733618 0.1618932948752274 0.10572696811055948
0.4155275540755383 0.2701161299164312 0.3003074628769866
0.29188745060639576 0.23052777753535736 0.09810258539141614
0.30076758953737226 0.23478497241937646 0.14605870549161182
0.3778982810015492 0.24677238370900056 0.12481607701546693
0.45990472796847826 0.2550342142309887 0.018121842424832835
0.3260362341804921 0.18509455173933986 0.05550587726176559
0.3634217933937691 0.21699209025595678 0.0069782261834063775
0.35228520718044365 0.23469951071928108 0.07970655873506871
0.35646543993300384 0.23334846382655883 0.0711380154164658
0.30378035689659555 0.23076530452226507 0.08196142925578442
0.20395003476286888 0.18855016393720803 0.03514404944934313
0.3337338134504364 0.20606385002335514 0.14743170989957832
0.30011814184703667 0.2117280147913192 0.08833050883592364
0.35324367023902425 0.22654641666574094 0.08949260435744577
0.3484529324086907 0.21573251472165111 0.07745353334340166
0.31048724419079576 0.23466117843486245 0.06961545940140468
0.3449264416874769 0.22551303444396353 0.08649250713989431
0.26596919599501234 0.194519705789034 0.10641933811658078
0.33466647465064625 0.1762928605388936 0.07596736494997458
0.32812996735302136 0.2274510223256243 0.10504668165853559
2.657350825154438 1.3340712391902514 -1.7091179721656715
0.380795937346619 0.20968646788158196 0.07723034691680652
0.37184432068949036 0.2048278098771732 0.11944439692067021
0.30278207060368345 0.23462171677357446 0.10577172256913059
0.33903377121833955 0.2554399525930364 0.08668783601422092
0.526696126064337 0.27072858333133354 -0.008678272944848686
0.3203952592658368 0.18610515657888982 0.02465661154005261
0.2797241066122922 0.19820774757897652 0.028550945940480688
0.3557692479303114 0.21940598095081043 0.10823877890575773
0.33613025925390616 0.2311037716987414 0.18429598160420824
0.3667060378006681 0.2180529365027155 0.09775097885599848
0.34899370184331246 0.23366570195312875 0.11446559857949978
0.39517690733779887 0.22031039964301158 0.10490911918657275
0.3925265608737334 0.22068592082082716 0.06970229158153529
0.4219303737159521 0.25033810948258406 0.21582369715980576
0.29884953099249856 0.17327588769362023 0.07964435967440409
0.3488289632895061 0.2241229331906709 0.10356463154101903
0.2883896275890834 0.18239103783669464 0.03564012703029107
0.32235975630123903 0.2044745779286643 0.047321439882892946
0.3858659899433974 0.2610246376435157 0.242047074940956
0.36782628929657335 0.2571045334307769 0.10509134921089469
0.31467128242626075 0.19770974559119736 0.10259328559456549
0.3487183148735937 0.20254496942405353 0.06404708583181673
0.28080725547233953 0.32110794095623874 0.17247666838295572
0.30950627410835807 0.23187925633723694 0.0786094687582164
0.21862692575489007 0.2358532113975116 0.030396965636100504
0.32441536197021037 0.2000102357805531 0.05775727338996717
0.418112488722727 0.315692251968116 0.38985477051502926
0.38959767364386266 0.25264777591505094 0.08916748249576756
0.34120107965443935 0.21911005477886647 0.053988456023716935
0.3012332696979172 0.2508842164553755 0.13196560633093668
0.22468403553557437 0.17166294691263317 -0.028690222883398064
0.37126848829247194 0.19563977898494045 -0.01451937873201814
0.33395077608599877 0.2317625120336686 0.14884706318065355
0.4401323095527516 0.2751788970383444 0.13753045691450438
0.34428684350970684 0.23272281730541522 0.12722051958726865
0.297529119724814 0.15289824749392267 0.011237840748762551
0.34533792288021914 0.21522939512783523 0.022866430890331912
0.35469639183085633 0.21674597257289463 0.05147876583673394
0.2831336545590517 0.20227305526751138 0.07217250210635484
0.3260097194578009 0.27753835702966967 0.11374811191194567
0.34240530223083 0.25310491393614143 0.0805530418379874
0.23769398687238663 0.1986281742482845 0.07936385790583245
1.0839808892141036 -0.26185573778028015 -2.143791552106535
0.31133072966247255 0.22289018422981144 0.07018423134968543
0.30784834578625464 0.24399748072306693 0.05858404512086679
0.33827963017418483 0.23431520416026785 0.15719025505106288
0.39216835325471777 0.23454276308092403 0.0890781758322845
0.3737477812772454 0.17157428301143796 0.06390660840332885
0.26381425438623296 0.14279862884647798 0.1310709165783095
0.36856222957959517 0.20291762412554704 0.04401979379082377
0.3296462111423466 0.21998161638431668 0.10226207913089524
0.32861953147889267 0.19113779476968773 0.094419256872186
0.3949501773861641 0.2527183730337157 0.11450472093370934
0.32895548689984366 0.24915345462235905 0.1467263309941984
0.3332735243443068 0.2872841679224223 0.07455959008976265
0.36571304047632225 0.2075466145283542 0.005156262561740732
0.3670821841155316 0.21203251471979456 0.02904944615025329
0.44516475565031044 0.22770784023657598 0.06267475903882769
0.3610261693384018 0.23253513465613196 0.07031694495688612
0.34982874528324714 0.218147603605928 0.058068633004154435
0.3383916141362704 0.22331356492573207 0.07113132479216233
0.35071662017232086 0.19721729222325735 0.03895142815059671
0.34584129665631735 0.23930902880601934 0.1432366749072571
0.3491151381271749 0.2162928647334894 0.041563532255821656
0.42259355772628737 0.18521523023072461 -0.035158316232909215
0.3941822552607448 0.21258386851559408 0.14212396739304722
0.3042471012262524 0.20137534398199364 0.06551291637154577
0.35966583951341136 0.1691940529812257 0.005165670494079677
0.37151152779608765 0.25686457766022386 0.15572065621594788
0.3707530760841564 0.2131170208679265 0.1251605953879391
0.3695147836436945 0.14667729758247106 0.2475569067931076
0.35623380454849496 0.2265362476173607 0.08758690744605246
0.16892295480715802 -0.06010341977221856 0.04643739069797448
0.3815467217051207 0.357956580048139 0.1483473884745905
0.39998922160077655 0.22936109728965448 0.11081383078229123
0.37236569275864895 0.23161631755252188 -0.026608653778936286
0.36656461594705547 0.193408818315703 0.0666481349840069
0.3100879233551268 0.29598187871027903 0.2007227201607975
0.3181741217908467 0.18548802440733425 0.024488816101964517
0.34474041430286206 0.23453995411854578 0.11514888119174316
0.3525933394286369 0.20314032512146696 0.20973160097680932
0.3943204163908831 0.3297805863965948 0.28293835097095155
0.3400121245982177 0.21405218724916608 0.04105783512926564
0.353355594797506 0.24409375534710875 0.11188046263347928
0.24420687968333255 0.21644625629221537 0.0774573730393513
0.32315104680998274 0.18430058287988516 0.11806332326415259
0.42433717137765825 0.2189489567162326 -0.022642609551837722
0.35739624569880846 0.10004193721900378 0.03490120206927827
0.36132612687214305 0.16505112668346555 -0.07140364415616318
0.34504780966000226 0.2156587404392809 0.09314156475036839
0.4209786838676308 0.207233344557892 0.12823851715513968
0.2961306567038946 0.17962310948435345 0.08104857695371948
0.4166805711283388 0.19748980580385478 0.13546348821532206
0.20624515021894751 0.21666934933273296 0.07361313460646102
0.3705454154367942 0.2687736286360831 0.22024185259662943
0.3221223671193627 0.1871783801669693 0.13550919061722766
0.25868019844203616 0.11554756334270166 -0.009873891867712814
0.3493808582639275 0.21185811626790496 0.12190515961415826
0.38896609844258023 0.22866462393503184 0.11415704669703075
0.30174141008788524 0.23274556310738603 0.1043123810862312
1.2553981469636994 1.4826983816262782 0.6809150056663498
0.29808354610040055 0.2504923736689051 0.15218774487624387
0.4862665178475254 0.23584064599162957 0.12315762369351546
0.3682903898022829 0.20294222845558352 0.06032189300918844
0.3313587890293661 0.2517717974664606 0.16706274390841713
0.40125691120614704 0.2812635951622582 0.11079731294752548
0.33913983240312007 0.24064809277535915 0.12949546716836835
0.42377316842130597 0.22929530382739927 0.19884966122199899
0.426939343387744 0.3752517709263117 0.24772050545891489
0.4641551306926033 0.2395979023939816 0.17365818737451377
0.4457776741400039 0.21262843272555187 0.1122871052179164
0.2888608817562215 0.21007984488579723 0.05273560185176507
0.36002121292514744 0.24473113671147928 0.015639498442979516
0.3382843400717661 0.24294983738715814 0.11773629430862798
0.35912757725404276 0.26543538636198605 0.27828211894407673
0.24023826460219766 0.17211448322530032 0.02214648785815143
0.3641917337568259 0.24383294325402005 0.09396440433056341
0.3375193265163432 0.24101582264609078 0.10699897956899918
0.3534792006561247 0.23349370627803978 0.06468370994096517
0.3147781077856848 0.17068418053294465 0.036982171780238104
0.3532978032204426 0.2582294780976184 0.09066938851157147
0.3676096826346793 0.22660906233227252 0.12499269988907713
0.3416760662690592 0.28613285149579326 0.07959967398241474
0.27199290390740316 0.14162147770895217 0.005176949138274267
0.39760435400198446 0.25062829399172415 0.12666639741686936
0.39773449089776136 0.21507145084551382 0.08997997818747194
0.29564240967599176 0.21040279883234803 0.04942009406013881
0.3842661708614088 0.2594864888801851 0.12144767552416624
0.2952983282759476 0.19724249377128444 0.048407492499052296
0.3994799886419287 0.18441182264942313 0.1717081194410639
0.2683821034484737 0.17420597163322782 -0.23285421544906626
0.34346463539402805 0.21940883560874624 0.10488203998139056
0.35733008791383725 0.2082585056228652 0.10139971807558368
0.3286851021879613 0.22424201885728223 0.07616188238527855
0.27488661375281254 0.22590069810718205 0.028553159713823106
0.34884571963910105 0.22890267732832115 0.07163142363131669
0.3626168806896999 0.2343256803704037 0.18359402523864787
0.4525992104980361 0.2811099733054334 0.1283426594891779
0.3929955811114212 0.2249028568398046 -0.2144540806669255
0.3425621168031938 0.22899841195292936 0.07190227208120348
0.4424275030702347 0.27272786612984135 0.13723612711358157
0.37415298153327115 0.2474484280542839 0.09032858554664358
0.34956850383227334 0.234529307558077 0.05494006241613647
0.3346969213767892 0.18365791325398106 0.07608882805379835
0.3661614910599269 0.208156167545809 0.10729290404357528
0.3504666121230855 0.20500322385495906 0.08990606814811031
0.3667070305762934 0.229319377433427 0.11223040381588589
0.34330139750326794 0.24356632580689563 0.15547905461465916
0.3401793988167867 0.2273086654454488 0.03161236137836454
0.34388426304533937 0.2240127684933384 0.016096432474427047
0.23613565109626222 0.18983413983943365 0.09271879466068356
0.36720817072884415 0.21557357162727442 0.071011408729305
0.4630919822621422 0.2692353790191788 0.14657921302804766
0.3741753270772392 0.19133939586652104 0.0206567684098502
0.37289132229909683 0.2565623937078101 0.10857297323330783
0.3375259223900571 0.33348679077283805 -0.17830440127877978
0.3934112201884403 0.15908509489941025 0.089646860968287
0.2850104427804183 0.23101747345931756 0.018930664889538207
0.5316903300222151 0.22150315415728983 -0.099019424500284
0.29112145347939133 0.0822270014735409 0.29635525928647155
0.355139199761922 0.22655080930195481 0.07797196922570038
0.2789861248656109 0.6428506707071051 0.3449079963693862
0.39434521464698946 0.243954224306691 0.18774416052875154
0.22582131084190848 0.13116832617475893 -0.033635154083356156
0.36519782882415086 0.224846631740661 0.08905427704975466
0.9079801788261648 -0.8280852504603047 -0.5702682080765271
0.3454617593352509 0.24924744924349795 0.19416491718709494
0.3698216894339339 0.17574651459598556 -0.05457702354772209
0.33764110372098344 0.23084604732227376 0.08338190029405723
0.31298199507165236 0.23830741165807012 0.11430748274725033
0.48284766750819585 0.1592344565468693 0.09718378594268984
0.06253539221597748 -0.07932072454140382 -0.3027305797261022
0.07445197219794863 0.06180626781181786 0.032031556218498736
0.39286361357699207 0.2305317359749921 0.10856156378275728
0.4753064499503381 0.2600848002386158 0.11077468611176755
0.3555750124923236 0.2222642003606694 0.052326465769994
0.2763891852010829 0.17910789289956597 -0.02919184591168289
0.42518174711014467 0.22658154999550106 0.14986264064624777
0.3668376330765426 0.21653925307487043 0.05465728522145241
0.35171948495353433 0.23240750986269632 0.1523542810128049
0.4515646836002247 0.36096877244796133 0.0995878876905465
0.3521665329021175 0.23742928333568614 0.06861346073429786
0.24105699795792646 0.2583145729569196 0.19411069675658155
0.3423811749183301 0.07077913705603578 -0.49247498172510973
0.41855754909840925 -1.4218169332445427 -0.8155311211106806
0.33500473590174806 -0.008742486595480159 -0.07546929547348213
0.3522073835012236 0.21358011981530467 0.08135204148288722
0.27441416695813814 0.20380782997416702 0.0689658741054302
0.38194782778018066 0.2577543189210445 0.192888359939829
0.2565272558967848 0.26996204283511815 0.17372685816286548
0.3222618815067335 0.23696797303773565 0.15366068325791105
0.39220637891028787 0.25919968380597425 0.18996656389984423
0.3593140833047954 0.18217557400539874 0.012218024640148428
0.3686817483090863 0.22438202989859235 0.12711083766083675
0.36771186312483906 0.23371588626983453 0.10715481690965589
0.21461467573288928 0.12088866397225217 0.08068469051710281
0.14624267293240223 0.16519211811790058 -0.03071034989292798
0.25870276905729384 -0.02576178184614264 -0.020643377871394364
0.3320254558676652 0.271035717846388 0.050986122150959545
0.3526273532293942 0.24888550047518265 0.11899969641285679
0.3416715452404162 0.21473456842259964 0.05899693775431558
0.36485057540681964 0.2209576990486397 0.1147330126751882
0.4001403654046243 0.29602101827805427 0.23870582816300612
1.1340314890663024 1.45319487320738 0.6461388032403619
0.37767805540713084 0.1766560369581498 0.042684354064505214
0.36301705644046933 0.2597371624718505 0.1954290724624741
0.4715521893027699 0.24322826039086465 0.16207297720779934
0.32375475656786534 0.5192567832400812 0.5532264800365709
0.3476617537072286 0.21327939659228434 0.088434545407722
0.3196785195567031 0.2155765894699897 0.057224682957297546
0.2737087650094594 0.21260512470902881 0.03433051321313485
-0.09586898816843359 0.6572754780195851 0.385235061709011
0.36229938685266916 0.23165881497529028 0.07715771271278982
0.328003290820746 0.18960712310557426 0.09445127399936837
0.39315955296493144 0.24432912764217463 0.10457639024510001
0.2613827890534708 0.20265392691189277 0.04497283409959607
0.3439743540108111 0.1716022532560828 -0.008239170260679884
0.3196489763425916 0.2217905068213497 0.093194869203586
0.4002692880974337 0.18125129225884962 0.17381770657392792
0.3367565843485636 0.2550381554194132 0.19492352577167082
0.34454647215031287 0.263560882082956 0.2062554380884194
0.3818788775541435 0.2097488270336214 0.025587003587190793
0.35062122264498896 0.2535933468265341 0.0070518744846879144
0.4909179684216838 0.30657099536689714 0.1770102531761495
0.3899705320161786 0.24577230308850062 0.13983254834610648
0.2947200210349479 0.2077367348555299 0.22334235204129982
0.3119272680380334 0.2039378218686636 0.08803315802313705
0.3668755158293493 0.20901019468948334 0.19960241968813364
0.3202618019596173 0.20601622795629737 0.01986100396952395
0.34219668165118833 0.2158634244981954 0.08941087213935361
0.3643671018375869 0.20448677721083186 0.03638914663962112
0.3481170098703501 0.004896899771608787 -0.24143182353468262
0.3196449434430235 0.25187703798962957 0.07303338940751303
0.2800808282173648 0.17296286549893125 0.0210400715384651
0.4031012566855452 0.26681769700718405 -0.01242691856882061
0.3583407786747159 0.2310993031522912 0.09362993034190481
0.3270333315649907 0.2461592856742243 0.050706596555642136
0.3680156729486157 0.2357947995643883 0.09158054512553804
0.37430847494545105 0.2717926534551225 0.07872467787373694
0.38881765932762846 0.18117805871290216 0.016908404393575438
0.3482784342570824 0.17839054212116423 0.04993161094860454
0.31667041926817774 0.2022121303682809 0.07884926154373773
0.1591943631420918 0.173876048304777 -0.08174221040300722
0.4352621600847755 0.20281443702893398 0.08189769615668752
0.2719564661166487 0.23784655052799053 0.058366980346903574
0.33497524753082075 0.18956010338280294 0.04659093215423127
0.3425036585447856 0.17256293191451277 0.06261246848404767
0.16041678922512403 0.09663087361343514 -0.08524927224790702
0.34555025264060646 0.22468214134337927 0.12254631679442696
0.5232516027184033 0.2475059241712927 0.14386676584132374
0.3618305032688056 0.2551493838527108 0.15308912644431416
0.34351950098916006 0.233934458750781 0.09822041020845518
0.3670956905269236 0.2209977015315303 0.12427925571883236
0.29292611139482005 0.2847344649538286 0.10728102927191685
0.3969761683051445 0.3106294645107113 0.12625739831821647
0.34329244879381804 0.306238735596537 0.13392410779135844
0.3522092700114712 0.4242433689081935 0.3170547159657815
0.4312578788195083 0.1901773122134216 0.04701540032343132
1.244605667820565 1.4959818203648183 0.6825426033294519
0.36605801690791395 0.2434943205446416 0.09803695466874274
0.5624942487394406 0.13907025148104424 0.45473333227609203
0.35882700966959646 0.22079990758568613 0.08218697491474813
0.3541385327762612 0.2329496336617325 0.029064905079792425
0.25007458561296403 0.19757485850561807 0.021398189258547973
0.3200980196355374 0.21602342327145152 0.08306445963444276
0.3984551961562346 0.31022257610857196 0.20169843448609015
0.35225610950882924 0.21735184189478218 0.08386642701330516
0.32559308010135624 0.2189186343489098 0.11969994341242796
0.36378562901373357 0.20834273715576046 0.11009779470157355
0.2932063783508454 0.18692063028964867 0.04051397189040529
0.32732064898567614 0.20102393011347885 0.03644832598388348
0.22360570491730414 0.19117651819988168 0.048191535307338995
0.30017492542356194 0.18935485622100146 0.1156223099935687
0.3560310588528779 0.20000188118140727 0.08423858683235608
0.3597095613886694 0.20739802197762458 0.08468470884903923
0.3444725231184549 0.2774501349852869 -0.06685430336517584
0.42120999127708103 0.16025327396238254 -0.014007766575033997
0.3348063511087389 0.24018138543947032 0.09348190374163323
0.3425039467414308 0.2612167976326134 0.12225298545783403
0.4034145580484392 0.23364892695400385 0.04339619654666649
0.3352594788863712 0.2580036571339974 0.047112772766041644
0.3807458767501686 0.2702753431190672 0.08591728688600142
0.2962591586256025 0.2090245595217084 0.08008563950613734
0.41550342588055855 0.25845039974575457 0.11517508726733183
0.3510640340448674 0.21331921217452532 0.09376892112312873
0.44793928321684007 0.26828164650166286 0.05333541457171975
-0.09556487448043072 0.44070406045787536 0.8928978202911964
0.35445468054263074 0.2082051673490639 0.05375500459579996
0.3285579931051643 0.19542350420715593 -0.008041130346896352
0.31653078545255653 0.21406797950149326 0.08577708275669238
0.37659630400203525 0.08345908847726946 -0.2462296801563184
0.3103717577961618 0.20436298966669142 0.05469727626513077
0.3318024556958221 0.22692653820089959 0.0740785905745156
0.32218351834666237 0.20961591786397094 0.08463334730816996
0.30595825554495093 0.027580293302605696 -0.5200967127838112
0.1651820517697189 0.17511998275269036 0.0902358231959397
0.34909560751549407 0.22137801369805743 0.030741230710702894
0.33316514566661226 0.21065326067098056 0.062202307543458346
0.38922168423835046 0.3033608649063666 0.14191179244777175
0.2902688289623825 0.2131943029505976 0.049498180948233994
0.547898560287166 0.31205635227871653 0.1443526488097575
0.303184212250045 0.23413922099013007 0.08145356402746984
0.3549923388377465 0.18956627748798383 -0.012599163614282816
0.3301472628886444 0.2463170577256335 0.09579124896764313
1.285503516983269 1.5123312346042894 0.6351037738960486
0.3518009209118702 0.1856821060065954 0.014140279911828202
0.34866906685697074 0.23331735558321043 0.10140864829506313
0.3619281356604773 0.19125623984299978 0.12744708243587866
0.33399901887369765 0.23124330857875464 0.09108055630066758
0.48291152185410624 0.17757717607628365 0.030251525685969227
0.3502672588498257 0.3117553068499035 -0.0399784466107036
0.3482121018008968 0.2269645876440478 0.13584996839981045
0.37756721121454007 0.22419223333604066 0.07032757211945295
0.2611060947116357 0.22681925988290175 0.03741251679602442
0.4185207735962848 0.2795739372076298 0.12426294069018695
0.5094434562928285 0.2126561601618846 0.10595332350359854
0.3619014855531191 0.2820041104327231 0.19912781994770512
0.36689032939322885 0.23071054860793083 0.13725593824894133
0.33905983869959755 0.24825462297795298 0.14826877845953845
0.3347344983257585 0.17993481747132023 0.019722299334461013
0.28726167519917567 0.23811987077360186 0.0812944934107378
0.40526229301546834 0.21911043036368483 0.1305022513278118
0.3210171462869198 0.24431624539079166 0.13742898283248905
0.26539828954821587 0.14637183688930122 -0.04089483454170306
0.35947473880185044 0.2508611822989053 0.15422137422103788
0.5007585553899219 0.36928670344357784 0.1723475788031692
0.33561768366828915 0.22390967945537454 0.055779305760580655
0.39457088582580013 0.29040626879051956 0.4828821930385061
0.2914270215455588 0.16061052464411318 0.06698528913283042
0.3060558207481563 0.13604742758494126 -0.03772141179591415
0.36430851784948004 0.27117903341300575 0.1284660080531097
0.2846847261429559 0.20392592739615623 0.06283940239791264
0.9380278975105796 0.24549986588854722 -0.25247295404544445
0.5166954146041434 0.2442137586755564 0.09009079369114659
0.3746829010709405 0.2222459747807477 0.08877602849769062
0.27410804515764653 0.24681874303654183 0.07155767283468606
1.1738919654980293 1.4569903701847409 0.7009559456593308
0.31997958648300084 0.19321052138678851 0.05047754711202401
0.37824817663970123 0.2449073470405949 0.09690282388835669
0.26561472707743405 0.24109322941410483 0.06593719249099195
0.21537433847045406 0.24468656806840272 0.09494533448973641
0.2894871974401667 0.24305300641889005 0.09860217528770931
0.3347241169744848 0.3959001573883114 0.11797587945858368
0.38808637996763196 0.2563922272847208 0.14624508969119177
0.38108242705243356 0.24914294861056874 0.14782065014105683
0.327733874758394 0.25626080621682945 0.05155355810762785
0.36084079331001817 0.22030727229054037 0.09476481895856637
0.3630962632925048 0.271533006705738 0.05268400546913199
0.49939222392634974 0.18540178880631686 0.14419355941693368
0.30369080804361204 0.24903159198376557 -0.014410288540403826
0.6480221349241901 0.30026322361089797 0.47613089851711266
0.38594436670109644 0.23280585464900128 0.08881310488098393
0.351284048081169 0.20457594341453955 0.08912545820106743
0.3716974318307962 0.1885111532970143 0.09662371732926545
0.3657077017709014 0.21886101219256204 0.07771010822614244
0.5663941833635704 0.3061250432192537 0.20683175030205803
0.36750119793191516 0.21605172813298168 0.07481420581011378
0.3645454589766359 0.22626500571766428 0.11252147670280976
0.3090748356619031 0.7026325742067883 0.43392328792597823
0.5027154748353269 0.08546113141488831 0.04312728739682825
1.2127607592462368 1.467328119877095 0.6364869132152364
0.6414248753365825 0.15294563712518539 -0.06642269919102262
0.3718904500913709 0.23483649248692018 0.09698756150157806
0.3839864838284939 0.23252519100608993 0.09494992848303241
0.31070102232007457 0.2556505258946231 0.1149613963475673
0.3838060027937331 0.2446280658194695 0.14220620042547694
0.3723057300051096 0.2344551652662119 0.04663495167035592
0.36514131829636653 0.22175682579225509 0.0695662440658964
0.28312723831569997 0.1739916837341582 -0.0031209320346050617
0.606439962638035 -0.013288568739142192 0.39990120083025715
0.37515523550641205 0.2139298742107627 0.08207358160953504
0.3569970317989686 0.26215083658742344 0.11192838894783108
0.3330772777693767 0.14676752144492866 0.006275181996187484
0.31495035892021406 0.31398878134665154 0.0836996269992909
0.4443239369611547 0.24753108997639117 0.19683750001628653
0.3523738509140628 0.21756075257098928 0.09553569378579141
0.4679576620067962 0.24369129453131677 0.15592425616175376
0.3115477555375037 0.25334779074144365 0.0443444399491284
0.36270839145265654 0.21860619920636282 -0.11193563844554433
0.3110545143960337 0.2886684847817378 0.007217316302586596
0.47291077984345975 0.08055724216713145 0.08299141950631395
0.28637555555548033 0.16349328839578448 0.16954880653582904
0.38919190659976266 0.2571673887834436 0.07253334668178013
0.3186695944081066 0.19163378171097634 0.0840239010458248
0.3147761383175549 0.21278673705182882 0.04893087215995706
0.32229894141670457 0.26130104087377504 0.17602239930607766
0.3896430801621591 0.12405007642563248 -0.08891248849459998
0.3671258857230555 0.19413162251571237 0.03500455144697412
0.33923107792188034 0.2189316946365807 0.09217694813656863
0.35604862031297557 0.2321233375223528 0.052838488285857466
0.22698827905645658 0.30615355882665085 0.16096597433536886
0.34434324499017066 0.2197955794824793 0.14005888695882618
0.32196963766386943 0.3166237877470053 0.18033298758147964
0.37640431283014664 0.19980910567886667 0.12311232639248715
0.4556311676227267 0.21386940486098638 -0.021502987481511582
0.296734396329299 0.1627073003394628 -0.06273203616376577
0.3453443394822102 0.24438194118685885 0.13527554962524846
0.2678704773825302 0.2676677660936946 0.2031675499041512
0.3146162840963882 0.07596282597208415 -0.04355331415820274
0.3770988612843098 0.22237187813104242 0.3115343351453106
0.37660044216680433 0.2456021098215615 0.099643855413035
0.30798674359741085 0.24494957694315644 0.07379696308086636
0.32600074073781116 0.20623176587653802 0.07433853704819171
0.42707795617332067 0.20307823412463222 -0.011996965709954566
0.2870299602307682 0.21405323364234619 0.0897659687073542
0.32628368802815544 0.20727359868480733 0.03042476775401326
0.3487268554526537 0.30247295669857976 0.0757401844574872
0.42775237105459496 0.2500487646467775 0.07632334099122318
0.2973390098625259 0.25202196166372914 -0.04099030207908072
0.28136977138510133 0.28219397401525725 0.5069961105925529
0.3175872746495827 0.21831590596568162 0.3151396735116947
0.33691358867324084 0.23287483281461618 0.0691024053835605
0.3414083507116601 0.22805059958309926 0.06958520666567836
0.3942644628772314 0.23717649119134876 0.10815938212647325
0.3688273452113435 0.23489235953800858 0.08926480964818495
0.35959738039366584 0.22738791758581556 0.08503067176111756
0.3678544686131744 0.24472449992350676 0.12921049116772565
-0.19936473467006977 0.605977919857736 0.3670975986521654
0.3469452808087681 0.22402970732682093 0.08486947046785076
0.28769623265975497 0.19126829863560602 0.02921436184702486
0.29871260422419255 0.19598612267714088 -0.05254501044382209
0.3878260665355242 0.22035712883857173 0.10645128217737465
0.2595270677456085 0.227131103503325 0.08550482268569226
0.7162409158717793 -1.3660979298115308 -0.9555881877243024
0.3193194749391921 0.2151926642819717 0.07724516742074172
0.3691870471625833 0.16029118597948866 0.009763190682093636
0.3661205779701504 0.21440916312349145 0.09796806689274717
0.3476923499805764 0.2689895652314078 0.16997817368329038
0.4070849566496406 0.16808993698390395 0.05532747859012943
1.1833823139940307 1.4662159476497152 0.6871358392694731
0.192664604234821 0.17584603881937255 0.029201586057752138
0.3347048298321198 0.1731187181605094 0.003777590930980068
0.33937262305988725 0.2261682189241867 0.06580047754655993
0.3431305671595908 0.22918988421588438 0.05314837203124512
0.3701763681848007 0.22359536579406836 0.004839260830408421
0.3524411991644456 0.20052582220179715 0.07609624997195397
0.30322567077649865 0.25112182843278674 0.13023282211119636
0.2560199768677194 0.20664439263428847 0.06689713234567307
0.34269748848515746 0.23543436360702685 0.10182987239194574
0.35909060642438817 0.2963472244433092 0.17578048546400282
0.3784113358435661 0.2106726441148794 -0.06588737481499152
0.372685706686255 0.18873665153978436 0.041343248564430723
0.3378468974683244 0.24559922767376463 0.14575252497097324
0.3638722460377437 0.21332499125580284 0.07427771375924408
0.36679305881730784 0.2638075043899448 0.15863591100274732
0.7041648176921456 -0.216564906498121 -0.16964967544927845
0.22598983106991 0.17722002429948702 -0.12524605645529618
0.10324760450728832 0.3804046265636316 0.007853869320115336
0.33786202997320913 0.1820497004826791 0.03656673240085695
0.393789214232271 0.25523817642465474 0.10787100451761944
0.35285224381679825 0.24647408286520545 0.1534627873717227
0.18267486641946107 0.15021184475649818 0.12102856545163831
0.3397584985652884 0.22684961727512132 0.14355237561336764
0.15108758149423807 -0.046018155926361715 0.10080738445790871
0.3365570574123069 0.14740460469107575 -0.10027750910388988
0.389317062257021 0.25231510253478007 0.11382883670009392
0.2578721849805845 0.21748987315123713 0.11722314044820337
0.2432965519288075 0.16628785124925116 0.007114331892779546
0.4045604324376768 0.2195309631113389 0.08456071195982418
0.376244785662351 0.2899003164978353 0.09700073604685144
0.36660223852010176 0.23529106973109037 0.05195141711229212
0.35855040700397467 0.2619653037758667 0.05105595534789131
0.267103398956408 0.2548961035734294 0.1076799763998082
0.22768691672803243 0.17887860202037587 -0.27578005245005954
0.3470199863516399 0.23838969283237077 0.10490510288236976
0.34079711547298075 0.2405844786793523 0.07231691890936531
0.45078303846418066 0.28054831671099123 0.12292204815349805
0.3906762402197046 0.22272956002288424 -0.006079711717646319
0.26985393249213985 0.14767732984454085 -0.00321620955659796
0.33487306459278443 0.2440127302736954 0.1518907245596779
0.3000872579736864 0.23935112143958293 0.06226315795865389
0.3649985476332631 0.24048121404550216 0.18653728760182275
0.39563489349465897 0.33417004983010656 0.11252489289532264
0.3353204706207862 0.21232214445129216 0.1088262211694655
0.41213217053567064 0.2976914286692818 0.19903968056750898
0.32175336035221846 0.2165474614400722 0.0818118651401818
0.3914162080145047 0.2348205571097708 0.050050801267104816
0.373401878152805 0.21689636238345145 0.04869519737806627
0.21992618527227137 0.1816460081209641 0.13522685628214504
0.2863071779108566 0.19677261664969592 0.012465872725400118
0.4068253525012011 0.3292153205732262 0.037794119873041154
0.27991900769970357 0.1879466188220249 0.0727128183410315
0.3175950715207989 0.2909088774541857 0.049784620408132696
0.34931520015845763 0.1937177015312983 0.21172678934507871
0.35977031873065357 0.23071246055977213 0.054584057125680374
0.32061814937063104 0.209333141690081 0.14037806528253327
0.4219291773222267 0.20132635807792099 0.006707485282092307
0.35772847126727925 0.23459987163434448 0.13971204063237508
0.3313965094631044 0.23035387558672937 0.13567628909297014
0.36524027219945765 0.17812399487176833 0.068118965302844
0.28598547014439646 0.19261332598782133 0.03308619884305131
0.34175191993537624 0.21887183827848844 0.0627948587159608
0.39663197286421337 0.23355776077229962 0.14736220033070424
0.41237951912621895 0.24909211368824913 0.12696909134268708
0.39862815008569896 0.2011888446990895 0.14758286861936654
0.348286946089317 0.28307929082666305 0.06942884840140096
0.4333689914429044 0.3186511934128191 0.18498201146361737
0.3933463855945263 0.2370277980101605 0.11854267996670842
0.3865658848396265 0.31887156839215436 0.30096378224797604
0.45644515811520137 0.26834479735993 0.23159369181941258
0.658514707355323 0.10512424194384096 0.33725904130479023
0.25808109905420906 0.24004124984898567 0.13792011526818726
0.42658263099787064 0.298839173132734 0.20841658461168322
0.3438596486534067 0.19138028822325737 0.032927291557214744
0.3156340752639295 0.20836189212514 0.0786837275168466
0.36890673293893883 0.2669520566507657 0.19080294605052472
0.2016425857796662 0.2961446165625574 -0.1482331924034952
0.3837807103142836 0.1542345615734888 0.01561914878473658
0.30577951732274755 0.29310670925092097 -0.006370326117647096
0.32455063698078845 0.23188325828036227 0.12292180076326531
0.21128281743393984 0.18517082134738416 0.031488382292479855
0.29792755071582633 0.08561807118766751 -0.06377809782847521
0.42741662091509625 0.34697199427466785 0.5478530437732587
0.361233354533681 0.2371970715530125 0.09850789670275617
0.1977964933971066 0.18081966924937376 -0.3118333694701221
0.330094526765663 0.1980004081364939 0.08772009913901968
0.30652162430668284 0.17285008218853193 0.09210908939923002
0.23974309498136392 0.23839590921784293 0.12953992300626282
0.28336064764278035 0.18733733249730733 0.019795294325035684
0.4407799216069037 0.32547356809631367 0.22073046661628837
0.36804266607546765 0.24546770602391632 0.053473971431373
0.30938369465187066 0.17487026471533795 0.018554288483969117
0.4694118704462653 0.2565585267116717 0.23622189788403603
0.2473109598032437 0.323370728700354 0.2547480192231717
0.3126892584100318 0.22988830902858126 0.1363097577043959
0.4431455650064322 0.26446908434208183 0.15468490966455306
0.36847716481612736 0.2334085150272358 0.116444992415353
0.36949029829759183 0.2518665644948186 0.1300633012556318
0.39756667667097645 0.12166128386212449 -0.08501675068799841
0.3769059504434722 0.19658208996258963 0.1418343979654253
0.35563007606751285 0.22372873371907076 0.09286305336615897
0.38463946906739466 0.2774541481742716 0.1934185885642421
0.3819535694855887 0.20009092837211995 0.017408443330538148
0.5763681800788447 -0.03303181413122047 0.09837593355632634
0.31968385438050007 0.22581200998996565 0.05202126295768039
0.3681609015799694 0.32997244329396835 0.2165997711869636
0.34459493488043336 0.2129893033723249 0.01395271695079714
0.35681146482039594 0.2157073011163675 0.07742096370967033
-0.006917287210001177 -0.2097543857214248 0.13530594584787536
0.3726857390835221 0.216303755232218 0.11790629846362322
0.4816405148602598 0.4239110846514791 0.01624131975960097
0.40760334871842474 0.19135994528076594 0.08257074179259405
0.33809600146467744 0.18746907020681647 0.1003393489514508
0.30323404822289035 0.2050193925495165 0.02380568073942868
0.36102133216493826 0.18111941302825585 -0.10065811336936292
0.4253861373098857 0.2902946577899286 0.14076184167402062
0.2620601126680242 0.18683838320987434 0.019450543216123606
1.1523173521362082 0.5594407391949971 0.3062535858137494
0.31775724309190423 0.22183468074584312 0.11556796011137749
0.3593632092026553 0.22285905161572828 0.07913599665411652
0.30559352881500956 0.2248572233013988 0.09129373420473996
0.3342872151438172 0.2497557657575129 0.16346185254846546
-0.15912951001961062 -0.11492700348740925 0.2498687027093638
0.3494980683022959 0.22636841934291851 0.11359402838337473
0.3354227691287832 0.26398833824316625 0.10658695583663302
0.3623713351622371 0.21341154916406424 0.12094080448122213
0.2771521699248183 0.21715118555493973 0.06754431260118565
0.24248722025180314 0.21946034151828542 0.17061365613471935
0.34296842112823356 0.22059429325810243 0.052535152142084485
0.3897160819033445 0.25668850195148707 0.14886962686381366
0.2750286167554066 0.16728049152345648 0.07154440654286987
-0.06470820129078447 -0.05603335834652512 0.40427497336477813
0.31469602759176496 0.19171635795338204 -0.05070728988707174
0.31557789744198317 0.23432123510121983 0.07219493612913652
0.04973424895416656 0.0033203454160286583 -0.38148655255179165
0.20307241259862963 0.3070490476801808 -0.027948733946033144
0.32740716077822185 0.2266733440095834 0.09221001913128646
0.47476303851607327 0.1973396514080008 0.02473296459812957
0.011506871389997286 0.0928478694623891 -0.38820881379297134
0.3430836904824446 0.23126962773531545 0.06284868273574773
0.33082063914793025 0.20209460416876368 0.08836677592006481
0.35033941858694106 0.23336418220540622 0.12710420581795745
0.3747217328166812 0.22277537963094574 0.08520754049291668
0.3740820212959619 0.24701772969207525 0.04140623941320598
0.3898201092697775 0.25058139128259427 0.2129186831418508
0.34950824359913213 0.2595083875335433 0.08478849569840463
0.3845016311535119 0.17481113333136022 -0.05249795207132024
0.39720105171457476 0.21012477833649257 0.06532279257746154
0.4236781910801284 0.2392118946619206 0.11982890489269948
0.20801905543189037 0.1809715899445905 0.006459067493096882
0.39966949347419245 0.2248435057458238 0.05691709890385255
0.38505685487743335 0.9759202251883892 0.441477739264144
0.3472098633578753 0.1921999673832886 -0.009880556401299145
0.40897095905589254 0.19360370387850878 -0.06584571454391153
0.3206083768076553 0.4649982354235789 0.12612659545703764
0.24299593364125371 0.29664247730690363 0.2083768573442768
0.31063348637621857 0.20034783885563456 0.03934552170269967
0.44744400803980966 0.27908997168887595 0.1333851142246658
0.3414143684324955 0.22024675487986656 0.09393532194285115
0.1724065366755383 0.026677214113135506 -0.4410620727749688
0.35406920643816875 0.10345727538717142 0.30228201998605186
0.42777860882995355 0.22158567917709604 0.05399216054085798
0.3421526137016997 0.22021079645487873 0.07536397927569283
0.3808445186161862 0.30418789812546265 0.09157080820250485
0.3121353387242891 0.24775704994382863 0.008817929760795096
0.3631895931238205 0.2251377736788669 0.07624748307245
0.3812335377439524 -1.566194995361741 -0.9365876756049545
0.3478563362031082 0.24249266312028794 0.1253992009106355
0.40673408469396577 0.20461435718544863 0.077830024766115
0.3912596118225622 0.2347195842100689 0.07570567816758
0.38184271276281834 0.22948130655919385 0.12942684953353023
0.6006193493614376 0.054157077835270684 0.047773049179156146
0.2888107026679734 0.21697119452605307 0.11842601705345146
0.34574235556439703 0.23070923171937352 0.06807639456054915
0.37274940492439157 0.23063907598691458 0.10075181227324492
0.24919890755069218 0.21339601365119165 0.03381152324921288
0.35445114301529657 0.17305760015072735 0.04818133173961314
0.36330877130184547 0.24132979745854755 0.18451315268090696
0.3412049252239058 0.23142866898537306 0.06366062334629419
0.5194448994665493 0.19994916438699306 -0.05915135781825143
0.2990453888815665 0.1664770818146053 -0.032343583891105254
0.3723162219204994 0.15181622637538794 0.04174442140856627
0.3272628047578934 0.18737282065308136 0.1127923536295441
0.36080800857803297 0.22904319384258542 0.04550071910033182
0.3336352451079705 0.23966247369617122 0.07232865449687154
0.35813666817155365 0.2050164772522578 0.10469319560642987
0.39344527997550927 0.2644645332057962 0.1102897976958701
0.31309514272464867 0.26367771872075707 0.1393315944565785
0.3274345399521792 0.2582613039238595 0.526612948154451
0.34759562096743934 0.18861005899606198 0.11213172965653939
0.33510973941403677 0.2095354506669338 0.1026634045685455
0.3740789068078101 0.23851531570704765 0.1166082335224985
0.22652135049382593 0.1678687421358518 0.009459314514216999
0.43859649385446176 0.13223147795937962 -0.13506495293827925
0.4543719085241946 0.2423983096735185 0.10590887793921411
0.33850849808408157 0.19041032104462374 0.10378576254164784
0.41555364984381526 0.23880013147889656 0.00181279053103367
0.3002076051127318 0.27119554495376974 0.18375817075121859
0.3247104444756417 0.19751306048331685 0.02250981634136906
0.6093576117438175 0.1558704904135766 0.24151054775549596
0.2988282016686128 0.2438321852496017 0.1121125269409049
0.3653876936712095 0.21114508317521086 0.07922947403434932
0.19012782662997552 0.15047179421156898 0.015856357392721065
0.2509435603590191 0.2471043377301072 0.031098181498080635
0.27319824102613666 0.2063234873990325 0.02505184459910481
0.32990426425521946 0.17607366306225458 0.09631152057944803
0.28716368446197293 0.14251239266405946 0.1278009538217475
0.3585504610257999 0.22412239430894942 0.09143924521669078
0.34414531490193667 0.23592069976908192 0.10045048935285195
0.34909980788091843 0.2420900486702351 0.13297623922883872
0.35720968921859253 0.20954247560072758 0.026939289865580918
0.34219123208649194 0.22542887811522405 0.12216802079193201
0.36160642299236656 0.21126573838890295 0.0792381873231136
0.3806909617731691 0.2661142325922441 0.1400632739319292
0.42561974996164054 0.24264911051582772 0.11252666226192787
0.37978065099164837 0.21500673920031943 0.021539349041518108
0.2582863904421231 0.2083930141719179 0.05488117838285689
0.2900805203027659 0.1877285769664212 0.021621825076351797
0.3999526092075598 0.2446114915275217 0.16579156637672554
0.4038045323925985 0.24295084493391528 0.1293001249997019
-0.19727069258644292 -0.24733726187533023 -0.3620146839828635
0.3969895037558331 0.22759232751567993 0.13147331372107374
