# .PCD v0.7 - Point Cloud Data file format
VERSION .7
FIELDS x y z
SIZE 4 4 4 
TYPE F F F 
COUNT 1 1 1 
WIDTH 807
HEIGHT 1 
VIEWPOINT 0 0 0 1 0 0 0 
POINTS 807
DATA ascii 
0.3414048912411971 0.2326975323995697 0.15859108154143087
0.3461519214853581 0.19732185388369317 0.040852470399954655
0.37420927626439493 0.2360324730832417 0.0546096073510256
0.3647365881371911 0.26630537381323904 0.2066941418439967
0.36771618452922894 0.24375827682121098 0.13157416178681558
0.46535063388020603 0.13902054656750806 -0.14761667249527477
0.31993757354041463 0.17087707492002835 -0.013876263222726948
0.3006573173600202 0.2631481167848051 0.0004540283831886427
0.3597335396374888 0.26007215610260914 0.0880136065661361
0.3677660395591431 0.21968554223991532 0.07634435142577445
0.24501547394038425 0.17257756931692825 0.08509507200639632
0.4020615853977745 0.23615968997427217 0.1376205800399788
0.3730311570528215 0.2799170309796324 0.1274020098570361
0.438614904680378 0.2954684199235942 0.11544387824598346
0.331561237473764 0.1710996950235426 0.05809321850364313
0.4205186185526202 0.23304503461088188 0.07182592813668975
0.24814511192062128 0.1974963112560033 0.01778653606493208
0.2762870271308202 0.27688366535079467 -0.05506840226678378
0.36343517994956187 0.25059720126537854 0.07134814945763424
0.32865232572368086 0.2170182744787894 0.11304780979435236
0.3686563879338962 0.2546682017876236 0.14625641837693593
0.2992003235948175 0.23355481202891326 0.0997879237168604
0.22490217224972753 0.12450554554570203 -0.01798662659550132
0.3045039135819536 0.17871477191496865 0.014752900441578731
0.4366312435094102 0.27429710772925375 0.09585216460672541
0.3125980231811525 0.20406408801821385 0.06212035857370779
0.3590514440197694 0.21963544006999314 0.09875409702223692
0.34265169273058405 0.20936703936874324 0.059068024295498844
0.30775752016268143 0.2006364630550479 0.051617583806915945
0.23323960089497575 0.2109274610669445 -0.04367865591021314
0.32031837874083635 0.21884412106356876 0.12193229294510388
0.3568992038696024 0.2394759541317626 0.13375047375662064
0.34662295062076964 0.22477049303127217 0.05310072789609421
0.3348024216279697 0.24136604541183715 0.15709728355699326
0.3157924047678762 0.21064813689415018 0.0703507963140737
0.29041147562270453 0.19368361035458292 0.042065026670172756
0.34335238359651044 0.1922027397574908 0.012200619303342819
0.4981465996110046 0.1716102104068682 0.041697533052641234
0.4256923429241226 0.24924799922771967 0.06702586848616932
0.33101247950571633 0.1674514606207822 0.012965995347911985
0.34452142188476387 0.233259119342776 0.047431165239970596
0.455021368676654 0.3140792535818093 0.04300746914316278
-0.22558730701581453 0.6499128408047739 0.18510066903482425
0.3574234003929604 0.38249346864192546 0.32372625456531523
0.4116917693178834 0.2775949778843767 0.11969892569464946
0.3533410798019361 0.19898358339818856 0.14219216142178936
0.3123702145669256 0.25412433073458374 0.12507482263023917
0.3161071372979052 0.26427372520262793 0.050125304966670114
0.2846852668102997 0.22835725735714618 0.020671595700434864
0.3350634824027452 0.17534297832983725 0.05126865358651855
0.37318977596916625 0.2301044644861463 0.09956468159624876
0.40254864679604907 0.21278715501276224 -0.019734386398852166
0.3290058044460409 0.21477438780300417 0.1034250689443752
0.21584097433438387 0.2704896161508259 0.08371940710873105
0.3242666987340783 0.2408412565516187 0.06482685385975628
0.24479713797653346 0.09912707435438506 0.05429502362699168
0.32492682902292813 0.2226547835750381 0.011266905806294858
0.2318853239077896 0.23509612221474185 0.03078011222294208
0.3378655433807012 0.22682827966673358 0.07159552118227452
0.32411791816032576 0.1445950371065834 -0.038169121520340354
0.36879667634721613 0.2019291840661026 0.12903040497006657
0.33095902943048827 0.23765311641000153 0.0735255371486403
0.34120390494192065 0.2220276741895333 0.1309822101729594
0.32180713255185367 0.2331128520843606 0.12165680306097215
0.46544823453298534 0.09541952617081506 -0.11017128320382596
0.29117760500510315 0.18285547831720805 0.059090897905875295
0.41479835957927946 0.16015277572250852 0.15485606872292124
0.43909027417872437 -0.9617201267659965 -0.8925600626598111
0.41530501025899014 0.2053442922850479 -0.0042960845641459855
0.3359870268556904 0.21647085213859896 0.07185582422198422
0.33505754683169187 0.12660791707745034 -0.05576131047024546
0.36316049055793087 0.15457507253859148 0.020215115471032163
0.37552715238857104 0.18231015710310317 -0.009930721232677797
-0.07441007474518813 0.7017734373289528 0.37525906571852374
0.3984899791026777 0.1345389437373683 -0.03973258567359039
0.46196193106837313 0.2801349133058011 0.0509496606804305
0.4101506141187201 0.2075375762833005 0.11843876139602116
0.580320568836072 0.24980351598831874 0.29968625597571474
0.37774738938509245 0.19132075993093167 0.11702329914919574
0.13450056771517893 0.2385777462565244 -0.07525350522989527
0.3758742811284179 0.22266042367840555 0.11125771391637329
0.38176928604463 0.243681732469895 0.11633880893347737
0.48720928134912356 0.15659071436769523 -0.002857088765580329
0.36300995469800057 0.18284435269502808 0.08033471340181109
0.3348785080871153 0.2251903944724063 0.2162408491292922
0.35111819058118954 0.15423827591624217 0.04654951888458925
0.29265990005551146 0.21952122358111126 -0.007884022351419162
0.3552380264558366 0.24180332921793024 0.09454928091697923
0.3818905875430971 0.2287122663273351 0.10797237166994478
0.4332349316724162 0.1958326139830575 0.07613695474896076
0.33495613445327876 0.16269500445326912 0.0383153864864596
0.37684112291979943 0.23998468655987892 0.18081801988381585
0.3927614509729551 0.9508112101511585 0.5047533271875864
0.3703081783924205 0.24468460144933601 0.122710434441899
1.029363156863667 1.4536865687115892 0.6473856056460932
0.419919829583435 0.30957732431673435 -0.24418527043175686
0.3417482857295653 0.2486135544841659 0.07547423219993732
0.3522089825731456 0.20527752366952257 0.06770444610927484
0.3617422396755785 0.23919451109739498 0.10532136261258529
0.38250772656554943 0.22177393277556234 0.07715545437613969
0.313176196548028 0.30552655526508943 -0.061618459506448175
0.3211366012261294 0.2590238858431064 -0.04046573443821444
0.26182350334227067 0.2045982539421658 0.07176206562402854
0.394421353883871 0.30848013475673497 0.209124080805708
0.2643031848195676 0.25628786984455587 0.07110394994226965
0.5155956719784314 0.2226686739171555 0.04056430564261859
0.3425833634223352 0.21334137404440412 0.07644843452119687
0.38282444674585747 0.23290524503934762 0.07734702890158474
0.30050756305728044 0.3350394799266496 -0.07976750065213878
0.26522870210189353 0.23983904415374013 0.13531466174143247
0.31600142256463926 0.2512812399756399 0.09741977837059324
0.3748348258163503 0.2120638411927871 0.0854543676118027
0.28585410038998305 0.2979148100793907 -0.19781895773357405
0.3413123902510051 0.21678177623417128 0.17545940402324334
0.32644404334783417 0.23590285502271513 0.0813256503019204
0.4241710249683024 0.2078505188550679 0.13288327101750497
0.29983301324267586 0.18905606668920427 0.01925189087221213
0.5486463454826946 -0.3421378601987328 0.062031463557673305
0.28142054560370866 0.22648924569128326 0.08167060495729572
0.3022457108243515 0.15440656334072855 0.12907122396279647
0.3348193932346959 0.2219964413621085 0.09371292636586759
0.35622278779095495 0.1697687687559437 0.01027783363645085
0.18431855465252056 -0.017080172375685265 0.04737531377818982
0.3490800355634178 0.22136326915362758 0.09339935766804786
0.42246497402996397 0.2482098772596686 0.049478428248079354
0.42403990787428825 0.23527404441948363 0.07150425686049289
0.37057140966700786 0.2245201681551805 0.03035781456723896
0.2954312079771455 0.23487086643802968 0.022890124581806504
0.30838165190678524 0.17823368140489038 0.006367228793195068
0.3899177809432217 0.2443982447411912 0.13943843769212094
0.4461791322241595 0.25594256381380376 0.10761775694710707
0.417160000232343 0.24746128860826389 0.16083790127551367
0.2867976198515123 0.1965073051292876 0.02157415354110981
0.4011636148369604 0.2544344204105755 0.16318802127275944
0.3717206163005926 0.21138031851569394 0.07737330459228531
0.1976744131545729 0.17474935863147323 -0.1473348523263951
0.34998036485082196 0.23275864094225085 0.09936052729139533
0.3086733629058358 0.15524983901320866 0.07761232706030796
0.34640034706897893 0.23191529295198166 0.14067819067025766
0.4825694937980529 0.23611177027628116 -0.06980769075408944
0.3267490299728024 0.22278609785378478 0.06186912744561823
0.340237654287904 0.20804482810208924 0.08470022462415727
0.31343742838981825 0.210761765438491 0.11043116737144487
0.3182401163384725 0.189377622996588 0.10442425035594738
0.2645551936210211 0.1984823800919031 0.04419304745546526
0.3011073744088435 0.3428190880146076 0.12130754996809401
0.30665182103808775 0.20659592629706935 0.040804115307309985
0.3989256361809055 0.20528443933530127 0.12002733172917601
0.36272627745060504 0.30727651394580846 0.09717164111070531
0.3840780577308749 0.20008127594991265 0.12277007638014936
0.3639492941147324 0.2248729164312664 0.11644774108459899
0.3455008334867813 0.22467104958187178 0.08612471175466396
0.3749828555943111 0.34451163043679855 0.025828317061638018
0.36409149674005903 0.20713128247845702 0.06977713389159135
0.19170530597790503 0.23567283980727893 -0.41307812073065975
0.4044402396184523 0.2393831167411804 0.07221954752382942
0.22717884940348654 0.1901590960931685 0.023783495670571142
0.295830420540625 0.1964884065840522 0.042524173858794256
-1.0170250253508755 0.6247585815645493 1.6842173941313092
0.33140412307761835 0.22686313095022115 0.17064796778302593
0.3071934296562233 0.14871993075195178 0.09869203762926304
-0.021939191653672196 0.4904556145255583 0.7579518843432709
0.3746003917443943 0.20209450359556058 0.1315668868274713
0.23296142707211231 0.16086500672233228 0.018986011182335005
0.3689405154887879 0.2214688225371617 0.06451462397529895
0.3852304893927112 0.22223054392287622 0.11371817729539657
0.34727347663459796 0.23280597551914184 0.14258103311297532
0.3483640878851588 0.20612302526282633 0.04029665684120687
0.4563429678686646 0.24133669447897432 0.1865005583323125
0.22543666415005248 0.23767550345627342 0.0494447744039519
0.32521603146598466 0.2015960413121718 0.07025354935124994
0.4196531392186671 0.25027345518003585 0.14447085286505512
0.333099070736651 0.21931700929089004 0.0636486607987905
0.33311949845861477 0.22625488187983933 0.06239649397059566
0.3046927388725891 0.1985912250971893 0.11000781480106525
0.37998563376947914 0.21490834377328838 0.04724499108363034
0.35807777908476623 0.2272189787490504 0.09695274451591729
0.32057566573308804 0.21214091794163892 0.055048977441913394
0.35358332594617536 0.23394071325270716 0.0923018421914037
0.36826175328226896 0.20406492719756386 0.053680358742212775
0.36014454446717536 0.2486688737404421 0.09305319983985783
0.3606428721238899 0.2839273982692845 0.10230538229450303
0.34395546236962105 0.22920677993371896 0.2600191722030729
0.31303619418767425 0.20139393830211816 0.1410881621668807
0.3337730991805188 0.16636617064138193 -0.19475504376180197
0.39908718933367027 0.23379448693995641 0.06630542246770688
0.309214252321226 0.21061490706685504 0.0663847266135491
0.3735820429013472 0.21793056484298745 0.04726802909436856
0.4241046851487482 0.24906417299752093 0.07936003747133213
0.3826152783194061 0.22254847571042546 0.003190223143064941
0.3905147793076367 0.20818346497152618 0.07061715786451828
0.3639430531129335 0.23300971558001038 0.11408238328962739
0.35527166019022616 0.26136393641617417 0.13163028914195252
0.3446411250236139 0.2354582096642872 0.04930778926734547
0.3611806962260431 0.20758978228150227 0.07944336135632568
0.17278952401788672 0.25975996664973877 0.11569129137717482
0.4318107723398157 0.32771938203401874 0.10964548820273023
0.3376901664587564 0.22928530889220156 0.11335359876849793
0.37918639392151476 0.20169628864310596 0.07381242068804283
0.45985887590143193 0.180384505596777 0.4248089139214244
0.3680832155586984 0.21132506457911404 0.14155249050347152
0.3462596793688846 0.23308404490443024 0.07999005500694523
0.4460698947056727 0.25637645729769076 0.07356402424005637
0.2524039189109146 0.13354627565036026 0.050206768622260256
0.27626121124893643 0.19969520241915006 0.08451570617758364
0.34733132761741103 0.16461370651826712 0.09342054578739578
0.28307353342333386 0.2655277339054578 0.07433386562266264
0.35853755281495125 0.20799148209314922 0.060578201033081314
0.3081424187796955 0.08707190064208703 -0.056117703675681696
0.3851448008319096 0.18975538735844566 0.02452827714651562
0.34405682632592516 0.18817242801111433 0.10269683198998791
0.33800898394068213 0.19588866878936528 -0.02296542688910108
0.31601564429840323 0.3647245510268533 0.1552856108625349
0.3870808327217503 0.24072801398703803 0.10717378608491401
0.22848294841719508 1.5206025929136047 -2.1162995037851147
0.36604163788399546 0.22094873738578258 0.08208880005142305
0.34520761470909633 0.22041045079132005 0.05133659511287192
0.33868416927882095 0.21749297677557422 0.058289605934618294
0.31644062765813885 0.23043417091793117 0.009680060329273488
0.3522903089942133 0.1969879498919056 -0.03175540907409413
0.32538381706253006 0.2354805092250274 0.10766755741988732
0.3945521041452196 0.2571145150762675 0.07335292266590443
0.3612605350834599 0.22995961761672845 0.07919828435942122
0.3213193509732548 0.18633588916273425 0.06418131429879281
0.3627934261090502 0.1628726313089146 0.05694612519565112
0.6288026013798458 0.20020799964589742 0.21716365597629306
0.36870879004659685 0.2327115307278973 0.09387925913654271
0.35630623899737657 0.17868904479479397 -0.04516070610168299
0.32673515176585965 0.2622492217899719 0.1605139661308499
0.25122805325075603 0.17992244137843727 0.04520731368302222
0.4285114355404005 0.2425857277443697 0.14084443326193252
0.30843602117018065 0.20985134362251756 0.08841700906202732
0.2454359928813119 0.31963932252527627 -0.16424736978402166
0.4356333109998616 0.21701982602772318 0.2800456860515794
0.24357236430648754 0.11639501916231154 0.021438798667048786
0.28902080717091394 0.13915622092130775 -0.08422207756262878
0.4990129786585271 0.27055732561663604 0.3956602091605248
0.30672445743749677 0.15657084708860225 0.05139754384029516
0.3941060059339918 0.25940421215447884 0.1950642027633478
0.1081884072005721 -0.22835663923848415 -0.2026279160086517
0.308100230357482 0.18112398263680518 -0.0058133965856939085
0.3336275962114428 0.19162276195959294 0.023547092165358663
0.37699272606545264 0.20492620962893682 0.06693238811880065
0.3517479811080335 0.20753480713295858 0.07648797881168434
0.30913456964270836 0.1588480920131019 0.05775320128984163
0.37362849552232547 0.15335703719136973 -0.041717900300596966
0.3209942813284954 0.19679359993088497 -0.1841026805126944
0.2784775185482715 0.23829585761167493 0.16094088299875864
0.3356270115627069 0.24990428219601313 0.12171195612825159
0.3050979844620372 0.2291772740717164 0.19405777928915313
0.36478211003023375 0.2568704159594688 0.10719305158303882
0.35868878762849477 0.20939018131863918 0.09342659567070655
0.32931440760559383 0.10646111313045026 0.31452457150862756
0.3624197505122879 0.20526043346494305 0.04571809094420587
0.34502361109304047 0.21190605160973064 0.09315273308945393
0.38018701651994036 0.14233120184354675 0.08165771206427053
0.2740575896863078 0.20339845233246479 -0.024940746905002698
0.3044731763974369 0.25497724071459515 0.0920294763319589
0.34425617188858837 0.21278546794827946 0.09094994329572614
0.4022518760030067 0.32032495259247185 0.16415154809796206
0.3247922868764448 0.21515987428843175 0.16396333308925648
0.6243439892565448 0.17515831376266533 -0.33315656064269206
0.3577256623473204 0.2201697858071725 0.0842463194782681
0.2610380709336084 0.19519648155605296 0.08652137158573225
0.34093630688201415 0.22126175791831315 0.07102511400529465
0.36232715942176696 0.21452375755669095 -0.06367898241418857
0.3505481710558058 0.22266993107005817 0.08640158836686851
0.37311828374589595 0.24259689210472857 0.10543882868969945
0.39493756924504453 0.23499927070523086 0.06293452618703554
0.5458368188569693 0.2297016419874751 0.17280555926011232
0.3435773226291019 0.18507364271926008 0.08808720653087221
0.3402004320626588 0.21448325721243577 0.05841099377255432
0.2695425521125685 0.18900729115077297 0.05786117604074548
0.42605057546811054 0.25235628737060267 0.18259847670680074
0.327246695235587 0.2509756192760335 0.17964692162300366
0.2892079197819726 0.21549863604269603 0.03691506557757407
0.3821169980081436 0.1961211867191821 0.06399872363434156
0.2594097180711401 0.19402501119031967 -0.008295288818445101
0.41391188419581226 0.2266313326795597 0.0506017597408146
0.5089871703300162 -0.4340559979508214 0.45131583448252854
0.38730425555547754 0.25076288096144594 0.11695114976397747
0.3518769787398668 0.2143520942343713 0.0550240378491651
0.2458245309335041 0.20706888446042626 0.008377797414254928
0.36022005345495245 0.2252122198702864 0.07886285896933032
0.33546423650781776 0.2498229572687194 0.05324220256842693
0.36571098544129654 0.16774626377491586 0.08653934112687978
0.37774497561915155 0.23540768935660594 0.11150569697255719
0.29815777047936365 0.18488098995753433 -0.10932968941430943
0.33246744535210837 0.2166795096528915 0.08515383675515409
0.30976813648102564 0.18475248410334189 0.06207679612515449
0.36191057163712514 0.2298751840680211 0.07774177597606524
0.3310961236959429 0.1664451443571835 0.00976601967499846
0.33641911292238547 0.1837753034606635 0.06787991535617266
0.30658570458523116 0.1890868776195589 -0.02168076199464508
0.35893375180344833 0.19809946980672066 0.1222297433894255
0.2932081365339485 0.14594527949697067 -0.014167374526806498
0.28620426857679604 0.2328829910549075 0.12411108021402129
0.38008254308485334 0.20791203095079425 0.03487525314861273
0.3690787678696239 0.15450193043054128 0.022400782886847992
0.36620542241172416 0.22974447836898548 0.07478184460330795
0.3652723783719125 0.22189765138443818 0.08927619756195782
0.3773383901541081 0.2402684277521132 0.08819878151302873
0.3317354998731048 0.18783487428503065 0.005098570834263683
0.4645370548793295 0.23571071273661914 0.16741797584860763
0.3608560501046725 0.22679925730096784 0.13306925645966317
0.38088082439426785 0.2460139966857895 0.10430059146550263
0.3531444409416622 0.21237962514189235 0.0920762289219681
0.320770495880879 0.3615126385695646 0.31073016245176177
0.34228609604397775 0.2271414847752311 0.08453836488115485
0.3745289303637236 0.231815797957168 0.07986866385986957
0.36222372587619134 0.22876435858577793 0.06479541211480466
0.4354390770434122 0.2702366420459441 0.12731994115583234
0.3212064888827655 0.20689990589525564 0.029947173377053105
0.54362963946447 0.04307699307474877 -0.16669983275522782
0.36303486128875306 0.30183606240281335 0.16038244801367796
0.26257529622421316 0.19614011586935476 0.052019401331619974
0.3559801332058896 0.2325296627626443 0.07306485159196541
0.3682336034701166 0.22059213280752488 0.07287226631244437
0.5435606823167802 0.24598708277119385 0.15379608888520124
0.3186129478940529 0.32515094785253496 0.21343682629650118
0.3583406471460364 0.2042132083130923 0.07022527362369146
0.3609809980131331 0.2431302230798309 0.06752276653222111
0.37215517447081936 0.2730371066593875 0.1983536222298028
0.37963268221967894 0.18984523171262424 0.07318560732213086
0.3462445181239815 0.2312444804759508 0.20616098170211217
0.34924793568561086 0.20994376955121652 0.05268305663051365
0.36646531307893326 0.19450039468367208 -0.04153653545736802
0.3640293984043126 0.2101584340019258 0.18184268826593097
0.3352945609296114 0.24616284323658988 0.16953055724221144
0.3291614327843888 0.2164380457862478 0.12183037481850079
0.42378437810614855 0.24965823223558914 0.05163843092600473
0.3330630301706492 0.2068728177277137 -0.0025658956226237706
0.36174795800170045 0.21580347598694516 0.06049217589230693
0.3484382080588375 0.2503151175353082 0.14214093946793582
0.2978389650863136 0.2427069542363256 0.1504082086340901
0.34304011089656683 0.2196925565730794 0.07589820311372364
0.4519205731608622 0.04363103775042987 0.2067264573857983
0.3462516401704363 0.20445911469485623 0.04120917141651148
0.40967158312425056 0.17628637166393446 0.30124638920071334
0.34055154165071144 0.19166079212888576 0.020384899485733854
0.32564031592460196 0.22362046284285952 -0.0033185918318281438
0.3335498606503222 0.21545656367386812 0.08172476142605944
0.3666966095542108 -0.06388568005937145 -0.23298729950481345
0.2947882147079639 0.20352745555017293 0.06995005533744347
0.3560542304538785 0.2398817981295025 0.108292086605843
0.2963168455664089 0.16194979989609237 0.0924740978635441
0.39779536540478944 0.22059532803910997 0.004597112555813965
0.22650171479136816 0.20258692576851445 -0.03665117035448873
0.3252638709464577 0.1902692872457976 0.006039257646278884
0.32749973294622237 0.21301830030472502 0.05662618774363182
0.3272117559757248 0.2672851855352576 0.16965643740590508
0.41492067590334614 0.9374021361835503 0.47900900980340566
0.2751452079108816 0.26542509907484657 0.017494873057373184
0.34219841571447773 0.26409250717895816 0.10997865357890646
0.3580103909187642 0.19420738944882032 0.0788760003451614
0.3394886397909147 0.20894339852100074 0.027302645710847173
0.2601957290090411 0.21564161438783458 -0.07719194289599329
0.39336409366578096 0.24254986661684086 0.18647162002201867
0.3518906598248037 0.22478640759786117 0.052318795459399325
0.3628810472534951 0.19022488835324225 -0.12431719181462597
0.32749526482743363 0.2172994055008246 -0.04748694061639469
0.4106069459267587 0.2741327058877374 0.0904984386525598
1.1300579162050326 1.5164344577337374 0.6702137338200771
0.35871645047404854 0.2329114855962331 0.09050675496006022
0.34166553717935244 0.28276787630667855 0.05585780924320716
0.34365168188415396 0.21498907649041143 0.09133379175727896
0.31037948351550426 0.16801788004320883 0.051286107003789994
0.3616932976098042 0.21798610126705853 0.05603641894057887
0.3642692960494429 0.23574762915880854 0.06191921059131289
0.3027454881839162 0.2787586767504564 0.05964123553756906
0.3249242366509577 0.19495208611637338 0.02328559843721223
0.34271530862534405 0.2038880792934492 0.04512949809645761
0.3146972892080271 0.18926635553449955 0.008150998670487297
0.3310994318229632 0.25281523915982973 0.11141444125780708
0.5418902243325476 0.36067918769322205 0.17015039906645768
0.3388834976780686 0.24553903460710558 0.13039635170191843
0.34694302995507087 0.2170443463915035 0.07849856124599341
0.35822768639620506 0.2255810945939487 0.14894700504552816
0.2998243977639845 0.21163646328568575 0.06518493409430448
0.36421443302234024 0.21350544525486725 0.05137149726061807
0.3872967993676468 0.16975720355834767 0.04296729497065144
0.34813077641211976 0.30595692038369293 0.1488765281063138
0.3665507664217955 0.21835523739127893 0.0625365099350006
0.29203600338883007 0.1073561122423996 0.08401266496520066
0.5199811396711311 0.5841201202374862 0.3416040765407047
0.3522021503775363 0.21930275937498322 0.09834162982417638
0.38100780012835855 0.2628801733048931 0.10288984454189176
0.3282766699391573 0.21967835612906583 0.06931636987346224
0.43080377592841046 0.24102058918523994 0.09325722657172264
0.38469162079729813 0.23485666765174074 0.011150309301910966
0.29367487474729614 0.17421237190797 0.0678052892996277
0.3550263635706017 0.21656494184928476 -0.02324032304090906
0.35428021543312127 0.2077572995344923 0.0533146581527717
0.33953681724108264 0.2509153953278229 0.18719136604323694
0.36299881883357443 0.23803785853834825 0.19922848468259247
-0.07065631631996894 0.23152352779854368 0.19519499162412046
0.32245918596532874 0.23466925753839973 0.0814769423819115
0.7406510729277898 0.47693525890066724 -0.12736606551132468
0.35900611639515034 0.2047969558465752 0.028864025603951404
0.39331143440099936 0.23503905980709305 0.06187606742986418
0.3044792552616684 0.22208925347632658 0.0384244483166043
0.31812294372947747 0.22856409125806465 0.05389476018700634
0.3390700334106498 0.19111891364126166 0.11941973178966236
0.2875523872368859 0.26971065450800324 0.07643531432765371
0.36509106576366435 0.2592536417420632 0.038768545885091044
0.46256230145030486 0.22958486143497225 0.10390430182340538
0.34840172422147475 0.2220823352382979 0.0869478969976285
0.299013096077303 0.20664613479812033 0.0496281220737842
0.33139535736910375 0.18835241104576994 0.030014702758592193
0.3519545922576981 0.2815214534318642 0.23219805398025528
0.31078337942096823 0.23710005852012728 0.14111684006130076
0.28086104352206576 0.20655150220565588 0.011920997959379065
0.34675583174767155 0.16396493191021477 0.14829451503614166
0.36693036944387813 0.22533659261290495 0.06578539294042685
0.3829864477954885 0.17935506968015602 0.03173996161140735
0.3489764637669879 0.24350430852003058 0.07599784250578523
0.31831368776852287 0.23911010567690028 0.1680973573308222
0.3546569405941966 0.2865480062782524 0.09276182325268678
0.1916409795531706 0.1268692505951492 0.06733874956587727
0.3380664135808047 0.21421831476001785 0.024086258401737837
0.30947485945074504 0.16741974104832025 -0.0212248974760314
0.4103702614157072 0.2370944061636635 -0.0112066503191528
0.37055577241258675 0.17547458892531154 -0.04198853142274572
0.3040717954158083 0.262835876408559 0.0722428211392554
0.6109159968985125 0.3138961718979374 0.10280594378997421
0.3299710317287179 0.2297885026419948 0.03666404651944788
0.27304992413958473 0.23106567972558878 0.04424902425201083
0.32441439538246186 0.2354377060908064 0.09580082835950066
0.27078936801193265 0.17272198718464438 0.004794838130223411
0.3591419334863417 0.2047131563835194 0.034437132206363685
0.32325364801251055 0.24193139130018437 0.027796042995262837
1.1660529468968548 0.2720899572391602 0.6115385766378978
0.37334028459224555 0.23435770635225595 0.2149479474438749
0.44906044926575817 0.2680387747621893 0.1705038522834883
0.46661804675537155 0.13135859195085686 -0.058874359580173063
0.1956606957848379 0.15935615189208363 -0.028754991460203883
0.3849728432503383 0.248781603555841 0.117611225812837
0.437386468431157 0.32733915362551613 -0.0019668024371952697
0.4118410400567001 0.22421139339940055 0.07942840908039273
0.32161840962163524 0.18989537842220727 0.04693761585770062
0.4044245571998317 0.15074457099646565 -0.1811530060390112
0.28752047926543867 0.2793452593106167 -0.004367090644336713
0.4716803817064772 0.23401394207733972 0.09949080718217829
0.3582246955772348 0.217911029090601 0.06789269859584124
0.32439210010151953 0.2079933562632874 0.08916339996895317
0.40636899571774165 0.2634875140514339 0.14705565845869728
0.23931924725954445 0.22793782200980672 0.13007407735136667
0.2568566922053179 0.2094033968457154 0.03141285138273986
0.36242331261888694 0.17525917984335138 -0.02192191263529253
0.2532341648396681 0.18361995964886546 -0.0424277406185638
0.35104443947092534 0.17362111110470835 -0.019384846481500517
0.5719028215421389 0.27901344319467114 0.06896900891413793
0.2971402211245078 0.24185777306587397 0.10524623399248867
0.30749078176279454 0.17805094374557484 0.04788685679827154
0.3741551328210164 0.2720615586302131 0.18642503711556913
0.7109883266117549 0.6321935993248076 0.5669677670627067
0.33150451088567934 0.1884686618255813 0.08840621952154493
0.370292959305317 0.22275590578394144 0.11186745371813345
0.368889600932917 0.2281679051932315 0.09420611210319407
0.32185967443635377 0.17652429087704036 0.08411205192595617
0.36168874040542676 0.17194875232263485 0.051024123491203
0.32858240436311803 0.22308775676526693 0.09099610839885486
0.31568915217674487 0.20801126194706399 0.035920442422607834
0.3993777505851739 0.31183881203340036 0.13711614830151575
0.35930147569735027 0.21418466379188317 0.08985952142654696
0.3713075884225532 0.21502165274181095 0.07356986839710089
0.35419101597170766 0.23437745491325757 0.017555806073403346
0.36461643394697774 0.2195515755782651 0.05434404853977526
0.22475205963452538 0.1687804093707257 0.04236571845513026
0.4344219521809407 0.2612878132775478 0.1335553846991786
0.3066247267774429 0.2390891509758717 0.15447212149346967
0.5066446823230137 0.1269910044933198 -0.029617758555446017
0.23083676822213306 0.3676724722309359 0.14201862249630892
0.28209260491938437 0.19722995880128735 0.05109047394029176
0.361554274468773 0.229176691594148 0.13781950294047363
0.35580997629924127 0.22314021578355892 0.08770930242674524
0.3811387153426864 0.18299869982377004 0.0027851263867830767
0.33599032755053315 0.21416459905618979 0.10169103056982465
0.2385175945925937 0.1539627942495514 -0.003107801481689876
0.3372363527282971 0.21046431463888382 0.04718228919176681
0.3964483377829424 0.19650911090903378 -0.062092212918230416
0.3468376012558849 0.22508666086280016 0.13817346654860785
0.301777838669409 0.2713792483015709 0.0495607798587514
0.24855911886663762 0.278306719033381 -0.08316088410134626
0.27254863900968473 0.20165498839276097 0.05725463853947588
0.3041938310688863 0.10728956148912516 -0.018718103440818368
0.438848675551597 0.25203203133166596 0.10269043947937462
0.42728008545604723 0.35893348936238567 -0.6864113289680773
0.3866649587192512 0.14906264928296764 0.05314094919894785
0.39992131063303304 0.2358055061308164 0.11241985235065499
0.3616262501867311 0.26940050093739387 0.029166644639531114
0.3360725154762889 0.21673809647468545 0.060904086155858295
0.37840289469781396 0.2335207918174831 0.07892521693158017
0.3543823799827379 0.2091803108810666 0.04412333771711019
0.3809891315369356 0.23423894640676224 0.12791657760911335
0.3713600593726767 0.25092924292818 0.2279192854837646
0.3444754918980948 0.21018139179945194 0.023019524059435525
0.38631848739876773 0.2630932881594106 -0.003888419543670807
0.41632820872479215 0.16252976093548455 -0.027361032989730916
0.349236390849228 0.2132156937056493 -0.0037643763039909572
0.3729543674048301 0.2750734545665523 0.18165240531355664
0.3728930428870001 0.171531779677224 -0.08993146441271449
0.342126982618737 0.2295941393885812 0.06229629598607289
0.3335362843642429 0.21088634388922856 0.08221684855338651
0.29741919183742027 0.21025595470649705 0.0472473399253488
0.3709923919736582 0.24458368174553868 0.10935783858974446
0.3856868225851713 0.2181336785347554 0.09915757575824102
0.33908448781890854 0.21636794675086435 0.07307134281238348
0.21898566587672974 0.1903758730645393 -0.15649060710633478
0.35089629431655567 0.2004816995810046 0.10182584547702334
0.33252230588902876 0.23450623029276585 0.05922148117785753
0.32780275690384997 0.21700748468006736 0.09451624498001365
0.32987031584221427 0.18612625015970252 0.07545803473280444
0.3624115658861342 0.23973092606088642 0.04090306439772462
0.24652820587519386 0.1646442007684783 -0.1059701727971003
0.32223298972880343 0.19253257624311004 0.05498773645717847
0.3551259691610369 0.2559741646464033 0.12225627406661488
0.2938602900230194 0.19610771446150466 -0.024789464099626457
0.4283207971916738 0.23584919306961183 0.0960085880791155
0.03070024932310389 -0.008573572693393317 -0.3956260111818324
0.3176118065483138 0.19559653969605506 0.06848628243233179
0.44736377132261396 0.23192016377043956 0.14766391100124565
0.34223976032755843 0.2477831320697561 -0.06076989610306782
0.671386462764815 0.11145722653319012 0.2086993647660904
0.20596734915923776 0.1534494610252608 -0.005911446094600592
0.3821542009524137 0.22907390814285122 0.003904813000787044
0.39938791712282296 0.2346724921378751 0.11676606714397053
0.37084938370048803 0.24006137971329622 -0.01034022141537605
0.40117936450835145 0.23788879017001818 0.10940404968914663
0.3642322926064594 0.24204773828904536 0.06768521551806828
0.3763805128466231 0.22620032438459248 0.058046573203043295
0.4390337896540615 0.24325775093200264 0.16618819114454197
0.35850667913501866 0.23743954632425357 0.1106279937452257
0.35394209365847473 0.163839129260964 0.08652089498968962
0.39074650446400483 0.18988657149935761 0.10542848262142002
0.35801637492559735 0.205225787799435 0.11310784214977332
0.36911922826243426 0.21634974703265186 0.14312481793110976
0.34306908568345307 0.21175272717169946 0.08912580407994142
0.3303736030699298 0.2562028698272343 0.0647918489659105
0.3972526612645879 0.2914380405169936 -0.055621587240096915
0.31852390485110504 0.23364337909671917 0.10808848714383146
0.3073177025495113 0.2490170690928437 0.07767709672461365
0.3807995691591657 0.21643687823555524 0.09079806796309242
0.31379908177288485 0.21656755375940406 0.054787302959695694
0.4502546952868727 0.19669847606860458 0.3933000068235799
0.2753761655841487 0.25618855506175464 -0.04267370627536593
0.29314085592724837 0.24105501723579437 -0.0071038044037834425
0.3158455703541847 0.19407058853151682 0.07794445270177164
0.31921083785684345 0.2485808996147938 0.07321021232145597
0.27996297032686357 0.1656958105662909 0.0067293516641910855
0.3032900398550993 0.284873637321823 0.17792554316157805
0.4386231187375813 0.1677366968996239 0.01904240248518363
0.34378813878026904 0.19878673428158322 0.03645464576234758
0.31407091990932656 0.2219808924515405 0.062432872543269013
0.36121060906575053 0.18790915430395216 0.08119602458617692
0.38702534411706324 0.2345424037007433 0.10362444136239901
0.3635202779012303 0.15675665351039925 0.12420057950581054
0.3776778721092171 0.24768569508323424 0.09235440152687602
0.3543578700745229 0.24573695834926923 0.1015726078222201
0.32822284365201426 0.23175108486506701 0.06150994832397316
0.16757182683072358 0.23639054871591725 -0.20607201710600975
0.35834153093324517 0.21745534397619792 0.06966713502643529
0.3282640631206277 0.19857107839673915 0.07533562827842388
0.4420910132337923 0.23080762633230734 0.15981266332268262
0.36432008366534774 0.23601846906342416 0.15609905089397103
0.39703790624024293 0.18693508754773802 0.00913086926365736
0.39803307631612483 0.16768156613917995 0.22938584269375895
0.3501301689165359 0.20239147096528143 0.07251067033564595
0.23320130210132106 0.10906888621852318 -0.01631511838093047
0.4022330801615368 0.24401812553973912 0.15483693633183293
0.6055660870481745 0.06059375317448712 -0.3044877027015218
0.3490183724618703 0.2007168766369034 0.02492137621651125
0.22903561735975586 -0.03293681137907356 0.051458596849641935
0.31834342710277497 0.228382021165217 0.0939584354269698
0.31803843117057795 0.1752720595437438 0.06423156614371806
0.3159060861281944 0.23174144116664763 0.08074812916450469
0.3693902753481666 0.31106844209153905 0.14326701076251425
0.33230719668941333 0.22160781556230802 0.10671894421506067
0.21305749463947166 0.25582029524466066 0.037155699042074275
0.3504795095211932 0.21818151815165265 0.098217742909398
0.21492562946212956 0.22530371681986594 0.06735523439664348
0.4086641011737697 0.24162571304039204 0.029380605441701846
0.3125191549541455 0.17529667351639944 0.042223797282133546
0.4075524820964773 0.2960592299215534 0.20258041901784907
0.358867842869671 0.21273194639935866 0.05688720118770618
0.366530046283259 0.22872810658395792 0.10993033004970698
0.3526317533782901 0.20104834898056367 0.04368581958192408
0.3915768453954058 0.16968145119838596 0.007152082143946359
0.30401314555703607 0.23506600563368352 0.10605247617792202
0.3468235523447305 0.2467677484187618 0.18073671327630336
0.33311566682594673 0.27469069933367507 0.17683396958173603
0.31188882274510377 0.1801842987485287 -0.1652166026117925
0.3336020793748844 0.21355888077863483 0.036909826195085316
0.30227370573894063 0.2359058978495625 0.008954938597895534
0.40634032502933337 0.2627841073695265 0.09278952915352079
0.3368849351810894 0.21364930360064704 0.07035589826426758
0.3462673171272428 0.18193879151247927 0.08822753299995156
0.3499948106917259 0.19988797430531235 0.07474256964940196
0.3350205046293695 0.218895052229783 0.06781808589863658
0.38883570910778076 0.04454553459724764 0.1255562371494392
0.3586581184478206 0.22604081565857825 0.025129830641390072
0.3310635203123269 0.20027902592330804 0.019468822952148912
0.25077115104363656 0.20573418655774844 0.05621858630860288
0.39278352467891864 0.18753517825608412 -0.012400822112397236
0.291129994512346 0.347088795576866 0.17477741010500836
0.34768489955374093 0.23072713544993917 0.0756280687096762
0.3241449138089081 0.21439505379373713 0.056835257168245334
0.4183478261311677 0.2277439383256592 0.13477567196964912
0.3390684597771383 0.21700653301695638 0.07186139810110603
0.3592552345171782 0.22597782462608507 0.08002047666366252
0.3486471530819557 0.21807337992831322 0.051902626923734374
0.327737281359731 0.21867029638144686 0.07868585066492528
0.34328740378435896 0.2382189738980287 0.06157837278770728
0.3804064737455235 0.14501724380599512 0.2497145933783287
0.43777743412647396 0.22306530333429464 0.14229179873943565
0.4086338283476323 0.10606966299172882 0.08602034331048003
0.22816260041551573 -0.010470154051162694 0.14229447072216317
0.39208065464843855 0.24406326424168867 0.12584814884664297
0.31914107026300087 0.20734383954831515 0.06158975250360754
0.3138308399852008 0.17093751096363974 0.023563488367742025
0.34836158668267103 0.20095622392430812 0.17699576932915306
0.3412245268227281 0.2830656657542363 0.06434406620168431
0.44862207402506726 0.1907350759363453 0.21234875233641048
0.3299744475251032 0.2143054170094132 0.03234323325096966
0.301681579904141 0.24932924009985413 0.18013763415791573
0.3007977709693108 0.16113396182359452 0.15733026397850836
0.26377096401228073 0.26327832203764956 0.06685384011620954
0.3483404682351363 0.1869795190130361 0.19008197117145187
0.3649635294342204 0.1905592897921622 0.07671935094441551
0.36388326366214585 0.2070782144445502 0.0866584452904533
0.2766623794400118 -0.0005384791161304747 -0.10545928383392322
-2.6676640284807718 0.12977789337881518 0.9435013821730536
0.35612385663864643 0.223515668226284 0.12726708364768058
0.332388889676281 0.25303140624593823 0.19364373454057215
0.3449884217340582 0.2093222114652349 0.10681594741924982
0.4630465872554623 0.20289609539136677 0.2002181583762166
0.37801460829078337 0.2685730681627376 0.030982437120954387
0.28688194905211617 0.22724908148860834 0.06538150011269295
0.3573237655222954 0.24427176862104716 0.0844044139505229
0.30636345718630764 0.22012718136531362 0.1101835448793338
0.37318241157407783 0.24149220119947756 0.05331672676663857
0.2584664227340454 0.19437927151832923 0.06702175727461679
0.35276370150876346 0.22545523978197934 0.11510488167456856
0.4553748781616207 0.24035794235035723 0.10449478346180285
0.34516423430085297 0.22140863525214627 0.07140971306023403
0.3886997580699756 0.2363356932423244 0.09824468405507503
0.2468071658433928 0.22208119100193358 0.007663809238493968
0.25301367473554137 0.2046811041877703 0.10172418434981978
0.42325602470353374 0.2816212241227447 0.20273309518921678
0.3323455935913131 0.2643235231357721 0.2014823887700743
0.12253386518617049 0.42395197661721795 1.3772671864639108
0.3395506713830656 0.10605707180997115 0.04475486496863823
0.3303059023715349 0.20429209524482417 0.04705019613322747
0.7490272240949025 0.09679848927883938 0.31992438421153224
0.38129869136727734 0.2572361429564438 0.21604353478900862
0.3851262174237604 0.27952008588941624 0.11019893775167589
0.35053780032799864 0.41396461849217303 0.14030378989083658
0.21783988591440107 0.21776882160585842 0.1960387183039245
0.3178243285222635 0.24901233787636556 0.1347933654675444
0.2868793309495459 0.27432444754452945 0.030160477414469256
0.6815412526200078 0.2072668914560012 0.46169331294296967
0.3093379256104072 0.22464067474254534 0.11998070790784254
0.34360658000719013 0.23708555830383204 0.11376791163097266
0.5340309142443971 -0.06432392321292468 0.522505902205566
0.337408478082466 0.20974360962281935 0.04754896198724623
0.29713670895250743 0.18689202452858922 -0.09037270648354934
0.23174367516980965 0.20565613991325904 0.048741247910243146
0.3086209874302597 0.19749335987722816 0.044424091946055455
0.454110974904097 0.28082646703796854 0.11507110503464446
0.3593088044467265 0.19055460082051923 0.020751521400796946
0.1216969086674311 0.243702415775374 0.07326947194914624
0.39790479743606966 0.23734623713825442 0.12320657868284002
0.3738813196610664 0.20550578333305225 0.03717317332686321
0.3651914378420855 0.2020375099125573 0.05615496563635247
0.2538541664712568 0.19898992964792228 0.0018009886332066571
0.34950678823841486 0.20214279867974483 0.029745660729048495
0.3397781426303652 0.21366345823830102 0.015112931954675446
0.31973454232296206 0.20619025910806954 0.02373817165621972
0.3440989182408316 0.23804831265442772 0.049488664112772085
0.34008084231166436 0.23417913089699027 0.20341442246811425
0.3120486605720174 0.20049961798224558 0.0635079272385326
0.32340657579487697 0.19898747889789092 0.07866066497574309
0.2811014576116122 0.20728219748168897 0.07826659856010565
0.22549827740265016 0.17011535896912733 0.062332464489685435
0.3543172558714929 0.2970916678753781 0.22970585528688048
0.3629785434009989 0.2389295372161655 0.1983679354684682
0.2446361520724878 0.18390935024618216 0.072628393721061
0.2629239973023516 0.154910714522714 0.05806922939581227
0.3935583682465733 0.22843364711950187 0.08177706613216174
0.37775024707862315 0.19820194267654756 0.15632840610177823
0.3656735523130408 0.24441493007665827 0.16443099772678238
0.2887315522887093 0.24976332311217675 0.26229700751324003
0.3038739942773816 0.23657516590225214 0.08215068693098715
0.43732628201895807 0.43295514385856393 0.18439653016045554
0.356410628451556 0.21191594104789147 0.06263719299147397
0.471076634001264 0.17085255661787357 0.10954762785840444
0.4002648729296254 0.2243691827037395 0.09770063557377284
0.3170465295119129 0.22935522990445634 0.10717805250877177
0.445985243781422 0.30423408408549335 0.2224797701116472
0.3921206646961508 0.247933960061971 0.2208257879175619
0.35231632976345395 0.2498870558671058 0.05868798159710309
0.09933344731882698 -0.028621119463480227 0.07019022959397603
0.3104768092551211 0.12734911197156862 -0.09693851552705723
0.3555554960992282 0.21210113583782686 0.02622855835032567
0.37588265467033466 0.20867457371497267 0.04901288598361475
0.3395730790565352 0.21830621191423916 0.07519108430555832
0.38603591966511885 0.19494243877309714 0.12866122279361036
1.1216902389886911 1.476759796320735 0.6148987776965953
0.319756377061708 0.216894535633827 0.04281950617846064
0.3267232873763959 0.22449479078889567 0.07639822275712049
0.3256119582462702 0.18603337709447487 0.06289247505765161
0.2978797847286785 0.16334854865650072 0.06473183985572462
0.38116495495401637 0.22849114701772066 0.09618542071113723
0.3681927701054519 0.2564885526655587 0.22600840554224533
0.28602571505891206 0.23047326800156043 0.11224336191330053
0.34797905597861245 0.24430741983451298 0.09412635389615787
0.4477800454559997 0.24672412575239377 0.10205074549784854
0.3076593668965302 0.24945170729577626 0.02686504575466131
0.4166876583070831 0.2607163760326472 0.13493348297356533
0.2930864860025224 0.21358673455233657 0.12619753961169522
0.40350514176651586 0.28773797084031116 0.20331907430485785
0.34701035047238804 0.2115495616912142 0.07161042775585713
0.3654718716885128 0.2546117699466208 0.06366754506547068
0.25456293164161536 0.2688084095802168 0.19116540539627636
0.39363400879489063 0.1964360502675646 -0.04687505279001414
0.3908052659001555 0.2785386330382096 0.1534688852886461
0.434255136822145 0.2206213542130655 0.05835290455721065
0.4787214236285138 0.23721691478947093 0.09632019943308023
0.34531707717175664 0.19175331342482593 0.06431905402956772
0.3546540402695939 0.2327654156762975 0.08430595316285405
0.33448149875837885 0.20701592313068318 0.07505820352869819
0.359413167464794 0.21462780797615721 0.06830738512961432
0.26454279036211403 0.2553448129352205 0.0876941629629755
0.40043681522567454 0.2552562871964881 0.05208757935152164
0.3458889651218726 0.2477914781411812 0.12864220088457046
0.342731419316749 0.2229578747153198 0.038293588693534275
0.2701621861040735 0.1725089489374625 -0.012354107418190097
0.24942627210035084 0.18604107202881437 0.10406858003571529
0.266241437706384 0.16815581175487182 0.10444803878073117
0.26861918195845647 0.21541343052132333 -0.04241094744841689
0.35815768142205684 0.27955116043483486 0.17316698312825451
0.40658562138074217 0.22154255223688324 0.1304677447637772
0.339746156545516 0.20063563057644274 0.16317271728387084
0.3452504121752611 0.21838398158865857 0.05742309047383287
0.3229343255497099 0.24147931070314144 0.11668762167985847
0.3197481145134873 0.24583291146279862 0.15713427771859756
0.21495859746985957 0.1106705045832399 0.19010855205181088
0.3991460774882114 0.24685728117127326 0.0799183882575818
0.31076901771663756 0.19849187216766495 0.035944264975341866
0.3056016699976567 0.19018664472638136 0.03349448566825686
0.2916607056476437 0.20960554238612872 -0.03654406821061684
0.20571731541272698 0.1902915228257882 0.1323677678552997
0.3023366126275846 0.1798047498882056 0.06457414877652923
0.33478661456391023 0.22928126779456193 0.06950955968918038
0.37000183569966794 0.18077465366852152 -0.06616881939491748
0.3311060219484716 0.18736946303471314 0.054969699763034896
0.3497988852417393 0.15009718354440338 0.09886346482144859
0.3490597773219122 0.23330358551692143 0.07877009618572117
0.3675002909578353 0.22481849463486014 0.2506288329450115
0.3317033768063311 0.23422319500572542 0.05273005737066683
0.26617845662823925 0.03114289498412859 -0.07894355686792665
0.3737704496033132 0.23248509427985198 0.09293159354623981
0.38402987779245734 0.2422298463441308 0.0858217906762917
0.3502038175367801 0.22649998718354425 0.16169994284271638
0.4047556371021699 0.14286226832709303 -0.047866490870632106
0.36222837525377827 0.21028451568342632 0.06101134651164841
0.385147013045696 0.2411909330027413 0.15337475938122225
0.32715860886997916 0.19684130114592335 0.08026300870878345
0.34201995741143776 0.21008474759611317 0.09884129138215769
0.36707610208316055 0.22991395091742106 0.07454872568703763
0.4050376424782627 0.24375554614537975 0.12467870765630096
0.342962128400643 0.24847531178863846 0.028701220401572414
0.3120353557419975 0.2634601331540978 0.18800948645599647
0.3460143450801638 0.2225554637486198 0.08043866541558486
0.33697126202267214 0.251604399926336 0.04301695863767918
0.43902180914133737 0.27722091183170505 -0.04259404052675109
0.33732451647418316 0.24707993052099653 0.11899871662606643
1.0894601998217865 1.5006072106852741 0.6404163382636625
0.33351545043566944 0.22199969126231167 0.10156818309759785
0.29045778045147586 0.19324967231017354 -0.025692039290987623
0.3240585345307494 0.2262546543651922 0.1008651024572913
0.37227615929660374 0.2577633192487525 0.19873006696708728
0.31475525748078326 0.27416899564391883 0.11110414511290401
0.45707809522005505 0.20730581310564844 0.12399440998038358
0.3635952517245471 0.21877086834513193 0.0679953223753671
0.3705340743002523 0.2379387076975945 0.13044215337554022
0.3625830825606755 0.23867542125890395 0.10303946670165942
0.31341961545234653 0.203731053213005 0.08665435244770947
0.3600779862944705 0.22891853043751098 0.1081872185305599
0.35864728962653203 0.22599750586772416 0.06363773808817541
0.4345872399403845 0.23270906981166206 0.042518565037426015
0.8074306767090889 0.09157561340497011 -0.8367896538439652
0.3910269187200299 0.12464174571150011 0.07170320851986389
0.43740402264785416 -0.008222537838321387 0.11926258539912737
0.36734610431660997 0.2254527018672121 0.1116742181164625
0.36607493862101137 0.1753506806099807 0.07167276152240731
0.2731867046960872 0.18840498136474082 0.002790160878134884
0.3984415644942487 0.1941222417051165 -0.03719088391102332
0.31060054209594057 0.22852636865974318 0.10135819337010332
0.2570048513971699 0.28807985783763 0.07597044825779165
0.33381294257475247 0.22235172054625707 0.129379104473756
0.2757874351798648 0.25580390087694127 -0.05514610840364753
0.33916901411890876 0.21847069584308088 0.07282744564045629
0.3799593199965301 0.26421788208445207 0.09522757723524933
0.4446690097058763 0.26138708298429947 0.132974468838313
0.28897821499532483 0.07480165418979823 -0.12710734635658127
0.5821070253782921 0.49062425932379483 -0.3058879334151072
