# .PCD v0.7 - Point Cloud Data file format
VERSION .7
FIELDS x y z
SIZE 4 4 4 
TYPE F F F 
COUNT 1 1 1 
WIDTH 808
HEIGHT 1 
VIEWPOINT 0 0 0 1 0 0 0 
POINTS 808
DATA ascii 
0.34309380487269436 0.24564454701496174 0.12815236375612926
0.35500185859311273 0.24202123147634325 0.11784698303945618
0.2167105004127592 0.25401631502006694 0.059935311887727494
0.38852456088631016 0.2391190218636865 0.20959016627176652
0.376576308641134 0.29931014669264755 0.2951768558201451
0.3578536624332145 0.16693534063469428 -0.02456487290817222
0.2820804052897188 0.22653108703383396 0.030984379489581215
0.340065265083652 0.20819205478569813 0.06559809723063381
0.3760801169371746 0.17642126666481772 0.04273710279792908
0.3751525737278598 0.21597775452337942 0.11722583987022972
0.40680661445699684 0.21918761951806687 0.14863658538999402
0.38093772257317937 0.25886907277448756 0.13035262734868525
0.32310554522049983 0.06992157032121327 -0.003466893717131825
0.3237794690806197 0.21607631192500776 0.07502762576848454
0.4091576784506117 0.22064992055422294 0.0690489760633426
0.4388521255636988 0.26178361215650625 0.2171164171469968
0.36237025434706993 0.19943507910519997 0.05470205040825249
0.3019589914673304 0.24436240376820706 0.18151627109577362
0.34026120492031 0.20398363919386497 0.003357767834529568
0.3381430013225497 0.22596636777001322 0.06847703835828156
0.2986533081085838 0.22202146039848003 0.08295517951721365
0.33948127249959725 0.21200946364793083 0.11689555842087884
0.3649972954024463 0.16138776062162208 0.0473151295924481
0.4374220867912584 0.22567192726371843 0.10321211766836313
0.20295845372497467 0.2710119365957837 -0.20263828068715384
0.35457168843453246 0.218075158698241 0.06133765760262122
0.35184791802930704 0.01967282907145318 -0.51537069953676
0.382516388481946 0.22392527630856307 0.07105536788883171
0.4316318460569448 0.15684072052380316 0.1409368842437857
0.351371088803063 0.22872596339004758 0.11868831641160682
0.3861234491795358 0.17086244475828494 0.0024735744940613813
0.13558294575130958 0.22912141453372215 -0.13912741811805063
0.36110720840062527 0.20998480176638168 0.08262627400436884
0.47436265288990853 0.3887284531574835 -0.0002869958767917069
0.21553576448454237 0.12929680547600242 -0.09532504337573755
0.4697469962209624 0.36734449551789794 0.3703796996125561
0.32829772340420504 0.2251490976097017 0.08907122288673008
0.4463176208820414 0.39522511921796877 0.5114800722737698
0.4446855524986404 0.2667036344584801 0.15643402369369142
0.3318904386621284 0.19892869938733782 0.07249156843104743
0.34000127933703084 0.20000011578869703 0.044857380330554975
0.3012105716468483 0.05706308731501508 -0.08870314655658262
0.301723536071151 0.19327268246587437 0.10792059529609332
0.4353380118199368 0.18946290812486666 -0.041329018318549515
0.4554755750926631 0.27593105624180225 0.16595986844660615
0.32882139799690435 0.20831882809103774 0.06294427914284029
0.3026696039678711 0.19356620877491082 0.10312775930717066
0.3215780105655597 0.22784789165953612 0.04294576454336152
0.3166102569708471 0.2895739974458138 0.11995804057099235
0.3702605556261602 0.112741693798597 0.24536530987839456
0.32669096227108696 0.167757600624455 0.05434302688151149
0.376648128496214 0.14939945290070966 0.19660649155366627
0.34337372009063927 0.21626361401949623 0.0753333090645043
0.2888562243854551 0.3061531435255205 0.1528905841954895
0.43277028247555904 0.22432784767553926 0.21475134299853949
0.36890567060697776 0.23094023122682472 0.12592636190407802
0.29532588291175443 0.22495657156420634 0.05958577493046846
0.3141856303578692 0.23772936029956782 0.05955079680316544
0.35572377806383315 0.16852543593380176 0.013993407642743705
0.31884130180796433 0.2747289162736024 0.11160557200091148
0.4172613967846672 0.23614238848371372 0.17902362392479176
0.38775459919341415 0.24133584037542732 0.14238877149124107
0.40067174755012047 0.22529497315406388 0.15785463546134793
0.21476463667337953 0.20475179018437473 0.10353016404532411
0.37690027321013986 0.23293722621249913 0.17466900235569938
0.28888484218947497 0.2238870334444698 0.1050604396005923
0.3662611028789229 0.23511146122669402 0.08952334048298383
0.26895960557445164 0.17290639405439379 0.04497466696508923
0.4230029605010657 0.2280910079464178 0.1400188342746418
0.3873990121002464 0.22029640720219845 0.12587055388495116
0.3124016963199665 0.20755920615923174 0.07488374134916853
0.34314009705491344 0.21981126833961184 0.020527923333048648
0.3901202168427744 0.30159398464527953 -0.26959651775368343
0.34672623281036863 0.1991857641771162 0.059417753780536486
0.31241193952055824 0.23406916272929834 0.24369235082284035
0.3762498845132427 0.1279157811105165 0.2867943790968752
0.370394449252359 0.19253659784675392 0.09048622013378349
0.30235178634320903 0.2069063070747461 0.08696004366163379
0.34077084891004006 0.18644339379764574 -0.02671173254604753
0.4783682739752635 0.2346298846768775 0.12274170507744486
0.3873744404756394 0.235495536913092 0.09990952580554335
0.28840809098070963 0.12216209917360743 0.026730696990227898
0.2669042157635886 0.1254403265685653 -0.07949827001164067
0.586124995616899 0.4815997779441261 -0.19131958580382502
0.3831799019564528 0.22751175607052687 0.08731050817638675
0.2869086162320684 0.19056880449205948 0.1816226086390742
0.3542744675117433 0.22004722691679035 0.06616019993833788
0.3915472670892939 0.23612462076489749 0.11936585111276088
0.3391681533230724 0.19718785217665413 0.017282927624080457
0.32039150122426463 0.22540841020679636 -0.028573352521249262
0.3403081550503657 0.21771035021862417 0.056459132124928146
0.4995721872563763 0.3168771130864627 0.22672672490543277
0.19604359270874738 0.38207977720131225 0.07366273405315837
0.1978781067447386 0.15072534538538207 -0.143269906067232
0.31906025191381104 0.22525446222846313 0.08656178812063331
0.36650220354454177 0.23850063747119066 0.09361059879387312
0.3224140492784784 0.21249945323718578 0.09707622105527491
0.35238102957580963 0.2807330602417295 0.056841710210562724
0.34731878390809356 0.20949819526390456 0.07433176923989038
0.3533035589984763 0.22364966055081936 0.10990345849573657
0.38206982022873603 0.23752773860171317 0.08976084525851036
0.3790495115687236 0.2827251017273227 0.12724333005550648
0.3719994309490744 0.21202038113402466 0.02705636818535595
0.3214067932379976 0.18444893413990826 0.05954210883433575
0.43076945020314383 0.22879990772844394 0.09037997436809064
0.311253800593704 0.24476983689115173 0.042163006462971
0.2696615631385839 0.17550072588747412 -0.0372041467643669
0.37938034206855775 0.2094471725994964 -0.11470939364492949
0.3508122173218453 0.2465842870731052 0.08780190361480322
0.34135169186367875 0.23420300171221697 0.2974922203445658
0.40154060273548 0.19902638510802717 0.0809394540328725
0.3763107915210355 0.23849911327189943 0.09767942867303248
0.27746410285385537 0.2522172959907891 0.12579992180019417
0.3481798394392257 0.22654724109079893 0.0513062982996928
0.38397616972301307 0.23275554168949952 0.11465201282780413
0.3769236033868708 0.29469374200743914 0.2548185002735721
0.4214572950700983 0.28140276537706654 0.1248165036117257
0.3731471388589256 0.3735815366590032 0.13961768744405845
0.3802896509394884 0.244306586345715 0.10772238350890007
0.3890541058999304 0.14280206138943186 -0.038777604570015
0.2794936196949038 0.19198916797256516 -0.008005092662955349
0.25487581010810345 0.20570172870142756 0.02800941810399138
0.3754051052236207 0.20913485095000794 0.12300311324122504
0.2926811309503705 0.20889481540126553 0.07646345802180576
0.37830920232086385 0.2159083873911527 0.1324082163288267
0.34602394176889106 0.23999077949073921 0.05637723189622079
0.3015386048470816 0.17996507942885387 -0.009657532265094915
0.5055286650829203 0.23078590809538468 0.09814631863248735
0.3239142532270023 0.6715316838081549 -1.1616076581605626
0.28278721133338536 0.29366357647077734 0.08304113020099635
-0.03243513931010966 0.2928144037194329 0.17647787561995187
0.2716962212014806 0.18840957323911312 0.0035891253865116823
1.048976845198382 1.4988341773802745 0.5587648189676884
0.3927226375288342 0.24952656244701643 0.11625999927377961
0.3447877618028343 0.2031449045962006 0.08363077115970441
0.32975783382332224 0.16563910229899648 0.1588838428890682
0.40174881094208104 0.23442270432184387 0.12927688149841288
0.406964496643468 0.2161122487472369 0.05490276727505261
0.40989182896437626 0.9642385580521307 0.5196754986923793
0.42811406043796296 0.285319582662936 0.19168209625851773
0.3354935660043452 0.2053615123176371 0.1444532790516604
0.3529432693213437 0.2030921719052401 0.07806772670922157
0.3457609327582247 0.2221609862080527 0.13598073702269176
0.35618023234749785 0.22795273778802994 0.07050835468970718
0.3815354890748921 0.18158024122388383 -0.05243738554614197
0.2891050125564334 0.21257980387991893 0.057383305358342795
0.3711283228577429 0.2976166318623257 0.18304063161787099
0.25838789430558506 0.22005047325319538 0.007515102897443171
0.30382055700445676 0.16943011606038283 0.06964391162966876
0.3712774698507104 0.2187215220258878 0.08442498739469784
0.2957579352290054 0.20372615641447567 0.03264008780354288
0.3444382990920758 0.1900276396717544 0.033143748798352135
0.23716126844240648 0.18173688995426573 0.11002855487910779
0.06425149553258791 -1.6017585449829994 -1.4013567190791747
0.40375012316044945 0.2793969964572227 0.180246049139555
0.3091008936285675 0.22238551668635864 0.029568992673318917
0.32637236208955756 0.18646361369943065 0.08659681709721667
0.40962811376805064 0.22796143772242772 -0.04176708681364971
0.3025951726183962 0.22077082931984648 0.1880290162505105
0.3565821395915947 0.2173922080723969 0.09396791070525978
0.29489143712709165 0.20017914289408623 0.025029341942399697
0.3149182496067908 0.21064020453653143 0.06636013162136578
0.3830871417919184 0.1935041313190311 0.087339805817777
0.2803649091808893 0.38232205235385663 0.18393681160247866
0.3673132066583662 0.20955427494047285 0.07322263448814681
0.33516837305649005 0.23061788287671448 0.013025659057916528
0.3927667663926684 0.23509286854761058 0.10776400364923688
0.31660290270134794 0.26565923922871093 -0.12058384328116745
0.3316124823970057 0.23001953929741603 -0.029222016589386612
0.21859087998373639 0.2186204934849343 0.18223769867982753
0.3373445566050748 0.2279789389274356 0.11637342326324074
0.2999908033646079 0.22724707446231207 -0.0019608050493076234
0.3584600806849352 0.19948962976599205 0.07491782695223037
0.34158486869260685 0.22146857036524636 0.07815506701484765
0.2994156257287415 0.21276364494026723 0.07392517334203319
0.39410631373809224 0.20099177719720274 0.06515702421502567
0.3365261856998245 0.20781763747800142 -0.059958799659469264
0.3150079398974839 0.22470469564943585 0.09502883155596464
0.4201403368850265 0.23604707601013786 0.08328629951428468
0.48582669107474885 0.20957542885540192 0.04150311172982413
0.2145026316081271 0.23399726808075627 -0.062261877150874056
0.3158390585162749 0.24495982731036747 0.10419413332584782
0.3525160822278792 0.245490971926003 0.14535417394584726
0.35756480692242576 0.27592998405489766 0.005295869099626316
0.32505024691346307 0.1780359837129879 -0.02424434254874086
0.47566041114237123 0.23014101474959148 0.07098972704874029
0.32537746577285986 0.24237749258381314 0.0655562445244442
0.40631362010542205 0.21010279049124847 0.08920156432714066
0.35131567493414195 0.18327717716931602 0.09362230424625295
0.358471751334676 0.19090151969693636 0.0016922672471082478
0.3390197993344657 0.2169672777290259 0.06293157495838386
0.15797798980324274 -0.023409329391441247 0.1619200591415506
0.3185295583545553 0.21978175186126236 0.03975356896830817
0.3246970087152903 0.2184045631110365 0.10786293964522997
0.4101832155901377 0.12208044672709661 -0.4882406875831862
0.34261337341058606 0.2081910544254697 0.1193195533876974
0.33942123917191225 0.2220679020446994 0.1467957338190331
0.4658203168727937 0.22099938660286966 0.128999160998859
0.26291683635190566 0.2188499736214169 0.044929474650444945
0.40059038734848684 0.2478457916766672 0.18875008906323387
0.38902758690414885 0.24443854848711055 0.11870345855356845
0.34405212604349344 0.21920493099719351 0.05494884720104665
0.3922351978731342 0.22546700772130635 0.07658858976549254
0.4012172027230463 0.02743511400684895 0.10597498451336662
0.3545333647256541 0.21686922768191152 0.07240648637002778
0.22940451675003715 0.1403855443184625 -0.03436818996351576
0.7546279504009874 0.023625580819228276 -0.5360508504927424
0.3426340822667555 0.3434289811029885 0.1200765035740119
0.39555772451554105 0.22172675579903967 0.06682860588455242
0.3736556487108942 0.18571232637739854 0.01954828293708033
0.39350807435329216 0.2133311801465254 0.09937159025275832
0.3708851794517045 0.22522771085135673 0.04606021716250552
0.3990456097970423 0.25983367493635967 0.1579118139720208
0.3310797726863939 0.10708526462157408 -0.01857315679839644
0.34450061963852363 0.21564814337648386 0.0164290356806589
0.4692381960771286 0.2379225812203032 0.08399020191669138
0.34182217843665796 0.18450831031773873 0.014107656063117702
0.37556954310497304 0.2687043390688473 0.12191616567591268
0.21705131492234386 0.21767229934178545 -0.022717107642876044
0.2729079979088169 0.18941454546148861 -0.038516663520681504
0.42824437884949873 0.252056902107455 0.2860417450781938
0.3458005633813741 0.20060442424579605 0.0916294739432999
0.33379577115944414 0.2097301809401131 0.07013164218746226
0.3758758470556387 0.2149753644875716 0.06282491209854868
0.3977241262641371 0.21424438489896147 0.10062974876748854
0.4434813147899632 0.2863999687711072 0.1320539114968824
0.40763535614432556 0.2013995550804566 0.11854310518734223
0.29883508375709766 0.2177767974807523 0.09057750597452241
0.3360949716933703 0.17548043492607235 0.08536239506685206
0.3842636695761996 0.2553049860316037 0.10174484424834418
0.24782570823806793 0.181818934811659 0.07516930285180479
0.341458424228648 0.15948205452963293 -0.008606010528694696
0.3729382887365773 0.2891194578346017 0.231084256915139
0.3739744598791219 0.20129395309166398 0.11329369949518764
0.3252572866562673 0.20454611306882953 0.1451407046612445
3.3124808767123 1.6417892191235808 0.35639447248513534
0.3704063030721585 0.23404843575718814 0.09145970782944346
0.3780368196810002 0.22396422638792046 0.08269124984602172
0.3057773117632365 0.2037514468640751 0.10242585315400277
0.2875169834035489 0.25382960597650595 0.23511388345752948
0.370585167078076 0.20542726699542868 -0.0880500981375576
0.4420472362125878 0.24470740090642096 0.09922792332926633
0.34148977281941484 0.25579805765258357 0.14059969610248402
0.41003577439244054 0.2709982429423121 0.06758129835651516
0.3640783023255949 0.21723112209014062 0.08026886582847226
0.4258085913899663 0.2553531795929729 0.08177469344272481
0.2582073670410807 0.3256467853297238 0.09464075375052516
0.30989600232170744 0.1991628285148579 0.04008938092758285
0.34767356124568494 0.1709597624749648 0.1405581050812259
0.38503457813398256 0.17005689471656638 0.05586700875718975
0.35654005182956894 0.23736618463394166 0.16476102145851712
0.41741277381407826 0.2653189862155614 -0.19680775968882358
0.36243094360361283 0.2329812050825808 0.035767037744946606
0.3305804748875829 0.17821979424329015 0.06479254702239245
0.5098090906391803 0.2665424523716098 0.15503551867779208
0.34845981916609503 0.2284286995256224 0.07974969997809467
0.31697986740802264 0.17303139377270327 0.08328363106167558
0.3415456016884093 0.24639897325344862 0.1049740146406748
0.3606962113836687 0.22662996011352732 0.08072740818033708
0.34269035408885884 0.2218603640623087 0.0515970548523228
0.5333936793278156 0.2681873638332064 0.5377241482596276
0.315233202715433 0.15852325001603162 -0.09006572874113772
0.34273240290826834 0.2140558175081253 -0.040609368010834146
0.40180511858272894 0.22773193138158376 0.0776660459143983
0.19690124363144434 0.20854398320193468 0.27082226032194967
0.402304052904185 0.27084864175128587 0.21762486721996765
0.2968357080413 0.18392664004616677 0.031056973715209324
-0.021898118204489947 0.08896212596249597 -0.12706895208081903
0.37615000177461866 0.21376920842043035 0.033530431738853395
0.4319192970591246 0.14260623732090494 0.04771898987426937
0.3114293279309095 0.17255133602498063 0.12423287564783436
0.3865273790295305 0.24953413004253377 0.03711289889145064
0.36418710130962495 0.22355594874892404 0.016212072438463565
0.350159704626833 0.22040358713070418 0.09198477124809301
0.3184713351264463 0.28497908501034885 0.14952178880696465
0.2528256123235906 0.1985928202038849 0.06574037700465851
0.24494115439043185 0.2313689276637092 0.06985004430435993
0.3804523963298436 0.21387608378114464 0.002949881098047058
0.3548773658298643 0.21773281157777546 0.09226727508364263
0.32602890719695665 0.16904611048970253 -0.036358193746366396
0.4341621261260258 0.21784042839013296 0.07049150755301525
0.2931810254422942 0.2186964410770571 -0.023225321389645615
0.368161889022133 0.24347324369810508 0.114146364900364
0.3722097202144141 0.22365381149825225 0.07282751638300056
0.34839762193820434 0.2304573011495279 0.12471614714095836
0.24418168302209153 0.2502507804986749 0.24601380192159183
0.3785517414431183 0.3537628600146405 -0.021792762008118416
0.3075116610688724 0.2523713015137048 0.04925090158016587
0.34539259753263707 0.20284589662077224 0.030088181702893735
0.37083534191486933 0.23915370559240046 0.08384004981421356
0.3740056166262917 0.2975490452402596 0.03024940157163769
0.3195589887181285 0.1504207954430825 -0.025034069155935867
0.38303790653155545 0.2149696005527204 0.16602818000158948
0.30695148975615894 0.23583962357949417 0.15582324682080184
0.34929971720805497 0.23323473512907356 0.12333346285171842
0.38527179830091995 0.23028129069352588 0.1114190662867145
0.350439223655826 0.15216096258524203 0.0503978948127326
0.351981813256387 0.20396734824734608 0.09363592309753699
0.3581953101490001 0.2651542473002735 0.21855688094909453
0.33716443807000473 0.21059301281563592 0.0693237306963681
0.5350593228409082 0.1902765188952742 -0.00459225902946514
0.3680759240062912 0.24462925061146734 0.064523677166477
0.4669401566134326 0.2653293201356348 0.2201055483953951
0.39353198223463437 0.2612332493905001 0.10352706262179368
0.32011699157897056 0.18627632133467387 0.013725248046284833
0.3828485162327411 0.22006416451985444 0.08344172210152578
0.342985495846591 0.20601041199914505 0.07470123590059075
0.34247647461242536 0.2278917058282275 0.14006762658317484
0.3301546839102798 0.24004701814433815 0.08727057909163705
0.46739832449497953 0.24065971516448315 0.1639014700216137
0.3610371822922218 0.21283241585683754 0.09164320420775596
0.3249686189277696 0.23284954017918835 0.0926549462790831
0.32717214471259126 0.21265180205608658 0.05806203288148026
0.27057734387847177 0.19477939242744924 0.021407171595825503
0.3993529252393273 0.20890469117389898 0.09954851098146378
0.36071542313106875 0.21055945291205092 0.1092476391077355
0.3657976376584031 0.19149984267613718 0.059725975247260976
0.3872584453501702 0.19953693109630422 0.08704270142561654
0.28957775947688447 0.22475389639984655 0.1325766931169028
0.4007502512815222 0.33498978489279807 0.20035056942907659
0.4613009334154441 0.22239458425235625 0.13087466371044343
0.426143986796518 0.25897071794103965 0.2165158254120314
0.34423511252295214 0.2508327155172623 0.19866723634613948
0.3456087150205036 0.19277236245793006 0.06556708758262175
0.5142160607158814 0.13352814317102002 0.02895731906963306
0.36953411943765957 0.23696256469889931 0.1361910604780121
0.3104278416211912 0.20413812309300283 0.039695125683550714
0.3138811927227607 0.22829849838325345 0.09924088353039906
0.3873411843709249 0.22960753574675152 0.10342210483619851
0.3387103624240524 0.20356941185718824 0.02680065376395646
0.3519414432854546 0.23750888334410547 0.20890166257042608
0.32115788867952233 0.17716749901507 -0.03450015012623453
0.3223408514381845 0.22521913023680895 0.12409231202710203
0.40844473515504376 0.21020729346572864 0.17229278469837084
0.36431564880741973 0.19300285921403315 0.008535536800707177
0.3470581373390189 0.20078279588605596 0.12774443728255847
0.42207302168230854 0.2663492075789975 0.1781564874748085
0.39434815311290095 0.2692479573278206 0.24225423577064475
0.3493750963803137 0.2241496265179137 0.10410449317343762
0.3649521941784144 0.2213677870564652 0.08150184538592953
0.3755764737716163 0.26826695937992895 0.14852586228373355
0.3261301394126974 0.2129400709992808 0.09608495229396397
0.3353165953317898 0.19424167628288558 0.07361933513034558
0.40967838254135813 0.2467668838134074 0.20898245856960784
0.3702280351780729 0.23293250130696208 0.08751405587358363
0.21169826061907315 0.24015525372061575 0.05190588741287172
0.3978004409485152 0.26248189573607306 0.1584409427844662
0.379878623617671 0.3174832433896171 0.1549756948534764
0.3571125088135574 0.25395553560242945 0.10932406129256833
0.3565585638441746 0.20870848076383197 0.04809883088651645
0.29128651082100987 0.2702192561288257 0.01751527006450715
0.37139772738626675 0.20721907499617487 0.09331367908072252
0.1917765521497472 0.37098839469766176 0.10710522015071433
0.34791397392058343 0.25402229811277266 0.20396956227824603
0.3282617553866487 0.1526709888145774 0.01750106655586592
0.19841400766821948 0.14847485670755134 0.15402922147461595
0.3848869814811309 0.22672955117448623 0.07421796264267755
0.3974774902589786 0.2548255143144047 0.0890223513765136
0.32244915009054864 0.1738981202765757 0.08641159404518817
0.33738943571222535 0.24416229837805759 0.1823722424921641
0.05487658727795974 0.9574228247581686 0.23858959859626339
0.342529534964811 0.2129984684821693 0.08458724498903791
0.4389645483079221 0.20345043880983837 0.07457788450383873
0.2994951783954036 0.22190491328373696 0.17120562468167577
0.37053054443717315 0.21522954748573397 0.056812141028785845
0.34413801018220624 0.2282942345987351 0.07654939419037987
0.3928957099191166 0.23232221302095013 0.09347741269266407
0.3431561463517028 0.25040930311061516 0.12411816684615928
0.3292162958281608 0.23122357404412242 0.08220913360781879
0.5046371937469871 0.19828650698781303 0.05785614885402879
0.4618862487983222 0.11024827948466509 -0.1672594855651255
0.3188164230092525 0.14086913779490828 0.020287551337332843
0.4210135279031988 0.2468990385797838 0.09657174436671312
0.4753031053978134 0.3060666237546741 0.15998774671666638
0.3674286312448771 0.20512573939612366 0.09826184289157425
0.33426103250505435 0.1390726929926558 0.044358383080776775
0.38803008001556805 0.22731014146052075 0.09635210760477264
0.352069407117213 0.1701510015960821 0.10103765611395943
0.3155775192436181 0.21911575563193253 0.11535455947523587
0.20249607501379785 0.25259579989923964 0.06219097733603007
0.27290882697029417 0.1844724913121354 0.0812981582072041
0.8978049716525192 -0.1589075940452176 0.007000262792601575
0.36495907037067354 0.23015715892844923 0.06291842862300712
0.38158975042331633 0.19908758344459443 0.06442494150624611
0.30545394673950454 0.14762072717616093 0.06085495088849768
0.3451058023193241 0.20596955451708254 0.0845295152938661
0.28503931638977065 0.21680647750758908 0.048061640525816074
0.42572649757829595 0.236876782712784 0.09418339001089748
0.30203021903037097 0.204616210753926 0.060992444048480365
0.29112825282413723 0.20841603216427984 -0.057922466341523204
0.20062897700066173 0.07816545316401857 0.06125709600780738
0.4180205713138605 0.22998344419448813 0.12417252878236695
0.31992669913319105 0.22656690429636228 0.0898403806284449
0.40624869788010187 0.2401198720940556 0.17148403770174525
0.34844374532605116 0.21795062236347462 0.12184032135104417
0.43935953792471594 0.35466575793043376 -0.09233781940315566
0.3366707034255114 0.2117772984220352 0.014240504594184245
0.42498959381569534 0.2832183264609398 0.18790039634347977
0.41305854450573065 0.21718475984795305 0.0864298825533183
0.3291913829969957 0.2332257658413539 0.1434226105022276
0.0888393569743755 1.065939408703386 0.24464902759140728
0.43963454867559904 0.29132718899009546 0.209706445061272
-0.28128563568000686 0.7589146664705311 0.22495384481258895
0.3586486754088014 0.22764647040240504 0.06830608694438922
0.3284397043778142 0.17426201205414316 0.07495385766293339
0.38379463949740966 0.24913184635883567 0.11095975033586569
0.33774571827011357 0.21706623706123196 0.09414521515114416
0.4209880226109419 0.20772636002413947 0.10346701101549627
0.37316574544004766 0.24250272037201626 0.07606713001118237
0.3754496665939655 0.2217173935586061 -0.005638210195371585
0.33087358329615313 0.1062801167076941 0.17607874203284268
0.3741307481565599 0.196834943647076 0.1498488592563234
0.3988501159419542 0.2260467477260022 0.11929121914627672
0.3136805581937381 0.19060648140415992 0.012483989601307144
0.30741021750189645 0.2155124465670042 0.08044094565588011
0.3593759467149198 0.21632027062244674 0.07264580952889332
0.46536788010493524 0.18501553797928239 0.06249632275927297
0.2005063810630645 0.17303720001932277 -0.05401807942865844
0.38173457396845834 0.278866426134158 0.10888272900913876
0.35682037153574697 0.25902514418859823 0.14239194591453952
0.3512986948387322 0.24623613137683265 0.1582009315095263
0.5076368092379937 0.22069863582015614 0.15123147212199228
0.2897873515049838 0.19639137025471598 0.11014197381820168
0.2633579661101493 0.25646026516503184 0.11679647046460673
0.3513239870470102 0.23887766956890744 0.10832725758935169
0.2779646226437933 0.29093972978097327 0.2066526853084838
0.33371466973021313 0.22040651107485587 0.04778454040669544
0.3557407759943345 0.2198327274349765 0.11813951520917954
0.36909329105498045 0.20182959381686771 0.019895669919378633
0.33448778092325426 0.07608249229738817 -0.05997689995068356
0.3577888109125382 0.22651702091553716 0.09207386909841375
0.3580218032990956 0.9894170212407118 0.4612991403389799
0.4104390069649071 0.2077281996077005 0.125178335702401
0.3597628178975185 0.2152729739017616 0.0732633210014626
0.3003125341826518 0.23477455500606936 0.15917436061775447
0.35056139995964486 0.21403873540583618 -0.2519688719897033
0.47593641379425833 0.2949072216275255 0.2415264559672039
0.42620063018418364 0.27233076767338105 0.14123007933645226
0.3455729153884306 0.20499201181588944 0.0032154288986134816
0.3844289550376345 0.18284734763909682 0.043019317664686696
0.35682742434764236 0.11961971328528875 0.016003504520512024
0.31552866998978857 0.27277480641151897 0.07302654219525095
0.35484230888488355 0.1771842304769109 0.09473343282994051
0.3312170915845911 0.20993421584120142 0.052908028189079914
0.13775049331762546 0.16172848173232524 -0.12613306349376785
0.32242458174155786 0.22048079503335316 0.05480835166804354
0.3054042724523356 0.08234391058546464 0.3009157414782635
0.34126992136617673 0.22259306407829627 0.07733576815809329
0.37816919609505817 0.24619449666020898 0.12995193823448403
0.34886874663207834 0.21517283650453578 0.10370063388782569
0.3306978102091733 0.22817744103204518 0.10654315969225081
0.32834083701442296 0.21291004816782788 0.06744084274023976
0.35651827165733607 0.2339448730254503 0.12014687300263915
0.33105194829175844 0.20660050739253677 0.06481386364623631
0.2904980708650413 0.15846968236913028 0.07311163610000904
0.3936807726332887 0.24398385289919133 0.1743362340212684
0.31439766673824465 0.1753930057345201 0.18182873182746562
0.36160540673066066 0.21816569241096317 0.11873004816274602
1.0656872138060436 -0.4827266853717873 -0.8061343611300487
0.2912504082772358 0.18891904110577684 -0.010290714251439681
0.30978320214248356 0.13395731968665814 -0.37026177831489804
0.3966258376585188 0.1911355540548101 0.17772984555183768
0.2403806438175735 0.18179110902914886 0.10336900039882835
0.28756332192872947 0.2355715943232326 0.19241353513592685
0.32224403595591866 0.2196044989650261 0.03799390904418942
0.39761977200663523 0.2118889065673102 0.038676707459444515
0.36305980373043667 0.08485200992723207 -0.023595236206787717
0.32568969746434107 0.1931134730408246 0.030806042621122742
0.40186155315066685 0.2134239934636497 0.10489908857954333
0.42430887570341724 0.21795980624003164 0.07637818066901048
0.3500822178761922 0.21530647000361114 0.09078768825312977
0.38267457044240416 0.28222532549892776 0.08869585775516953
0.3326763332021727 0.22644129085824716 0.0984824909957922
0.3215968253793733 0.21012554280649454 0.05471691246361843
0.3617069504360302 0.21464027063970548 0.08580870039070021
0.3693254311325944 0.2304866225803721 0.12099316900659574
0.36649199093429274 0.25663932769977293 0.1354855184364112
0.3481676882214657 0.1994181711612555 0.04425172784411302
0.3470958048054342 0.22788043482677267 0.06711930989813197
0.3449687766532463 0.2522453409056027 0.053244212634751875
0.3382804704677227 0.2920879083998784 0.21327517457049794
0.3544773066371931 0.22027420676178622 0.07801098586990918
0.3569224534765141 0.22296742267056402 0.05127939268172099
0.4458406706972795 0.2387774789589514 -0.043611160643536095
0.02874115174907388 0.6147817953949755 0.47609035730758364
0.26794357203203845 0.18088255073001847 0.04084475918601527
0.22226024870749939 0.17873884932730277 0.035807969888651314
0.2573190155086138 0.27449590652580014 0.04428934062852363
0.25491147079073073 0.2164488016311168 0.04684744771714122
0.3207093363740938 0.16127657061110767 0.007884081097387252
0.43569128858476347 0.13533037974201534 0.3213121675221231
0.3495578364789651 0.17402113386063434 0.0514816996589218
0.3349112516415005 0.23276037687723772 0.11026478654052596
0.31965091365961484 0.22904382125827283 -0.00992398813977502
0.3334679071801361 0.21329717458266373 0.09232163637176427
0.37049739084599764 0.21686880701061284 0.10047975172292922
0.2646789901588278 0.20642058368068206 0.07634391897815362
0.3453004133605475 0.19394694205919905 0.1496089553832718
0.21084823126577135 0.26711103630566413 0.161223666633191
0.4440654051401083 0.22773081880370682 0.15754964506615465
0.3673669269894333 0.22913023527198106 0.0935123286850228
0.38946953022443154 0.18140444621877805 0.16563421881505747
0.3720942993406595 0.2207497080568288 0.09583807820676782
0.32626360458493764 0.23123497457930853 0.069556099048242
0.30341412059294726 0.17885703319699076 0.10342956843449258
0.37277056151921784 0.2012715761196091 0.0875542759615513
0.36626988821485895 0.0837521000125463 -0.06737854442874891
0.4398856062444594 0.22640179965301854 0.11161193575543393
0.30717485569051917 0.37783697346540634 0.1888791419508351
0.34616822396024816 0.2115331646895129 0.07264931753775272
0.3978045599103268 0.2506344457858489 0.06323760131621725
0.35682591349407744 0.19835582142513886 0.06237702281910629
0.373673699021964 0.2237045510204041 0.06689285356011965
0.3155460619706787 0.21457786062762807 0.07862407654748438
0.3954287991033141 0.2025474073129203 0.026813912906732185
0.34309369955589375 0.2968562158430075 0.1732620473303541
0.40532690897089196 0.21207142861251782 0.06936934066348499
0.4006628953106599 0.3326723438919146 0.33014784170933353
0.3450271269938696 0.3174711546752036 0.060763590673786894
0.3583522243214645 0.19285754177133185 0.03806900127943891
0.23545317723474568 0.17312334075035096 0.04479664186908394
0.35797808442694645 0.16119065707957247 0.015990544362594505
0.4541510187130484 0.2614439902516068 0.2999446175320486
0.3215435890585212 0.1717034414390639 0.030314273296170313
0.4436989253667889 0.2452219175857806 0.10791162711484503
0.4031139823079286 0.1544216397465732 -0.01164533829827974
0.238304939937791 0.19314016927724253 -0.01922745914976076
0.32708885115353326 0.17662828044616674 0.057073217954936695
0.4026035599384272 0.22335742165572015 0.10157949782805531
-0.07569638342503993 0.7427328591362823 0.3181178115390111
0.3855257068188962 0.15148619674741326 -0.07791882469425104
0.34305454870205665 0.11785862538602032 0.14525910574772638
0.5045837711018635 0.25779400009710685 0.08531947818988783
0.40316973930200106 0.23595191613731004 0.13259691743003543
0.3727920608884858 0.22493960781918076 0.13189767240287154
0.33832409797406626 0.1592841970288532 0.052898682815239795
0.21889597462231336 0.1318551746184511 0.27463034736118175
0.3634330894653175 0.180916992168207 0.10300017070699141
0.3781385525569192 0.2034406390271215 0.06808307645810885
0.42163421036158866 0.202917352451081 0.13036300579001647
0.32646482216833306 0.26260643976401354 -0.11482162440347565
0.24104806751387287 0.14590901850235127 -0.020973031598771286
0.321751054220357 0.1791088781676251 0.03814091966384581
0.29706599323478144 0.20771991033734594 0.056773819052381214
0.32920244670535226 0.2592375495375734 0.19438718986836534
0.3619818213026349 0.24865163630236964 0.13855007935153196
0.4460775073201546 0.39869835640601536 0.2423882251797238
0.3232031717508619 0.21351270101460784 -0.02074546313741621
0.3610174372803385 0.21931939216945295 0.0824953489920972
0.31057262337986913 0.22494023097567606 0.16470913081981564
0.37958789249267966 0.21620412009652057 0.04028872737001166
0.31669504828363415 0.17349768204690008 0.03881843679127428
0.18951970797789386 0.2238497150632952 0.09453849766111944
0.2459192518741986 0.20558866529464126 0.042025121088386186
0.3241699930549089 0.22678646302694005 0.05807593060194449
0.32164254558500716 0.24606150310430053 0.10780912417128263
0.3662269589199241 0.22844198797045578 0.051076729526812414
0.7604621628413497 0.15881007406336778 0.3346359606000817
0.3975002766595708 0.20837312992870238 0.024198009537002463
0.4285102816656945 0.21308163481947417 0.1850011654681225
0.2173396812281112 0.2571609557666079 0.12101375877523424
0.3926703457127019 0.23563470627823335 0.12245051593524181
0.3726330719250086 0.28581720588213955 0.14324441815853106
0.32532622064840666 0.23636653043421063 0.31362546392719537
0.4759323867702676 0.3057712111260571 0.06782347987854109
0.31045613145100504 0.18329905468783636 0.10298571285451885
0.40446092580704374 0.20616945366265327 0.18009099163919018
0.42306386501124393 0.17892441306908324 0.03866149732124313
0.34373869302137905 0.25792596944612 0.05944432473009442
0.33107823473083897 0.28609643330544543 0.04479880181639828
2.6088446035927575 -2.1895639377116822 1.2963644371864405
0.37982868541604375 0.24356254409103428 0.08760001161704167
0.38105141554271427 0.24753584524526673 0.018688815768740596
0.2922444497257004 -0.046039382702545595 0.181797683550883
0.40110317056594624 0.29930923055272274 -0.11922713169266785
0.37479175245036345 0.21119236572917544 0.14687462166341447
0.47854022549435626 0.2410588750159235 0.004117590281879302
0.46512242007307236 0.21221126717298944 0.14325548097068008
0.35016276075161556 0.21920241824182085 0.013682725520553163
0.3562745882162517 0.23908923023032003 0.08378139286139685
0.30332118123500607 0.19720181786091473 -0.06439575463596725
0.38615700444987056 0.21235914898034025 0.05717102561277443
0.3682414996130632 0.2130344388239962 0.08789463792288643
0.3649467851725774 0.2606792659180428 0.16348392323016014
0.3965702566750622 0.2221590317618194 0.10217124087208163
0.44883936471467223 0.28286838058724584 0.11824150864435978
-0.010118752947249732 0.653827334464026 0.530126960970577
0.3428111617959928 0.18241492184696995 0.07813386880903295
0.3206576364758007 0.19355370814889739 0.0652703149233389
0.25532008087071745 0.21989922900576175 0.06876674767630675
0.3978382541991863 0.4182073214085449 0.19111864402773904
0.34057905124547005 0.19882039365793958 0.004465319906273635
0.366610550447831 0.19339956203360487 0.043061758707636955
0.33789774643696546 0.22371417976077623 0.0746310286449301
0.3728486940453024 0.21116270015150462 0.07945216519027554
0.38610833105778397 0.23538337818092714 0.10178067364921617
0.29866692524902305 0.18278527312963888 0.05342941537165302
0.3464766347983641 0.22790448658432183 0.08433835428428438
0.36615887975705164 0.16373536499466468 0.04547472773907657
0.29710813562086 0.21458234281723776 -0.02811722108985748
0.3713941686672797 0.21758658741646286 0.13671440662000123
0.3547321334260687 0.1949649146187653 0.07231519239800832
0.35383830663909066 0.2253976191611713 0.05339895426914154
0.3748611091626799 0.12679500207570982 -0.036199265029353
0.3924340939624926 0.2227064095314688 0.2530642844061788
0.5173097988446784 0.2906980322773052 0.05880642222874144
0.324104416457871 0.2352970809138526 -0.010713969684900349
0.34198321707347645 0.22420633799993084 0.0038335173843933035
0.5895054551952938 0.9446614342868145 0.9966663862806513
0.3138082877408266 0.24434685981029247 0.20676275247483034
0.33589933462499744 0.19485976319589327 -0.08112262485711597
0.22651852022499952 0.19070330354767862 -0.006510124582376875
0.258225434950873 0.2032305929045748 0.11880841586750535
0.24201014141128496 0.16808120868358856 -0.016721124782691277
0.43539320982009144 0.18678923196885933 -0.011114120270917738
0.3580339757781701 0.22218008467359596 0.09702836865204745
0.42494103717888265 0.24621768112535847 0.10086656794219095
0.3655762587775939 0.23393165712808184 0.13240601878891312
0.1960452652461555 0.2215036165083859 0.08093846579333785
0.3782333872405843 0.13887606421707233 0.2143276255027331
0.36138623581311435 0.21663191626545597 0.10052013109313407
0.338383867861495 0.2276391958451569 0.02228980865393737
0.30552949949449726 0.1936579572201964 -0.05674896210200586
0.29573661548785424 0.12085004637361862 -0.18497702898167745
0.3554855863543196 0.589102274265656 0.29989822937949384
0.36368155106580957 0.2408889643953387 0.06339988191457735
0.3537856182411758 0.22610494101178347 0.09614875381836896
0.4353312693308169 0.25609288677881636 0.2071336655087066
0.41105548181056406 0.2840068250122556 -0.045404052709770326
0.4915614240598529 0.2634075024474214 0.2358014077286441
0.2813367095955073 0.220214920439588 0.0665482742345489
0.3177664078579312 0.19663942050107153 0.02384735181017561
0.2959830562219281 0.22000502122176613 0.07187071357472519
0.32032485285085954 0.26248770285133105 0.038859089622334864
0.34952065349634154 0.13344471655003076 0.05123156082399305
0.32252450888485384 0.19127982951022204 0.037019917416884596
0.31427338798432913 0.18324601691593045 0.013168420170629247
0.3637754043777761 0.17377512949367713 -0.024241166748424803
0.330996138562071 0.25794128432201546 0.11576097884334047
0.24709201284815663 0.15385071881468093 0.038119900503389204
0.40910119531113764 0.21359833961108166 0.1355496218180292
0.3371574274646889 -0.14491927608924016 0.06637875389412784
0.3704688345908096 0.22249365805652133 0.08197232210567051
0.3314717602445256 0.1789594489661681 0.1134292600872584
0.2587861298936218 0.22152933232752048 -0.060445779089135954
0.3227842976721007 0.2470710008609558 0.3473315065838847
0.3551277788995577 0.21776345422335908 0.05911438002840441
0.414396740134805 0.28240522840266635 0.11556278899658423
0.3170411178085999 0.19791751498127041 0.033284499208477314
0.35618183280507765 0.2129211654711014 0.06670720381555384
0.3132008741766583 0.22189839150053103 0.05374898462697786
0.361121143010962 0.23135387595996804 0.08336410668408689
0.3886071665921804 0.23709923038607883 0.10570765643993241
0.35946547508194726 0.2185706365665112 0.11511673058083716
0.37945641218762205 0.23885846304207803 0.0844309205824203
0.34606271989605375 0.10975277522757665 -0.004913712702631301
0.34612920499914424 0.1231291789415252 -0.05527779931199461
0.2444421130403498 0.1825529885504693 -0.004086908703399672
0.38893007944741953 0.22869406086292088 0.026324821532227816
0.35135834488602313 0.2502551562498496 0.09759699505991648
0.4296185715894296 0.27257497140070086 0.10867501871842933
0.21897605414167742 0.18341188224476923 0.0842005783809725
0.1402726507237304 0.25008953441542303 -0.042410546839505514
0.45861186412429333 0.14641395076122876 -0.014801079705847542
0.34421753081625184 0.2110586638927714 0.07365048603892888
0.39199754126887854 0.22504367029222294 0.08542709137063298
0.35773160594501974 0.1924590267617532 0.04594886729364589
0.45843668098646617 0.23675109590988086 0.16311529480441322
0.3496239188949204 0.09257385984378175 -0.028489377650601
0.34600559332903913 0.20924039725633747 0.06519365139304512
0.25507824424903447 0.18316519276318388 -0.0028077628535640997
0.4558881921448261 0.2257548097292954 0.11596649079025667
0.3774967797783688 0.22373851562593927 0.08102297498055577
0.4345637429082956 0.21673682379102388 0.06185143667437387
0.32610342156587535 0.2307763847097135 0.0733768200272209
0.41064998478721293 0.2641878077824913 0.0872994284549975
0.4514099898372308 0.07275879099914562 0.08473900361477149
0.213172003359702 0.16744914221894192 -0.0937544264130139
0.31222369439112185 0.28200527122652375 0.1345365913205825
0.304165850559599 0.19477552812421095 0.04540110579083034
0.32223045389858385 0.1595768222624372 0.14447263261217813
0.3475260443744759 0.19692080339501672 0.11898740244090789
0.39399753762275225 0.24216930258099012 0.10284289381564804
0.4737133642453699 0.22721532988444437 0.15451179280971417
0.27553492104448196 0.2258546709766449 0.046800385475393114
0.5881444825056121 0.11484593237402407 0.46355989061828495
0.3262379607197232 0.18964850578996106 -0.20436173926972856
0.29877399329946286 0.1904296332082822 0.04341421942088175
0.34534630818015444 0.2086146057519329 0.0667519941187038
0.3319390619581668 0.20711036358315482 0.10037643549554787
0.4158889009540019 0.23173620997344813 0.024301671993072205
0.32539026407903293 0.2288928702009656 0.08443310252317815
0.3972092105704519 0.2321985130195685 0.12285144403941217
0.4132152367013191 0.33336835001756526 0.1639833630311074
0.3182253341256285 0.247727353089914 0.07521732651528623
0.19766844305408426 0.21556613277940073 0.11006362577236928
0.31561060432299826 0.22886802059241518 0.023146322576593548
0.3108418724940094 0.19456516174557237 0.22761426890409098
0.3378513207768492 0.2323384944232032 0.08734598212900835
0.36018017389451984 0.2158701904597251 0.1053878391517884
0.3102376209813542 0.2572629355736922 0.1692739189909389
0.47772047676258467 0.26841573085908976 0.10909207648522568
0.3596886082587787 0.21320425300677925 0.06453222745588505
0.2938337667795423 0.1784375691352551 0.027544841995279512
0.35074397987062866 0.1553721364951457 0.07130592551978054
0.206354369319385 0.1536534942700598 -0.057092569484339606
0.3593140895972624 0.2245436596874839 0.06115759569931356
0.333086282983885 0.17244867208279402 0.0464842433058692
0.8770041192466067 -0.11656446048695557 0.07683470278840332
0.36173960121783466 0.21063649407656726 0.06869406436460679
0.49939301694807625 0.22706417023158565 0.11821715951271017
0.38849294850450633 0.19239406410349602 -0.05273873249674921
0.3790633995005237 0.23434255038532115 0.17490276564279839
0.3103700943688068 0.22638776958004314 -0.0039860782777338954
0.4689532500872531 0.2500576092704705 0.06709028234325842
0.3212556507998414 0.19577935030594062 0.05549518139753218
0.4129280062193743 0.2132544875108806 0.09215026186842579
0.34644316727107594 0.20420094084109053 0.07868333851808984
0.37176118057465146 0.23164879969925778 0.11155594855014783
0.4059137814896445 0.14277491643500184 0.48723134071514096
0.3394072526818519 0.1270194202887467 -0.1338263871857066
0.2257226464776636 0.1496388360152423 -0.08218882056389987
0.3308361682267389 1.105081468326901 0.21612783393086943
0.34091962377119955 0.1993379228661496 0.07373446078925383
0.36828669693036886 0.22889399115871356 0.11688832952549433
0.33783247338331535 0.24315749402232711 0.11784182552608513
0.366667837144945 0.206285072475211 0.09181743717701352
0.34186114956577285 0.19931730018700478 0.05620613139797115
0.30680797283292804 0.18967293292661225 0.22112329267966402
0.32835438416786644 0.23657006433811034 0.13741856514775463
0.21493551963499158 0.19737040525454574 0.07381947760191565
0.2668004254113896 0.20593590460083533 0.01963882860050603
0.18731518854281148 0.02977982784004496 -0.3346278052513014
0.3417883198294902 0.09255814127823214 0.06745198833118593
0.4332544455830032 0.1709680265826421 0.19242237712622057
0.3546462680083664 0.2028958421014977 0.08287773854657132
0.3824202781245276 0.16203408007132225 0.09374050516430543
0.28408192804718624 0.18619636953286545 0.09899149297795873
0.35817944411721214 0.20932260075619524 0.003606056683679526
0.3585720107650019 0.2648415718498143 0.19635712689259321
0.5380937390229406 0.03229764695996096 -0.22190113267014056
0.43906014731896903 0.3237801202835726 0.2973191575313763
0.34567032424216393 0.2758814868079895 0.1626721513733571
0.17523676220433515 1.1025787710874368 0.04384872119575789
0.22895775089907033 0.28842816191951215 -0.04990644274755596
0.34947209057179407 0.2089136753032932 0.07207720153830621
0.33129985186995725 0.18503257494324998 -0.10010543048608156
0.34870088374586317 0.21259054274207756 0.05595894512609334
0.3483194372883247 0.13709405324989632 0.023743838500564607
0.3034332548272687 0.2728381468861585 0.04824709333841781
0.312975834739035 0.1608701194604123 0.013633895402463736
0.3648551569716858 0.1891382646603006 0.13614036614973202
0.34279556821013557 0.204850903596693 0.10085507822682871
0.35611715734370364 0.2315564370483969 0.10924958305601251
0.22039561821489428 0.3397934299717207 0.1862757102566377
0.3581242126680735 0.22782193408133367 0.04127721560894315
0.3728198972132759 0.18966790296718727 0.058671378482841874
0.2900571858504719 0.23753849919648928 0.031290998882269605
0.3528555438157923 0.2100032284618294 0.07432935334644242
0.3112248107862854 0.24292090352184914 0.02487246707684676
0.41890347107243997 0.12369736713787916 -0.009876312306062118
0.44937692268121054 0.22601067826707322 0.1276852372973849
0.3714003778659958 0.2209775597616499 0.14020446352697036
0.35545874905110963 0.21652750884786087 0.009558864241100196
0.3675755076343705 0.23015139593371714 0.04879653061306044
0.6813267763669728 0.12252378505633033 0.231800793732873
0.2866707521981482 0.2135290295358061 0.06609589724061493
0.37529160435602194 0.21271577491631888 0.03018798005777512
0.4079743858915492 0.23416813469810904 0.09516763928010619
0.347481563105589 0.23486874749751507 0.09488401190918694
-0.03630399627814995 0.4005075499514703 0.16496463970223374
0.36403284260583746 0.1915783136333289 -0.012118471244917828
0.4703033198714621 0.2624140954351475 0.1385758510410824
0.35636254242488974 0.2264746105714721 0.10405321025865533
0.36140198950087665 0.1997092298553298 0.024285696791665146
0.35913429892508475 0.21657095179649843 0.06733133019477577
0.28028075182317025 0.19552964439971277 0.06004281928454702
0.35545299572262934 0.27105247785770814 0.10478715126424731
0.16340781424719353 0.22999550900695453 0.0054309348387562295
0.3607103020463285 0.21516283528038116 0.12819400802379732
0.24705102857984684 0.15682125656141466 0.0011126401627450377
0.390678993627148 0.19690020080763304 0.0042441384208729005
0.35621448755364327 0.21532484459567058 -0.03072202026808668
0.35241543012321586 0.23793092253029613 0.12983167500112813
0.39231361420331723 0.25642567300371866 0.0923484190308983
0.37579375061631026 0.1413390966292809 0.10836504434621475
0.3587104653143598 0.18993745734329082 0.10629393382996
0.3214228669503427 0.19098757576409753 -0.02949039749256599
0.3016497316399409 0.21348199254127564 0.0472844826670098
0.3351969318664203 0.21609933663424385 0.03700892170772363
0.20982573053134956 -0.1454660661659375 -0.31736523031304387
0.3696391046005374 0.26741094699798396 0.08131671830480514
0.383877320906052 0.23253838973087682 0.0823634100610775
0.1520315278887665 0.08270704769768145 0.041718967105964566
0.30486604858771216 0.22389333174861292 0.12146506571389182
0.38318421165210736 0.43576043242211426 0.26897340355850474
0.31843255081952293 0.23510951834006732 0.02338759556081982
-0.2989810387016121 0.1861062013620085 0.3198443753905309
0.41094377877328725 0.25969038041770887 0.1267717784757565
0.21164724788482658 0.14946796345196844 0.15239616916032617
0.3693196621709376 0.22997192027835922 0.08286046451692641
0.35102527847527654 0.2206176429277491 0.07185893905418084
0.5256905579084616 0.3273890599695477 0.22289764166396253
0.30257631711120325 0.23427682054300192 0.05916997579832639
0.3103400986091742 0.1786537492766911 0.0631389156559834
0.3437258099282303 0.22580723624051302 0.07623980165342914
0.361911922213622 0.24772267269520398 0.10541110510911267
0.37282113124788907 0.21265199323272554 0.35332775801452954
