# .PCD v0.7 - Point Cloud Data file format
VERSION .7
FIELDS x y z
SIZE 4 4 4 
TYPE F F F 
COUNT 1 1 1 
WIDTH 808
HEIGHT 1 
VIEWPOINT 0 0 0 1 0 0 0 
POINTS 808
DATA ascii 
0.3784491813669746 0.22373886391667952 0.09831324712702383
0.3744740008626479 0.1725885958880724 0.004041366731868834
0.37990425190716337 0.21612841687581863 0.2005158446335713
0.3513602430036542 0.2104368691212528 0.09136804811478783
0.2716549698742199 0.19626677135465798 0.06855424862335724
0.3741098178945208 0.21713034826038324 -0.027473119604962903
0.41225650620467036 0.23864958083953525 0.12672041604437823
0.36985016780792535 0.22178081355191637 0.10351580602959132
0.3556594941770044 0.2038408567087373 0.008714533059176688
0.32726209890822133 0.21062216927144561 0.05173426201619691
0.24991539401730734 0.22666535894649087 0.14224895345398636
0.3269643926602299 0.2459889743975623 0.08377439182001467
0.36745038473698344 0.20882042431273362 0.07632898613778138
0.12889507520796428 0.27356454203311387 0.014874451407422384
0.4254866365088503 0.2601576142248945 0.2037935235338182
0.8483734315291827 1.49795631632756 0.5043427443494863
0.12314861063110527 -0.045927995387700093 0.5800806217656032
0.3756033820359903 0.17416744698604703 0.0022989152805905633
0.3049257869080577 0.3406360643284927 0.1381813195218058
2.598635073194302 -2.9559967384776087 -1.1579803786905956
0.4006969909051463 0.24088834778655155 0.11951284614431756
0.4787459600601096 0.24907967224571337 0.11459253845572448
0.4167910720276353 0.21892068855240154 0.13696046698618147
0.35133878383695105 0.20412913081958095 0.08351942072815177
0.36819439495455697 0.2011633860202835 0.048812297053075326
0.34820300766871526 0.2273864071529772 0.09360382272777201
0.30112391529617355 0.20358759245768 0.06144825896656414
0.36728377692745084 0.21645732394347306 0.07931545350695046
0.34745254061675723 0.22020460388311847 0.056195932256173364
0.36744042917680986 0.2431558798956388 0.07629954191742172
0.3698093711364834 0.2163935885224788 0.0660068359699153
0.2880152093631523 0.3311904780610604 0.11380348025701892
0.3388087845703751 0.21669648300675703 0.16460232308102718
0.3651992846491794 0.23608431893049442 0.10408348555850466
0.37750683827515275 0.20974456454194979 0.0862286606161291
0.3807352100177752 0.16795111832612974 -0.06825343730298528
0.3318696192856976 0.21184983297851545 0.1201247445249436
0.4091528054357525 0.18475277443656068 0.007925143628739306
0.349661808681077 0.2907900023308514 0.005257467535116689
0.3686907303042517 0.24062052881073726 0.0947208157491275
0.2903236728971166 0.1829344469362013 0.018866291780256006
0.367309334552246 0.226692785855505 0.2217451592214843
0.38602883344704253 0.23653372513999216 0.09811500951153107
0.43457646741805434 0.23650578672106803 0.09962684745431716
0.27821367456951407 0.20973006760164026 0.031198253674261878
0.43011477210960436 0.18704214508437644 0.24326470916140863
0.3232853355344787 0.20224012258267976 0.21091881027558657
0.3452493338605507 0.03853449410985377 -0.06494969967397424
0.23663222596752576 0.19990702745978695 0.09575483386744565
0.35648919304505 0.22666661022074663 0.08481039931413648
0.32144826558476325 0.22055527244637574 0.026486915415574686
0.19529446006542628 0.14912270389361026 0.01801047062636485
0.3638778008057102 0.23490641999222817 0.13661056141458516
0.23167566171403564 0.19245958748284409 0.17559618939830557
0.4406260488453597 0.2319650792500454 0.16716415862114786
0.28018829765144915 0.18034297104074426 0.10377944166104669
0.36182551334593427 0.1838841018011408 0.0467575293169773
0.17799031078163807 0.12059033032738853 -0.007679967898880591
0.4559126611694069 0.2196105457566233 0.06414780776587747
0.5528051447571443 0.25135607425474404 0.2291632733924871
0.3200393303483793 0.22012149512366364 -0.04283109713378508
0.4306318853738702 0.2811025223933683 0.17419877390092608
-0.2241870735995235 -1.4391051180414536 -1.3591934046283853
0.31859159840212214 0.205149319473648 0.03504168725125112
0.2591769386571343 0.18192019572751406 0.07268632987208434
0.31780962806260504 0.1535445003475786 -0.10996088808336424
0.3052193430270904 0.22152734906694604 0.09125748050558968
0.3369984494457441 0.22920705297939037 0.024316986178902766
0.4872367341961592 0.34472839929856036 0.2801451905900052
0.3344103014583766 0.20505550798924332 0.061893376469527084
0.3677010399472067 0.22638435599668583 0.10743000935342195
0.34416344122266196 0.17007777965645232 -0.06557372525254834
0.34682233310235233 0.21616199157926985 0.0842999984564301
0.46282848565854806 0.1615078631200504 -0.04246321773544537
0.33538591163457454 0.21000537491313764 0.08450502547923122
0.36140762526851233 0.2061178874672578 0.09356574752044367
0.27960790355228937 0.22041046022897604 0.08381782280153516
0.2828255678727203 0.1638205072781176 -0.054495381270882604
0.3805816719995505 0.2326330356172832 0.06759018150577845
0.2900811399316865 0.1460123289784292 -0.0035849718567533273
0.3693047283435078 0.21075235028138195 0.06233678803303633
0.32964183609708186 0.2079258761749827 0.0619465485902424
0.29892697217218256 0.12229751815657153 0.18103141567806347
0.34796784364588973 0.22132969883608666 0.0795693465697127
0.29129663304165376 0.20417081025439643 0.030980878470600715
0.3354634502426279 0.21394313615247995 0.051698085400715854
0.4014291332550215 0.20741106270170917 -0.009921949320869317
0.38202889230629467 0.21645943026288705 0.09935082615542967
0.3201681993797081 0.20518648284225094 0.05600507245262065
0.31765642629184754 0.24034817036255163 0.008192612966610113
0.31450885740989065 0.24539836829337958 0.002574035933776031
0.35518064911934744 0.22555928366799094 0.032319478538767044
0.34684261764172675 0.25177409896296865 -0.025746732983520815
0.5080205161807783 0.565718623040155 0.14282447202700155
0.257441688962075 0.16794559503586015 0.017936658172118314
0.3157542051719844 0.21670177194590678 0.11159766512113833
0.3824037160867846 0.21810863558852134 0.0281248779833021
0.39236118956779364 0.18566070696536485 0.16301662744662337
0.3525567406880157 0.23281330985264503 0.06408071813922334
0.39353454322255743 0.2103091269736126 0.11068106091386198
0.37905058659245583 0.16780870368242518 0.02985671823677194
0.3801261926036119 0.22222853624541017 0.16043582392872224
0.3392723603388106 0.219326340795007 0.08864880682165222
0.3145932923404757 0.18162062882230146 -0.07464857453609852
0.4030470171994409 0.2368556141393725 0.07787292161232529
0.3189556166533407 0.23486327186049039 0.1430517706343153
0.3317939685783955 0.23074240660884016 0.07808531477928682
0.2460049973829399 0.08286618592137529 -0.025648850287353753
0.35522607078659973 0.20624000792750508 0.08072413364655517
0.37999701546863207 0.19431163393866768 0.18355477947289955
0.36005780604185134 0.25990680591316107 0.09987146967228
0.36788834576771023 0.25256126217931296 0.1641721310605817
0.3870594276420434 0.14611141921264448 0.07766318721168375
0.34887094196264457 0.2585346022285364 0.15781710305049046
0.3445934754810196 0.22260842452229213 0.0637901634743514
0.4024603853981148 0.255617579634972 0.17967256936150022
0.29204379904103916 0.1994053038552721 0.02576507264915051
0.3457991664356257 0.2487842529664448 0.06886071365573798
0.35490836235194934 0.2234506632724731 0.07505710483778216
0.3755160236005963 0.21976888919917315 0.10105390089823629
0.36275860302455953 0.21565313163230826 0.059284175000470896
0.21121261831740412 0.33567503726393966 0.07190061573206208
0.37235277366708885 0.21625762707948581 0.06837071236397207
0.37249868932153163 0.2249763977078203 0.0833885705563091
0.35891380265815087 0.23821219187009035 0.06929702062609522
0.25318898596414385 0.2652449271105439 0.04058346644063704
0.3011298924311916 0.21586482750358016 0.08627109065220395
0.3404395317003548 0.2142146316626281 0.07472371949731382
0.26588723460653796 0.08244706275897329 -0.06957621016096027
0.3747182397300435 0.22275947172903443 0.03324769741942646
0.40273893104338754 0.24840183795259918 0.16027204153441232
0.863892325400343 0.45673628789324994 -0.03236643900704905
0.3526893532320514 0.20007053136725972 0.03634512113532651
0.36299675207453674 0.37963234373799537 -0.022409398263988578
0.3303490284496178 0.23225146179940737 0.031565552201087144
0.3968407329976742 0.21861370713713768 0.07234157868714419
0.37339851748569686 0.2204029563611698 0.063998590643223
0.35679741880612426 0.21677551901470338 0.04746331195485709
0.34406048687118584 0.20101199388247437 0.06907923256690651
0.35351513567415793 0.23059011586457245 0.09055004073593409
0.3572015820217871 0.20814243318048398 0.06725698106910727
0.34317042820059385 0.24271076060196606 0.16882555773759123
0.43609736981935043 0.2110818078062806 0.10185638339615366
1.7002347887070925 3.3329793562198518 1.2046373083189508
0.3856943669881332 0.21601151593006307 0.04964642009088038
0.24127064370047435 0.20576260073460162 0.07497163195839107
0.36653846936178525 0.1732383518156837 -0.04977506269862886
0.2778384826478941 0.24855023909618978 0.08726463259699813
0.44256211919368127 0.23183855711907597 0.06927398197231582
0.3538992911138905 0.2025351010653651 0.019953718234575035
0.3805122763251063 0.21653016873167985 0.06867380681707402
0.3973939538015543 0.3253549645388887 0.10430651978657579
0.32045182587388865 0.19054578648410825 0.058543946843116146
0.3312949149763682 0.20377167412105734 0.07305320152283912
0.4474092144319428 0.253196720924052 0.11839192265983911
0.2770510554803991 0.22303949946801538 0.022864702762575462
0.3533632201082355 0.2583313791701016 0.08773255568672766
1.675033619064152 -2.271147964136915 1.983268021911698
0.3438435106604345 0.2543115456884948 0.044660780297775204
0.2821596576282559 0.19682321925898805 0.037844220889724056
0.2997677108101868 0.24784145347662445 0.08498615516131736
0.3617294300185847 0.2038616998532632 0.049280804743574436
0.36534114412140184 0.20796122007007511 0.0377187568507793
0.3561424410083731 0.28662940601266484 0.08745401513553475
0.3491923050526111 0.20624376326298943 0.07073941663708183
0.26699059587107854 0.1675318200237541 -0.12696654859115597
0.3707036434786346 0.22399940138575403 0.08556926601416137
0.5039251013318164 0.1173554176564835 0.03732289298740454
0.37182212574376194 0.22294217049970655 0.05989535525556278
0.3396256143175975 0.2727236967218687 0.2057893845327925
0.3913323000589486 0.22028501859853122 0.12132915249171106
0.3738308659215477 0.17102427033280776 -0.05302068344661848
0.11100989541917272 0.03175560728493565 -0.18025500872153088
0.35201133904027415 0.24990404779367736 0.03218606612358599
0.2649458087637413 0.21076834875117356 0.08553054878338173
0.23031129571043607 0.215180942936243 0.13260728421880685
0.37313514900040445 0.2694341743494846 0.1450835557654102
0.3513841063513894 0.30650252658863053 0.05839891017365062
1.3629689786544361 -0.05726723470999673 0.20574140924966855
0.34026113719588125 0.22918403131734522 0.072663975684776
0.26103417636981874 0.2125735132042763 0.07667690955133821
0.2687379428364238 0.17961560953811784 0.06478022196090194
0.3904278327024713 0.23312682454525202 0.11912900018245409
0.3161636176375282 0.1979224891443323 0.005399266491792787
0.37450204213172356 0.26415433406396005 0.06258455538937824
0.389713251464741 0.19337589600407057 -0.01005126975684334
0.42882472470112987 0.2516141659095297 0.1151847345271193
0.32518979175600293 0.23232083019220795 0.05916942067707964
0.2275643598452035 0.2757016681543689 0.08799136287916554
0.3426974404488874 0.22667311000884638 -0.017117248499431525
0.3868974895517283 0.23627443383176683 0.1404351690317185
0.42298082759839417 0.2466833130568773 0.09585855712940372
0.32657182517939987 0.22468647298993005 -0.03756538735893855
0.3504278385627231 0.2172408533229202 0.08593514786113587
0.35923875806159344 0.22787909365578685 0.07831284381545345
0.24861654070994632 0.1579680430938737 -0.03485408908652232
0.3489204133171597 0.2208852731826738 0.13608948392564457
0.3647986933627294 0.21621280614591853 0.06800150911033143
0.36049886297928424 0.22198620365226418 0.08301861475180772
0.3506233818673934 0.21750749095339472 0.06841228975304148
0.2510087524137532 0.15097390338736716 -0.03026795219287237
0.35821401565023336 0.22044888660190054 -0.021647144633703874
0.34229646427503724 0.1659937163479981 0.222469029864385
0.32446882293697854 0.21527389250908868 0.05937292912591374
0.33836257943832493 0.21889729830311921 0.07465055120951547
0.40792915758697745 0.21864764250982205 0.10446017498563265
0.37473088747707095 0.2503830868580508 0.087552896329953
0.2832328377499209 0.20850202736585288 0.06573356682602594
0.4167093310830978 0.23209772206666912 0.1301679802616036
0.3488582975413266 0.18772862967672665 -0.03890031817181239
0.40426676075830414 0.30194004713149525 0.20683066073556233
0.3483533797411269 0.2057980556187573 0.1581545260243331
0.33304516976150467 0.19207874601140418 0.08810217215287253
0.4196453443690018 0.23702690809781757 0.08537571014204559
0.3731396444458994 0.19777274488573937 0.06313900076916923
0.46311596004038336 0.21786623265325034 0.020875523158537135
0.22318468074709585 0.27654081610600656 0.1526512751199789
0.3437864803101718 0.2381592992219339 0.07614806298292365
0.3502615428923548 0.24262059895767152 0.03739878734093338
0.4493546976103744 0.17954913078128243 0.11155872828345537
0.3174319174435567 0.19521642364067304 0.03497414202644222
0.3248668778323207 0.2039555732402647 0.0483864661647857
0.37183550813905697 0.13628927086361387 0.020398594481918053
0.2578410308592112 0.08709595118213542 0.03567367018524692
0.4000495004344202 0.23874299615633277 0.11521622197872716
0.20332879904955803 0.20193954395794833 -0.07212082481053983
0.2892796979715513 0.2654401964855708 0.20830244809138776
0.3626937135453545 0.20830434045663537 0.014772105977456818
0.3716170601682336 0.1626338473066795 -0.04869554274978327
0.3435012867451377 0.19221756607385032 -0.045878431818778154
0.24613088607914335 0.26280434524176144 0.10595351281203591
0.3340740328230254 0.2545464986849737 0.06251597908675421
0.32658548169030155 0.17300393399921177 0.08890205118129302
0.262474955334028 0.15714490633024525 0.14506455155833464
0.5214889765950659 0.35949387751315953 0.27438356297054156
0.3626965645745486 0.2255599774412076 0.11211070686421465
0.3325798983027255 0.2470381622447917 0.06305094491325747
0.3216368630261286 0.20971068998423448 0.05760407878726426
0.34355399048766344 0.2219130264110305 0.08113383056516454
0.42614513146509125 0.17208059657403396 -0.020680035382241613
0.31059175380588044 0.21062589995139547 0.006404986571851623
0.28943810242263623 0.20348632942514655 0.05579953299813667
0.3332149310791408 0.3225047102203291 0.1839917851432631
0.3601613275208422 0.18270051897496842 0.0375262042011002
0.3130604081757866 0.38553709377629275 0.02883415835742653
0.3652676171330711 0.15725103812368957 0.11820838626846353
0.28178431217600064 0.18969870645830156 0.027641233775653973
0.2968491719337578 0.19832566923162176 0.009480824118497821
0.3067306193340471 0.20519584486528686 0.09350352281276741
0.3896499592438829 0.18934956170514283 -0.029839828570345617
0.3546464446929747 0.23694664115288333 0.09697006948807996
0.3575868042719321 0.16578071764033098 0.12783489127130565
0.3972203271676733 0.24512561994842486 0.03364765597893893
0.4343519559512856 0.205428151813976 0.06682883975327059
0.4063680021652516 0.23286565308899299 0.18112716759492287
0.28560496091733967 0.19540562238621817 0.04251064095873858
0.4149647628660915 0.2412526682276166 0.07782493685307657
0.34395401642666457 0.20643659162739425 0.024994630221414127
0.3591333204773406 0.23260868535297163 0.06496858771299685
0.41011940358956167 0.2680930125248864 0.1070741458460418
0.4328819116570628 0.33944944630292184 0.12960832464233363
0.38542826009910414 0.18951442405861485 0.12689428077197817
0.2969010255544049 0.24252654887416725 0.053519549786585685
0.6151471769383363 0.02016734216670102 0.08042014946303766
0.4395768937902318 0.23981783602978624 0.1651132527947965
0.3831714717135526 0.23920613346825803 0.06913865437323352
0.371898702053727 0.16081601485100805 0.2145758975009926
0.3923932392725362 0.14230245260311847 0.015350041088908029
0.42407263439716303 0.2127854174795516 0.10191246425281975
0.4757466112477289 0.1713237242688308 -0.022327918332791796
0.27393891992046804 0.20119177402438027 0.000809282669337108
0.29422465820664456 0.22946779670346018 0.1247254421836459
0.41680311214429366 -0.07490719793260325 -0.0267963217541336
0.3836904936029839 0.18843175575649695 0.06401509038994391
0.4336668119631639 0.2724097753187209 0.07397086368894179
0.392882705909571 0.236632366895833 0.08996241643492908
0.34448608886978604 0.21438813136680324 0.03735687861380654
0.36556250652085964 0.18897992267186225 0.0429825904725476
0.3738510255384284 0.1839095552398362 0.014195231434669608
0.34989274508421886 0.21646017280849605 0.06565721660007284
0.4005425230715076 0.20665432820950969 0.05981322225326835
0.38650954819729577 0.216890322426309 0.05007044669127936
0.3811789049349841 0.21149103796015822 0.04332183104408216
0.3397681194911968 0.19706650547819038 0.07065334152774483
0.3976268473129494 0.2309579019944863 0.10591099435238505
0.3134563678796667 0.2202068808916522 0.08694725585363017
0.31741628621449536 0.26619319380975526 0.06440760450797711
0.3849430959322149 0.19119905805523274 0.112759849168242
0.3930718326620024 0.23024841247901406 0.1689127072020966
0.4081070284440216 0.22876996768417257 0.07082345281192204
0.331166518726846 0.18635252811719738 0.005777009658231691
0.36155191698345845 0.24566930609570647 0.13345936968011074
0.35499722536994227 0.22465856974902465 0.15948101393274783
0.39203598088764124 0.1737948249720631 0.11878976050891765
0.23567435508957146 0.1938402540920805 0.06725815126478096
0.2767069069093253 0.22584311563826986 0.036142203910657145
0.3093521924537299 0.2170821431198533 0.10132976001479221
0.39121109869049064 0.19962760203769392 0.09304005024785056
0.5075328459152928 0.16456474920430253 0.014809739119783671
0.3034442609598784 0.18698525650341935 0.05763083054981166
0.20065885408789086 0.14215892187371537 -0.08991085200538862
0.40666541874149686 0.2891988586103764 0.08672185934798904
0.37078461765815973 0.25571211131648397 0.0823219508917532
0.3715802536146384 0.19434067356128537 0.022803804767235647
0.3516678346177855 0.2214807764009663 -0.020827393465992827
0.35091615884138605 0.2565493847176299 0.10573984646714507
0.4310599797194641 0.22487680749571837 0.15663083462209215
0.3615201505694188 0.23706673025489522 0.19215982412472954
0.3197276554237476 0.17676627238932952 0.10568744820312759
0.3071070864119747 0.3835692564556439 0.13063256547815172
0.27214275607150284 0.23007816629593947 0.03210701063569843
0.44015297021209676 0.23013867400132426 0.1530477741326166
0.42359149087235437 0.3496326977268609 0.41630409906851185
0.4496122833015903 0.2460688406413425 0.09416794923049565
0.3692190720249897 0.22061020559269195 0.07274455444947137
0.35530060288300547 0.21249534271474602 0.07764277416933396
0.3342370647794297 0.21699025929930826 0.186926230895196
0.3877519580117905 0.18380194022651608 0.09864804042312869
0.37312102615896947 0.2160820979686946 0.05956371388452908
0.2819265698198876 0.21161471713210744 -0.045972331408876244
0.2572037164018326 0.20072942349690948 0.07818642225493022
0.362108458731484 0.25094526120946625 0.1266768878175526
0.4636476498801869 0.2674950062733359 0.12024863965022803
0.3299009556054955 0.22215764543301475 0.048801162981590096
0.45879299262564643 0.16487444403375662 0.0457145473316416
0.3058115628556948 0.14542727933759636 0.0018695373182708863
0.2589282075052495 0.19956721478277473 0.05975555878092109
0.3618386834481555 0.2021239489246227 0.049024613353680024
0.4179962244912758 0.2210862102213298 0.06775409953618805
0.36678252348460205 0.12699363943437447 -0.06688265218139122
0.44142396423396235 0.205230260490751 0.10952712166893264
0.35601560214439587 0.22549858661979272 0.07679272081051636
0.3353538217857306 0.2374912986214781 0.09722100944371448
0.41384183863200974 0.2885718422246555 0.16580862001175944
0.3394173210203917 0.14579836467245855 0.1325764555934228
0.28191280958994014 0.269662763678852 0.07296411348126242
0.3685782013824195 0.22090589242912984 0.08038034212091816
0.41438528693231547 0.2394084576293949 0.14096417565301067
0.39806680451982857 0.21725924638656124 0.012941026875296302
0.30356115094099323 0.2886968847695357 0.07715457781523583
0.40072722683119366 0.23401631497293351 0.09405519321998668
0.4206965807940435 0.28966314570062934 0.18391987718820246
0.20168533124083865 0.23782729108111766 0.12736495307717632
0.30220935889485645 -0.7640234009822677 -0.5359508114773917
0.3328624455765521 0.2118299816191609 0.03257681443750471
0.18222801155943102 0.2528959809585132 0.19489045886223266
0.3625812085949178 0.22775627090234707 0.067749604246643
0.3074943451358081 0.34569283773643633 0.05926296301078082
0.39113167671078486 0.230681855204665 0.12419450927512798
0.4552624668802707 0.2523035962341851 0.16232945952904743
0.36693257488491327 0.22852783316540126 0.20301127768343008
0.38471307657187026 0.21394024696994052 0.08983995457467131
0.37224895371231526 0.17426839286818563 -0.019029350598756878
0.42976806668387724 0.191126513810147 -0.03479284508213709
0.3492550058559516 0.19078645658646565 0.0617496100746564
0.35528530704982586 0.2285191386678065 0.06316862825121916
0.37291040532598174 0.2289084049588439 0.13129957887255728
0.2068377711912035 0.20959856245471542 0.1222873312552224
0.40405090597346316 0.231698038294752 0.12756294518082711
0.36786744213347333 0.18946433963165532 0.07528392134550188
0.267213734343585 0.21368476808913783 0.012164074269634284
0.44272003010726735 0.17292172574656206 0.06575505496419964
0.3155964647005476 0.18160664287080408 -0.03086025183897334
0.34675075363773544 0.21431461438999122 0.11876706148065352
0.40019292845195764 0.18554506867425857 -0.0027530140460356733
0.34191493958697095 0.2509413360512269 0.008102895794792175
0.422425954636509 0.29593543855011717 0.1922042825879089
0.4276622360916207 0.26255916150374503 0.10440708323582726
0.45700001730931206 0.20130129430532406 0.0830243243322002
0.28325636557070766 0.20334451610945337 0.17439322337492058
0.2610933625573182 0.18726161302350874 0.020248963140858223
0.3592071375963428 0.2511680923743427 0.10977005844512178
0.3311777889664569 0.2282689633552053 0.11245482543236562
0.6405914528451007 0.2410871074684735 -0.05355782364065931
0.3609234802346464 0.23422306578501662 0.07936527540223892
0.36366415987646405 0.27708580712538833 0.268119296483718
0.33318202520524665 0.2631717304103347 0.0812723854406272
0.32150804023549995 0.11086908119787608 3.777892719369902e-05
0.37704257811415687 0.17975366722089348 0.12185958906869132
0.3405221110212153 0.1871215510885662 0.06618139010639368
0.314411585172536 0.22217452677114125 0.034425675652784093
0.47824987421159904 0.7145039637312891 0.44885231954472715
0.36315706910724543 0.22735449872584468 0.06725897206214881
0.3381063903745485 0.2258914346291192 0.17526169928230217
0.29611312367887876 0.21990296495155803 0.06347648847486198
0.3913049860832558 0.2817195897203675 0.12385627174393221
0.3263477905811669 0.20635241499235235 0.028386350358204027
0.4068054916589574 0.2538091780221663 0.17827162787304474
0.3448631628097587 0.18348688132775237 0.07180767122329712
0.33177023769781044 0.21850407329370114 0.0639250764975543
0.35982832248356544 0.2352735278959841 0.05689259473240327
0.37321074723968195 0.22096793483837018 0.07035786592214777
0.35772599986395903 0.20022331814183758 0.16674999171866034
0.3860371792194428 0.21174831961789664 0.06227630488234581
0.35598444837968657 0.21968616646682904 0.07099117634857066
0.5164263201341868 0.23229843721385635 -0.11653400525216284
0.33669833316270115 0.25024172184023996 0.09044968755505067
0.36592075987896067 0.2121682092045205 0.09492713452267765
0.37692329710725403 0.22528882269300254 0.09529848826740306
0.4709837102647185 0.24012369512212217 0.17999789837226388
0.5145723656928851 0.20977938363668613 0.1744900444377464
0.4193106404316609 0.1897549540753829 -0.29869711931979737
0.37988460389513534 0.26451710912711235 0.07326554833485943
0.3611781935613294 0.21953585895815309 0.10575211349721769
0.37482201440224117 0.15014565912977673 0.045577441432087085
0.38391446120576234 0.1499701725201703 0.004530390785561167
0.32889877170188697 0.22397780088556374 0.060268875322151416
0.343120598521125 0.22998843022600113 0.14645084864233127
0.40575336243996674 0.21918682713302928 0.10528152953838799
0.4308611893189891 0.23453855504372711 0.19212542508675767
0.2845132636078347 0.20954748438377635 0.09629815105481043
0.42263105387763744 0.21400957690045175 0.06933995476479993
0.3826996570818437 0.2278146360195592 0.09636980111071125
0.3873592879670298 0.27059936563020415 0.0644572836360453
0.2253208441822352 0.10940989420724634 0.0748366253038455
0.4179446298075078 0.2578193632223247 0.06942593943742281
0.19849306519412835 0.10443580054216284 -0.2576975431376809
0.3566763445704879 0.21849128623563274 0.09947306962044422
0.4300278244067215 0.2804629572668489 -0.0017495350794263231
0.319914405080425 0.027806195561879576 0.03452587564640908
0.368686729962036 0.24399402230676515 0.11364352986916515
0.4972848164728134 0.25421898488235684 0.13582949722288618
0.3634076914502202 0.21914283389450873 0.06836894941237404
0.33549658710725794 0.20556424308693977 0.08171820651654116
0.36113938385176425 0.22304295896003623 0.05445523196570434
0.42415057194318706 0.26319000093089073 -0.13283919401274602
0.3912018675774078 0.26593583001229604 0.10134541696561428
0.2785129640502646 0.2269217950453708 0.13699755354065246
0.3220284205684578 0.15961680241774445 -0.03866398364129964
0.40023705865300485 0.23457770330226424 0.1705223297924192
0.35991056342672323 0.20791761685742927 0.14359218431465592
0.3805774293514048 0.22984363624379966 0.12566009356484642
0.43984155969744165 0.21237393520095793 0.11754498250694212
0.3625077051633241 0.21273337356245747 0.07682743713660045
0.3359597569756261 0.22652710703155776 0.10602254408830447
0.33818797018822977 0.20469267150582482 0.07430427672801443
0.47912524772036136 0.12477621008547146 -0.10280613556466278
0.16867338964965484 0.005007457303690899 -0.4844397414437225
0.43774103189790026 0.22753308989675247 0.1214618488309327
0.2346287233209523 0.14215627277451404 0.06366973824427191
0.3154388551028262 0.253095448177703 0.08327383854660297
0.33031146211897067 0.2388072544042359 -0.024020600345465937
0.3435195734030003 0.2207332677457714 0.0852233692496327
0.32919684811491834 0.18867086861808957 0.08473536747948174
0.4362275279740402 0.16064827771938894 0.2713136266472844
0.35914914177058677 0.2182214302201828 0.09642758328820378
0.454258495614539 0.2432336473520138 0.13633295588529393
0.40568495731359633 0.25861092174312716 0.1277716354547067
0.3446769922816202 0.2275096004424455 0.03595355637627051
0.22294598299964719 0.2308424337382462 0.014439970814407843
0.11072955545388652 0.7541787261037882 -0.173159724027812
0.38829458231056435 0.16465472875336218 0.1117609017755683
0.3487008091359769 0.23777917708088125 0.17707154627443344
0.3683612276633994 0.20581318168038365 0.051313610325394166
0.4395274676292189 0.21120755345179987 0.005348299117343913
0.2847920068773391 0.23174109810224763 0.1437026066698479
0.45358911857800877 0.30285430097566746 0.2852416799368598
0.39543413897303026 0.223920547482507 0.04209789835225308
0.32275034356982246 0.1581599994089089 0.1838326812346054
0.3625085137243218 0.21293588653682605 0.04619011784379268
0.314412303513393 0.23842744784082015 0.1998154612301022
0.3893397634979294 0.24884264414841084 0.02540666784753398
0.24821556815845724 0.23437418034384905 -0.11002619194557894
0.4376020320030136 0.1911235262990374 0.15315534893778704
0.3401124032380096 0.2812205729767925 0.15280315977945236
0.2886966575564145 0.22948443441242716 0.0512464019095944
0.36970872459201587 0.24241599182272466 0.06075514927337622
0.3087522630932824 0.22517031475663885 0.06328463840173981
0.33992991365695957 0.2274282884007448 0.025291303903728135
0.41335897365476626 0.2750241066236754 0.07495434425135272
0.4529861465430258 0.2521442243997285 0.09255099444065706
0.3259136475696778 0.21105053841486665 0.08194591125754869
0.5031939333800182 0.2982956802320018 -0.1206961688323247
0.3757112248720489 0.2008293384371882 0.05440933595403408
0.20498868622027544 0.3403462321933546 -0.009403108009109928
0.3457693419658199 0.2175424170628446 0.11020708112386046
0.2687251750691644 0.18007332958453048 0.11582938069270199
0.37148297288536014 0.24125452024581762 0.028594285727535862
0.31609012050356 0.17169274855066874 0.15044903930696307
0.3641768596437487 0.23987609526760423 0.14619027589668576
0.3529333061681257 0.20701462939524617 0.1301793442440271
0.342945219284843 0.21434700697837172 0.028014995941418874
0.3408371916982702 0.2174747218053028 0.0769008600065888
0.36030914137438685 0.22394924183677745 0.05678639878513536
0.3774460242657369 0.2754088654585445 -0.015853322302803008
0.34161568821018307 0.21957177144075501 -0.04011067085423292
0.3541584671827849 0.21542242732869 0.0917629781967122
0.29136300654768377 0.19527065180326986 -0.022570618957473698
0.379575644443122 0.21705693303184148 0.08851230621345962
0.34437297471404804 0.22369609718131755 0.11865770082991389
0.3447079719866366 0.2608042546879119 0.03376161996908422
0.3669782435801068 0.20080455316994517 0.08291004422561343
0.3548356500813412 0.21610230877837466 0.11217829431832627
0.2994150082667488 0.2709954491174642 0.10610682839808305
0.37276441508345215 0.17264462396295244 -0.0013865363682725729
0.31981610417341244 0.20756937303231382 0.06306623966042935
0.3895406042993841 0.20498217273879504 -0.02905091965220663
0.33913038536576323 0.17932007751923607 0.08840918660490615
0.26095052142576947 0.0117285300002834 -0.13521960182936255
0.3969029493981395 0.21453507589296805 -0.015545228767564367
0.4191959829044265 0.2144225690823447 0.07729867204230345
0.3835245179461708 0.23506489303835565 0.06835080164898955
0.37795048634299633 0.18195057055766028 0.03306647696484788
0.31695063906931864 0.17303231099396044 -0.0306294667931013
0.3458989396779657 0.19469026716265603 -0.013143991758084894
0.3676124864350925 0.23467295783180475 0.02057135566687407
0.3684792065788116 0.23689541304227646 0.07759954428601645
0.3578349844810873 0.20757913478193757 0.04477845894297161
0.4058434452282995 0.23960044381266243 0.1565373551800917
0.6493148245060212 -0.01402037060853445 0.1125160912379215
0.3974962848835162 0.2057924372380313 0.1847443120177843
0.35706114314737647 0.22397155060872365 0.11355110024021542
0.370545937744879 0.20125765390210404 0.062427337864463084
0.40068322456119176 0.20602096849279405 0.044723988405706905
0.33744224172474446 0.2886117353135944 0.020108787915631865
0.3051067144516253 0.24635287544336393 0.10308183085402334
0.37695246619965417 0.3107775112494551 0.03668827939223718
0.20411425173699627 0.19641224713961947 0.23256316124866316
0.34403267453643593 0.24290998922276685 -0.07458297330185815
0.36823646602607596 0.20902926672535216 0.10323749240734514
0.41909155878690285 0.1764738470647842 0.07504061587292199
0.38128368792757783 0.18636939483315018 0.017331686178692962
0.3740244363038556 0.21709598758381787 0.06287051497531593
0.38818833485021287 0.2011508513409126 -0.00920323307587978
0.3512314903859135 0.25382710193059665 0.04389032363835099
0.46836508593605686 0.28707947484367935 0.12101512957673322
0.32079727546627623 0.22509825970223574 0.07267965987814762
0.31409226881699226 0.22166429781057673 0.04846677899294605
0.3603890247096899 0.2186619775953318 0.07687973512065582
0.35288491194759786 0.20953907044247444 0.033389398401880044
0.3631270502733912 0.2381333417003475 0.09813435915229718
0.4873779589895548 0.20414050965666775 0.09902854500279545
0.33575897134220156 0.19921405396425484 0.03194128014271769
0.3837665609846397 0.20753813911096586 0.06352996936027466
0.37142284871973175 0.2305532308973568 0.08065867481184341
0.32400271985298446 0.22900286265510772 0.08322081437358975
0.5883567412983837 0.23621256693593295 0.22360367396979086
0.3036021408555598 0.2002609776630493 -0.19399607097946614
0.4180401110418188 0.19418955990190057 0.04190538566402324
0.38808842805869403 0.19518686139505803 0.10648422418523751
0.2738317478640795 0.2514465284956202 0.07039964875751537
0.3421512005991758 0.22531195537089843 0.0629772038896732
0.33189007266695114 0.23280576281933918 0.03743435329444367
0.34964698978618003 0.21686450668821067 0.05548212365863492
0.30966922783682094 0.22180866551312306 0.020421236268646226
0.301017013084504 0.23595916742546308 0.03319955508325734
0.3281370269867665 0.21609687300531277 0.11749894613987522
0.4445914320173756 0.2671190566577053 0.21801738870192366
0.3889122209466791 0.18861987381626477 0.05297688787956645
0.45612717245984413 0.2376339157582379 0.10914091284882943
0.4698368014816481 0.03823565447655142 0.257670711245936
0.24156163833191613 0.20328578560848598 0.09269173287121646
0.36529141309898705 0.19966769759615488 0.03646397696448389
0.3993222598839168 0.291623908420263 0.1890520323314746
0.33872572144234425 0.21412348465528908 0.1725255570583215
0.3240998373993591 0.20044336233083015 0.023163714047910844
0.4915710612869475 0.263176026984155 0.1837203733426236
0.32266366187424467 0.23391723335990378 -0.14669912676495755
0.3871011112769338 0.21110786069462506 0.13810764220346528
0.4326588322546314 0.2434702293501516 0.14122565690038869
0.34229400858461645 0.21613904184759747 0.08179038573636888
0.45582482552235604 0.1640561233696758 -0.021326928782016807
0.4527667186703326 0.2517811634168652 0.18070282393679804
0.3310019422213486 0.2113846308111249 0.019182357093029623
0.36748285760837973 0.21797693952368036 0.10161207491145774
0.38583459782751106 0.24865410682949118 0.12697490857810578
0.32970664931491456 0.1914891574018327 -0.029128733021551056
0.09565494663169716 1.0941114022414524 0.04385832361393227
0.3538216735099411 0.21472159308900984 0.057433985094306195
0.256641319062652 0.1990510025347021 -0.028373425748185355
0.3838826579791572 0.23160611326382252 0.0746925075752074
0.4619323837973326 -0.22156678091884885 -0.359942942607816
0.2987095295588915 0.16115564770205992 -0.0939029952370447
0.36174631325600615 0.21489831246177005 0.07817805596577898
0.3287334087160616 0.2698078606883598 0.11419736157429838
0.35612608137182633 0.4099719812546425 0.18254706477269167
0.36612385857469576 0.21975047846723328 0.06868608468619186
0.3745323768607278 0.25523876013717484 0.1795691305817968
0.33835587089319574 0.2382423696055298 0.07056965796193992
0.32388314338955126 0.16648260650185875 -0.010334752360762423
0.27861467412495244 0.2593793475076609 0.14203808662759343
0.45409340950362775 0.29064944751833366 0.20360340643883035
0.4583085528962272 0.24482493133220373 0.13210867834325768
0.2548803489603415 0.21532113173010714 0.14237427556216176
0.08248679359985545 0.038634407999282416 -0.5405632922500558
0.4065557268661735 0.31345389652319966 0.09739566644654474
0.49767243399872996 -0.20512801893895016 0.47641687771104557
0.36108450500267963 0.18607680472149468 0.1403728207267818
0.3955128560688763 0.1791663641654111 0.11285125156300069
0.24871777868831657 0.2671906098289867 0.14582387085046378
0.37598421642870505 0.25180869950126805 0.1176658765797356
0.3161833580583959 0.21612239105624553 -0.0032979754398354544
0.299354765618034 0.24768247259081022 0.03689200597646902
0.33901861154876656 0.24705626002111103 0.1446796832250925
0.31097145563808226 0.21226618487389715 0.06044250337589574
0.3818716911932256 0.20758711706700694 0.1312391915195974
0.31142217945006223 0.2210312697418999 0.05797486450552469
0.3170249048315128 0.24906369718524957 0.07061000062043377
0.4147330510516838 0.2401856370565838 0.04859811263588654
0.3104334110175557 0.18088910018244064 0.01976788006084007
0.37720936796145565 0.2217868439188635 0.07573252423827626
0.4031086811886695 0.247458289005678 0.14021852615144326
0.388399639196237 0.23762156897781495 0.0862224577545021
0.3352130877625541 0.2664601026272351 -0.0187348680680941
0.36119234956484547 0.23661257167836425 0.13815576072951785
0.36767895600428346 0.2126552936147732 0.09099598936279563
0.3870694896300222 0.23511156545208678 0.13093492876811297
0.3562854355191405 0.21409854421938235 0.07788758673385132
0.3017731821281586 0.20075900672837577 0.04179835790247921
0.40170400673915196 0.20830082590171628 0.015945330023015458
0.41292357624189435 0.21054481625998278 0.08503548776744196
0.3005323201318362 0.2148135211551221 -0.024255340373315448
0.4762614968123273 0.2323352573123998 0.08124558279081384
0.5252078270301013 0.16602127542691392 -0.009028929775794836
0.2885394475323011 0.22337626081295525 0.07500573126118582
0.4103556664906023 0.14388196152565058 0.15468500304376676
0.384916517630586 0.2149449103648351 0.07610428928209956
0.36760965473963836 0.16050229947296657 0.04643967764542367
0.46746346196786703 0.1739741445930747 -0.12051329058357396
0.3565515760371909 0.24482255958817234 -0.00680362882587815
0.34624910255399755 0.2381329573535993 0.08283370944857893
0.46361582803518786 0.22809065252599225 0.08659400487997004
0.3896203475859892 0.18776601183543562 0.12656859232515671
0.33497508800044784 0.20787838360044475 -0.03499975551459045
0.4094027423660691 0.20505089785034158 0.06467159057402228
0.261113011995036 0.1793071160728914 0.08998521296638273
0.3602250297138312 0.24001112091984567 0.046114423279078665
0.38057386237065316 0.21401884477872102 -0.002569834474883237
0.34851525930108096 0.20413064137014203 0.036028497040192065
0.3594937078385101 0.1447522661868561 0.017875423226627163
0.3855489461722357 0.22204116248322237 0.05954788298416247
0.3861948417129213 0.2310901993170944 0.08323673480049365
0.3932419402343186 0.23061500303651883 0.022353805813111194
0.4621779983086043 0.24365356878445255 0.10659103379444446
0.37588071890971264 0.07829828434215358 0.05319001804548407
0.4078808547171775 0.26190640293634715 0.07490033474411462
0.4369309647661339 0.2532008472599898 0.11184172820648541
0.3389110985852142 0.23258382756102947 0.03494015060417155
0.3404340179519352 0.18914478182915673 0.09594296929387269
0.36158492429348144 0.20347333952065583 -0.03730180319291776
0.4066012496013798 0.1903311115338795 -0.019432840798202733
0.49957057331371857 0.31144618536205826 0.07415227734217922
0.3388768474120525 0.20747255458843483 0.12079325036606292
0.3749765687080071 0.1884003807458896 0.09683638094995217
0.32731821778070014 0.2169128539356393 0.028747573375255797
0.3405990167225923 0.2130209096570752 0.06944184521941565
0.3938822257280208 0.22264561574721142 0.022664183965900975
0.30994232196951543 0.21793340470227918 0.03576984623865087
0.38681057487781345 0.20195554199455046 0.08021087332491561
0.3543486255146604 0.21952292117026673 0.1469942440411387
0.5840617379096642 0.1667942110017009 0.09736002282653544
0.44618558233216277 0.30384395505694783 0.22946659623697485
0.4098176794931305 0.2152677461836845 0.10021296364101318
0.41684698628806416 0.2108117365397959 0.11341245250252996
0.33855159742556395 0.1317397491905723 0.10103120769829843
0.3237146745916277 0.20029885510572853 0.06575669254301886
-0.6902041569351809 -1.500131075224374 3.485463264282714
0.48668234311637093 0.18549699489879856 0.07441151983326222
0.2514545169387219 0.20359579047176624 0.08496012069770131
0.36025896115319256 0.2040996599173468 0.08981260603439978
0.6058453103198929 0.36980835309032045 0.08375901890529747
0.33085425386167344 0.20774187173287828 0.05507043512886867
0.3877622354216328 0.07788473554384723 0.0062898603474366155
0.43197363975616554 0.1881242974454551 0.07550790834969234
0.3951703397878532 0.23008103327279628 0.103261010180276
0.1862670642225055 0.24270013784612843 0.10953259711754981
0.09090229674723105 0.1470141079675642 -0.12510862378530874
0.33859117705550545 0.2183471177256422 0.15178744883971262
0.5122770969889672 0.3024319707522807 0.1766677308193607
0.53919393902585 0.29452324409697894 0.08951414161836624
0.46783462341879556 0.2501208849085401 0.1487108819770384
0.35326658626503615 0.19918605044573212 0.02120878872702292
0.39233386647330803 0.24433257943263698 0.045134089346021256
0.3462161754552824 0.21201820872954613 0.08685156239394587
0.3977173990166989 0.22582852565525968 0.07546874023580585
0.26577779568592064 0.2615961129357913 -0.2171775100187432
0.4054744901777667 0.22836996827328448 0.08229958322570496
0.3227088996758596 0.17275980022213844 0.02458441969557157
0.36310378233491747 0.2225468123197345 0.0508646067900429
0.31786865678348875 0.18495845112957454 0.04146740612222288
0.34155354374934177 0.200003657301977 0.061070917277987746
0.41224497560961026 0.23354962283980285 0.07556245006168183
0.3372696702870712 0.21638078148049544 0.10945850735174645
0.40709759218660224 0.23164134466195208 0.10809803445752664
0.44847523570396675 0.19291546447104224 0.24750113449236721
0.4193300927827295 0.1738510710929404 0.13048684564654423
0.40417706035354684 0.21811162670617534 0.02913952440042067
0.34160116454896183 0.2378464929536932 0.053621536617441734
4.423461036910169 0.8372027268387683 1.3491790739518308
0.34806052470906934 0.21753798586870232 0.07212451562030253
0.36733407386611816 0.19193638225419818 0.031013036731437182
0.4222960395054258 0.2328856050731929 0.03562865464877518
0.5037688528065587 0.022140980749497885 -0.10707481989172152
0.5132278649005428 0.2620662530642903 0.300119690928625
0.4036651163486624 0.20779434611011993 0.09688975176896975
0.3601945736668313 0.18146413296270225 0.024659365195148553
0.370408803899835 0.20015421012331558 0.027478976214823092
0.4372777774818246 0.21249107456691263 0.06926027596745143
0.3151729608391918 0.21120115610382584 0.011223793767868528
0.38112666218204083 0.20213048882085616 0.12687855557129524
0.40276673652074635 0.23063717906026682 0.11060454061644975
0.305919007800469 0.22036207672604746 -0.03637428922576191
0.3658642669181802 0.2096256446797753 0.06283598562649217
0.28380584582579615 0.24739985545855347 0.07709372952730575
0.36312664820661666 0.17587835107312344 0.028975854977403515
0.3661630851366908 0.24061983630893735 0.05826183570667354
0.12704442228202595 -0.28490409309755194 -0.3542257767718837
0.3845171557694158 0.2338738002321037 0.0917395519895905
0.4004796147245173 0.23384219645163284 0.14103232479342864
0.36397903733339376 0.24914264437926192 0.046879525858486204
0.42799562548719905 0.11206025275225784 0.1548015150683284
0.25418018503197004 0.20586433069674115 -0.024771123650836557
0.33957800390049897 0.3124026003766289 0.0656101649041716
0.3648163750665958 0.2112543260673192 0.08535157608835675
0.31503564971274045 0.22624184189811558 0.14876972913717168
0.41654634983052574 0.22215630111108453 0.10453023005476325
0.3988195996224988 0.20891259338628743 0.045751462124030695
0.3995344509229142 0.12109433399618297 0.1463254171323456
0.3096491939625423 0.22704863311705026 0.11710116701044626
0.26944002771818987 0.20329089743214013 0.06872785206607546
0.47715868184174326 0.3775566986607828 0.3231390995002812
0.40660549561492587 0.22154569127917512 0.08390346404829074
0.2801809269821547 0.26468119363570963 0.11882109158308651
0.3682576317209225 0.17707613656806132 0.12227258646269945
0.3221055821639851 0.20666968131421015 0.020262158297299493
0.4108383491287242 0.24950297005156585 0.06940377286920807
0.21586755060178575 0.2275928722653191 -0.3729824596305207
0.36624717763983483 0.2597921867232458 0.22309495367315435
0.39137100131375746 0.20812359766880206 0.15632219474986186
0.3094308834018733 0.20810608957219756 0.08117209733703135
0.3769650018097792 0.2793959773938326 0.11406239675264374
0.37728676595918387 0.18192920242927357 0.10337809279394605
0.3634614548323185 0.21585769181669434 0.07850259090150757
0.3251215617698904 0.22375608753938536 0.07430381571111866
0.39191324015149576 0.21404365412018933 -0.008316790590498613
0.29760062306789337 0.2153480702849322 0.10496865297602653
0.3700439069654351 0.22028311883208573 0.05988885274203426
0.42598906461111596 0.27886715063016254 0.2112799994775969
0.28255801208734965 0.30093662024208356 0.2436187271206336
0.3469902892741459 0.22306023896014437 0.06923731910123365
0.09186629617832409 0.19853827939249413 0.0372613280785572
0.3534302656467645 0.23368613555105355 0.08990923627870018
0.29499894702482266 0.18082698002631048 0.018453493436595636
0.3616204296861554 0.19863719397726243 0.08763333284801433
0.37633280646440426 0.23360930807098157 0.08440060226863011
0.3318935120761921 0.18025963254251565 0.019742456316492962
0.3826699856723508 0.21555466920672472 0.07739689936062177
0.42978429859066125 0.2172271166606663 0.09357374707374788
0.4094467677247451 0.2404547804196966 0.14155438604339565
0.36814282542553656 0.2212825162528702 0.03390847466002356
0.484886434277243 0.14550626721175774 0.10524133136203773
0.2919446174203131 0.16703164642468948 -0.02474006804146711
0.42397958002833036 0.2517037046427788 0.044110654713705344
0.40221887197411377 0.1511921484485299 0.11727871898671083
0.40111965768397795 0.23729501357719585 0.07030277990639888
0.3860266635794005 0.1940869186898624 0.0889299696876833
0.30166889400020125 0.12132427980557736 -0.05841874239396816
0.45311806437572955 0.24002618342802862 0.13311138245984466
0.22793033348681035 0.21773371482726134 -0.031831691267711903
0.31179815963514557 0.20057086987073092 -0.0074368981300381165
0.3843887989100949 0.22023986178945165 0.0866916083187732
0.19738089131976722 0.2496274051408136 0.26520063171366814
0.34387393637190655 0.17433508499082961 0.0927493844260141
0.3975828650350195 0.24629627662625353 -0.0866995208978949
0.36093703263674115 0.2524741322344255 0.06411886983340764
0.320380509600227 0.22570466513613496 0.14085128610230413
0.6955830358941171 -0.003051623139867843 0.5055192537515012
0.2468718646034489 0.19360658337389225 -0.013050789626930737
0.394997544792119 0.21039310825014468 0.08998253923348898
0.3949546489366753 0.26847938705492425 0.10406963912467404
0.1316638531511387 0.13765194719601936 -0.09218742263652757
0.29489989917841797 0.2577412226786038 0.06124091791670594
0.5035102905558944 0.26967411336485725 0.13969736767396057
0.3332133968972357 0.2134256181521721 0.08030047702868615
0.33922223522594663 0.19417263844684385 0.10774191745126416
0.4398108427877645 0.2288147141383945 0.0795597522493523
0.3022039431490384 0.2069857308828773 0.05444679776411476
0.30576937812166705 0.1794919578822629 0.11526004715625504
0.2299886230471344 0.1604910430243791 0.03605869538766626
0.3678842698099345 0.21780838410052183 0.040288144714338614
0.2448643612306256 0.2766992916375841 0.07996364193222405
0.33474390972556023 0.2039636956846067 0.21039147698817828
0.3477092219786755 0.2019171754641036 0.04590264081102191
0.4115471179998167 0.1970226896313534 0.11327635267541325
0.2833110534405421 0.22306574414535874 -0.05670075710851563
0.3261556661276188 0.22277605883388674 0.09095675166393846
0.3682911170371028 0.18816418978821048 0.04075407864982594
-0.1234646897219136 0.7795734019173324 0.26904500604453574
0.35939345372773346 0.21277082436711225 0.08133500082468004
0.32894213083417867 0.2140012536216176 0.05430713614937588
0.24578538564718144 0.15819328619322448 0.024240362889258904
0.28723425768689026 0.195147085427692 0.08775854267472027
0.39312818499416835 0.24950526391992867 0.22798447344017347
0.3093241978053527 0.18608876915182293 -0.06441838076224826
0.36011571702110245 0.2248547165725654 0.09114430891762026
0.3848927886950122 0.19617390439341875 0.22326194350236506
0.33512810283579597 0.21687655676178963 0.0628848095784349
0.3216786493060795 0.2412972243433984 0.05950610812327284
0.3371265966001431 0.19315915446240695 0.01704291391604329
0.37566101891346193 0.185848903676316 0.24379312738251713
0.38772739659469835 0.31896245054667816 0.1436305153395665
-0.048745897746897526 0.021135207592010374 -0.481177052805549
0.36389609841863546 0.228597329552926 0.13336818599134403
0.3145249897731617 0.3374124897085835 0.04963378982131417
0.3799289633090268 0.2602954489726841 0.03745100812329838
0.4305459717174074 0.2268911351949896 0.1258412139960683
0.4194208159302093 0.21130688168391032 0.13299041535552192
0.3316259625685234 0.21770261749389874 0.07717034515223986
