# .PCD v0.7 - Point Cloud Data file format
VERSION .7
FIELDS x y z
SIZE 4 4 4 
TYPE F F F 
COUNT 1 1 1 
WIDTH 807
HEIGHT 1 
VIEWPOINT 0 0 0 1 0 0 0 
POINTS 807
DATA ascii 
0.31084815435141877 0.1772184453874246 0.10295292716116933
0.3874552420939352 0.2633789562281095 0.2028132815897692
0.37499501330060525 0.214299057985329 0.039515127277752526
0.41595760415987115 0.22296497081646294 0.0936501067540263
0.3770064937959603 0.2215282268152805 0.1256049554144738
0.41071135405042014 0.18177041467859567 -0.01704100909549311
0.4663342420406309 0.19627422505618597 0.060059519909913206
0.40255072296184835 0.21778768611069665 0.07419896292279304
0.33040951573164534 0.14543235711484215 -0.05894840436693016
0.28117341602973056 0.1992997212777965 0.06595300728835696
0.7512244396438064 1.4556186643051205 0.42032531167944853
0.45532301118348073 0.23914268958978369 0.16305774756061453
0.460914019742944 0.28937165994116754 -0.030550930357492234
0.31908227550380275 0.31273303611020253 0.03446621379532644
0.36416820616589973 0.2798579537452781 0.07726019437414777
0.49036584266924876 0.20801359035993983 0.10585696315038717
0.47857599090845326 0.26807737639610707 0.2473507268331332
0.4295840437876848 0.17337118894437253 0.09372321003814932
0.37718293646183554 0.24766769065900007 -0.027808310129870506
0.6253330201540024 0.07483317074542128 0.08463270224075359
0.3537179844315972 0.24625460289871626 0.13493793584052582
0.32838370580853393 0.20549196739557374 0.044026893303737324
0.2576578041714157 0.22829659876734354 0.16192460565524414
0.256983138451119 0.18914928178602963 -0.047920374067984994
0.40143304445746253 0.2649615934570875 0.03573240676885803
0.38034075833448355 0.21054817038219653 0.017480060462318647
0.40464086800159293 0.22793333144244343 0.09730170031951957
0.3534494891343485 0.23412181144060185 0.08591987057626227
0.3528956294149168 0.20148310690730398 0.053753158612920515
0.34539685080000027 0.22086939313996368 0.06510047268912444
0.39313664186485653 0.22975663857152995 0.09269887506070518
0.34531103579445244 0.2096086909294712 0.0878354091639153
0.5086786050638352 0.4503309338450521 0.283909156455195
0.3474004284057628 0.2514849509083774 0.09108392947621269
0.32961906041462896 0.2220325193693924 0.054358041986517946
0.3037603768331394 0.21603084781142456 0.17337979689520466
0.3581851572674424 0.21740645599311392 -0.029392504903952954
0.3635033896505462 0.2077652221221058 -0.0004886973873254874
0.3706770340119334 0.26413065472074493 -0.011276172019407227
0.6956353980009169 1.4424625091843382 0.4165786856831062
0.5995987305779522 0.24269541425049113 0.20395003803295708
0.035195265248162855 0.21249647763104917 -0.3425314696133057
0.3238627475613498 0.20245915131278025 -0.030850763677477744
0.23708050380994905 0.29579275632968915 -0.084007861767887
0.35927014821538705 0.2115373985610347 0.059137886957316255
0.3515143672207586 0.2280846262327998 0.09155726878768178
0.312845686048405 0.2221569312171141 -0.02821365656592434
0.3385637688323868 0.235796346938713 0.11087961756771847
0.4339281005761393 0.2393680658486801 0.08738233093914971
0.2592324590838473 0.20708247200730057 -0.008259009786343086
0.2605658008980356 0.39382554495313116 -0.11474304435208182
0.3545898423929543 0.24115217574774306 0.002068503897703522
0.3937372212570551 0.20550411537445257 0.06972055779655761
0.2831560345587576 0.15263215635536653 0.12119324409536603
0.3688413088041784 0.21236515689848545 0.03757986560631821
0.462286636399142 0.259576735973269 0.15672921976931775
0.37991223039570343 0.20625993122973796 0.06901047920794667
0.3161699747817863 0.21155302669245657 0.07986583470582787
0.35420354469297877 0.20192412891728395 0.05204879402633367
0.4106611823633415 0.2861875990395788 0.2944754903243165
0.35566334652958176 0.19725967360241725 0.07044413895499702
0.30940199040693983 0.23321758854322638 0.0325807537427778
0.27481474185881893 0.16915058014895124 0.08508531032539679
0.35669444512242876 0.20510539107746695 0.052277295047346684
0.35790043922837356 0.1939494845037757 -0.017612787708088717
0.3943298735765808 0.22173691222874936 0.11318980089804143
0.27924454004542554 0.3222873607112433 0.03583449763914359
0.4608581919253538 0.22471138464632645 -0.01576863493536962
0.36750503101433196 0.198241411994303 0.08720672769410953
0.29353712577318447 0.2451315010810049 -0.036906406983064244
0.2753985158639978 0.26707957284564543 -0.013525426411064245
0.2256152509777678 0.23081257490422047 0.24597645994703043
0.4660990855870466 0.4141796738623498 0.1758088941846836
0.3996519265557055 0.22249333173630248 0.15376831435561655
0.33126419573896726 0.1682976619821943 -0.029198443711379696
0.351973282035857 0.21005117884436686 0.07925845615629612
0.5028955362762701 0.21372313252206254 0.029550520369156175
0.3091119804735172 -0.0057499865257284455 0.11377264753238592
0.27742405153566096 0.21544046380853388 0.07972362670125221
0.35587909945090246 0.1844425786975421 -0.01100408129418895
0.3777495171959231 0.2630932347564112 0.08387124126343792
0.3854871274420333 0.24962497508539627 0.15793415580360204
0.25739223884407636 0.2168705663787165 0.05774419462400715
0.36759199526709097 0.22464449659557317 0.06779168311459216
0.294344861536473 0.22723336416680695 0.14248913094854743
0.34742884341875424 0.21804988830035654 0.09346841399155892
0.3705047877107859 0.21665821849710198 0.052753083497321995
0.39923887243827494 0.26544961206940343 0.17038249831091434
0.41485264081157425 0.20268656512187988 0.015632450433685108
0.3284051242358714 0.22246934894559445 0.06254375265294243
0.4162743644808842 0.20163278445588162 0.08586342786028922
0.3704350958498992 0.1983767888371375 0.16990419631423492
0.3986826269680961 0.21046246099700738 0.08621088462976445
0.27276684671225837 0.18901907002819485 -0.06253110467081058
0.41598738210663555 0.20351666069549879 0.08931294323338079
0.22548269919508357 0.1128132548861629 0.038848507056883363
0.31010276087212674 0.19438111551482962 -0.007880985625348558
0.3359059239411124 0.2080558325038453 0.0582064235644566
0.3987724895108755 0.22123609304588854 0.09147914732884033
0.3540082396304456 0.22947274277203178 0.12809185838956694
0.3635148880812551 0.2526115900188586 0.203012042966634
0.2989180708380559 0.20952282994957727 0.0069694552533974274
0.4487165548883496 0.2735800264107411 0.007718147611086579
0.30301552811440047 0.19549737822711677 0.02928958073545118
0.3581553969675042 0.2123236570358813 0.06314093724411407
0.47884536264724886 0.35505136164667306 0.1954464000567384
0.3001359487871582 0.22086425517316854 0.10024720099157491
0.34832358187787804 0.2370406853355007 0.13553201189250785
0.4710197642629055 0.26366372429549756 0.15909648203870574
0.28362473725235304 0.22100863507824897 -0.445739480541107
0.33709125384334016 0.20635033938188485 0.1410960467375446
0.3190822792910808 0.21776410241174915 0.12107657070104949
0.2589917019239465 0.2444061286053909 0.05464772321357714
0.3219947826850955 0.18539327333358813 -0.01698603915167496
0.336389965905596 0.20386046594256868 0.06830185553195633
0.3704139160008424 0.24075051718628515 0.15936383482706162
0.3434515140224619 0.22321010623619486 0.08212486449028233
0.3357907263504103 0.20652542964930376 0.08748724942515196
0.3821783943497934 0.21581880486387206 0.08303193446650425
0.31465984374727896 0.1539996891648343 0.0033085149568421457
0.333294714930247 0.23167986856405776 0.020107161670736673
0.3718370126480437 0.22769720200645338 0.057733462428672055
0.3602459384926817 0.2063896057660486 0.024173775819235743
0.31442797351510876 0.18089695000213624 -0.03546129348217164
0.43916412619954315 0.23748080294274132 0.14395355387634368
0.3239045891780563 0.19856814245676446 0.20403252175808007
0.355769407266024 0.19655453670100087 0.01952310618418096
0.44309948174068836 0.17926580391463176 0.06538480265082569
0.4108384808142489 0.2134943392148898 -0.07896526233682266
0.27645852110279634 0.2164648476126274 0.049061741067902176
0.23735993505714248 0.22794442366543421 0.07526987637498905
0.49038521121858025 0.33923587066550454 0.10157934275366642
0.36236478073840317 0.18700418527515694 0.10535123187855788
0.37268976435352386 0.22371430976663476 0.07788756750471748
0.40025469368720223 0.2293403512030352 0.10209419418166021
0.3072880259912978 0.20269888198252772 0.0960080087127011
0.48341242898146675 0.22597204573369822 0.03272675004728853
0.30334623844250075 0.2276526514949353 0.04605875311078478
0.2976726019752931 0.25103319229347676 0.07582969854860266
0.38913275860159047 0.21604447177526254 0.08122805560425661
0.36308653274777214 0.24740532640431923 -0.008754988871913838
0.3842522666395496 0.21808732947351928 0.10492651610800863
0.3431217998990377 0.24496178413707526 0.06227015394505031
0.42780651640021006 0.2810925230541841 0.0580939541817429
0.37997518549460096 0.262110132740645 0.02673623892670207
0.4923947806357205 0.24934074180075072 0.017185029422407183
0.3113858014734774 0.16889377996150756 0.05400569129471933
0.35652784956582195 0.18766303863242229 0.12979028452866714
0.2129746820743037 0.22392610428840953 0.051620987910311555
0.381927300855466 -0.10461059853295751 -0.07883948650808748
1.3469273131553336 1.1741287631805477 -4.523201101201295
0.3893177062587654 0.1573128903892922 0.020684307403840307
0.3915166415118847 0.2647239416904199 0.17863284390494982
0.40426005268602694 0.2726972415117075 0.4043194991076291
0.42204037488383506 0.25778156583685075 0.05460917484390393
0.4245507169175937 0.2508649516899766 0.05894037184917522
0.3875124311487923 0.2461103844446768 0.10387311826681866
0.32596473976201423 0.1831021203253158 0.04092813580891175
0.4438648297352188 0.26183572673841127 0.0432248812552416
0.2789980583000897 0.12408589245625024 -0.03870521420992645
0.3199684912667067 0.19250808808206443 0.054995228836446586
0.275151932316021 0.22161671721541154 -0.06160013347486881
0.34139386145547235 0.21946720596028513 0.08151856635765853
0.40255370121553824 0.22252819367287202 0.13734744191789616
0.3429036037053521 0.20327890272130844 0.1340223624738428
0.379592526931944 0.31905992960908236 0.1992884174750884
0.36006877740278753 0.18453093657561226 0.04970165677525529
0.269545110973084 0.2387751435020533 0.027172837830192975
0.3338722195459525 0.21000207761055378 0.03593888291764813
0.2990274257300314 0.20265587348279723 0.08189780498400978
0.49845592297214125 0.25218709024029806 0.18832412604504611
0.4013137512258993 0.19790818419210154 0.06995741694225899
0.2994577371223812 0.22362691662021916 -0.0044369839357329965
0.38541753554105185 0.21736272742484175 0.05554892804568112
0.4696091593760201 0.2328258650351529 0.1525176525583447
0.4673551008165191 0.24238244364826755 0.08983795261765692
0.3443602823312375 0.20413046961309078 0.019653300632768378
0.39914267234406964 0.22398164896307549 0.07291021126837904
0.3826216850787887 0.2504907377874588 0.039552261531440536
0.3318623257503077 0.19975729856912494 -0.01879065843927208
0.3632952212593352 0.21712210126563036 0.06320588276804529
0.24969842688980748 0.2496828413018477 0.12537811664643073
0.3809419677732677 0.23159868147862994 0.19929616623863922
0.28186108227245654 0.3545099937313694 -0.05904093337261429
0.36213125114302613 0.2091712537664847 0.04966008002287481
0.3519861909377653 0.24175252728298346 0.03780992393947713
0.3518953619284275 0.23435763063528725 0.045602700409475005
0.36267559291204066 0.24609705588765962 -0.016737335469116488
0.3346189940967861 0.24237978995303422 0.04304076796620393
0.22432767727576675 0.23366104928189202 0.07853307500025153
0.3231957022106542 0.2025763901012283 0.023693681907104747
0.21543199520877465 0.25734246581819775 -0.17970609983370878
0.4677967389610558 0.24347181928033024 0.06661914967882865
0.3576096713163395 0.22534216497896864 0.014011003148027612
0.40394765519846487 0.22186845983148373 0.05968086077143653
0.47291368985602844 0.2220246478864425 0.09621789650725532
0.2328760666331675 0.08845284494027794 0.1451030810362397
0.3808026137099745 0.21517500448351257 0.196358443514157
0.4784956656143322 0.2064372956385938 0.10689979068341415
0.2728209052972943 0.2278327532270623 0.06000351909652579
0.3120341354703271 0.1933314367824721 0.002461632346182796
0.7200887107655092 0.125824741284859 0.2775021348789153
0.2629010219151553 0.19931229246027726 0.018210111134635554
0.33562402211823894 0.20209716408841416 0.07392820533044642
0.4199631859844146 0.19783392393770782 0.04094310704104487
0.3951041607429602 0.21083435374313808 0.10014416252053593
0.3555412803208071 0.21094381788738303 0.0658296872131956
0.248908765764412 0.18834642666817558 0.0748468227192518
0.3902819493097809 0.20061796442209356 0.05830189811385367
0.39258638485081576 0.2414222198783591 0.13132615492602895
0.3593332335376971 0.21601099961421255 0.16537246524754323
0.32156335732057073 0.2547938844270732 0.07407083352192956
0.36274920187705106 0.18279759977522758 -0.00988424308742708
0.34624014519215507 0.205511841936584 0.05579293574409405
0.35750826590515317 0.2839007632358346 -0.06562953816066397
0.37186053566256305 0.22444715853970365 0.03513119968715728
0.3642408265780688 0.23843812837236555 0.21384554375606513
0.21358284210137413 0.22970979502716204 -0.050712831732653285
0.3083671283825993 0.17685358202197676 0.056505793536118176
0.2053952519865021 0.8368355143696675 -0.13504345134182927
0.6262380582598723 0.3202284309400909 0.3950258120378294
0.42379511223998634 0.24323481864774976 0.12410287649291263
0.36285874267215945 0.29094017043254894 0.1720155745435079
0.38857954529970584 0.21046350098745847 0.09698145566066785
0.3494317681065695 0.2082199368261115 0.0887965949515035
0.3515752009044206 0.24920510319356026 0.13014419645637076
0.3511716275822323 0.2149260475952417 0.07737749709482955
0.37992266942163155 0.2274356623193512 0.09137290173910628
0.3291574416652594 0.2028198146238367 0.05098944281527906
0.3005993988182638 0.20572937868800523 0.038045567983942874
0.32181692451715094 0.2552248784155893 0.15236762392265746
0.4197616042837069 0.19092271237407488 0.04503015225935769
0.3663574971791661 0.19131254903835782 0.017235508373389052
0.37323071173588573 0.2177202331682082 0.13363991465982394
0.3726931554227235 0.21341289720409407 0.08709515344841634
0.4041422794674929 0.21405353016194795 0.010121522549013662
0.3339281605915403 0.14998112057526214 -0.04529872724646111
0.3758013730229095 0.21286708371984275 0.03444056737659196
0.373884044185246 0.25144708597113663 0.11090574416846266
0.3504183260230178 0.1366021398167021 0.14549329772286512
0.2826921649944154 0.0563534529327967 -0.08221937976463778
0.40536270833274557 0.04199159852419143 0.037341787614280975
0.2937737052473892 0.21215765877053627 0.09646461370991233
0.3626172618243686 0.23270577187930996 0.05349360169385875
0.30863260799642944 0.22290250290825497 0.08708160550301614
0.3766414896744692 0.20844846807193562 0.02037039571682442
0.3940732136400982 0.24080917363349386 0.09931732132270099
0.3583233699559827 0.22745419020463942 0.07828200493108284
0.44876250912676596 0.2791938888661889 0.08272510497748442
0.3238917541114432 0.2083504828929108 -0.1447566499003301
0.39023881210748357 0.2704286973896899 0.11283493918575971
0.3285827228842493 0.20538434244832615 0.045214250281574664
0.35679698865942555 0.1917866111208042 0.14324686475563908
0.3143907559311856 0.23232137204620074 0.023704185822424506
0.3709663504806713 0.18803087623558667 0.049574254698086406
-0.22824876726156162 -0.9982588345799854 -1.1803282217084927
0.30392997266822874 0.21080222816122784 0.0055774339061258615
0.36051696939212263 0.2515431136021533 0.0634911665179203
0.3295539038783488 0.17221312816701584 0.14968193655353446
0.432191557269789 0.21922598214990785 0.08187514683135078
0.29772420128273325 0.29117559180086516 0.11995807467596364
0.44133249514145234 0.17231212501428672 0.047540655764976236
0.3919619120204061 0.21527099423440177 0.10106212941418846
0.33448907337695744 0.2209889114234329 0.2415077924790694
0.5302961364291718 0.23785152758867412 0.17218424945305344
0.3449790814891571 0.22268304538039274 0.0670483397931605
0.34747955259759067 0.22066605439623288 0.06234719901985386
0.3416818394215966 0.23260576781123632 0.09871399042955886
0.35730128874806155 0.21241513211877816 0.08399721844085661
0.38964796816418357 0.20768099486396352 -0.015414841726226314
0.37095726278980123 0.2351482564906462 0.0935486283209741
0.361545977162649 0.2037697914815908 0.03919495797401851
0.3250984587662913 0.18215613125354935 0.03441931465441428
0.3922151115030914 0.22487726768491711 0.138919967987988
0.35237082465877734 0.22241219179446148 0.09530693649720945
0.3226888442262066 0.2729729913016712 0.10143907313727141
0.2700363624765316 0.2245200027058445 0.044643839691389076
0.36883366291108644 0.199424796855169 0.11452784106452896
0.2855845801643113 0.1865922503782258 0.08036336420440193
0.3540946453367866 0.2378460580767694 0.051637746788614436
0.44465914503682313 0.20368913462125704 0.07441108662942497
0.13210259593739693 0.4448312700793622 0.4801514617894327
0.3985725160920879 0.14166499121549236 0.08855539470501128
0.35470701808077365 0.21921699184179033 0.059151158018195815
0.3445326893172762 0.21274228125793115 0.0718568284205503
0.34646700375745354 0.16683703105374548 -0.016661563662196954
0.2880525867496715 0.215658705275672 0.06519636234384052
0.39481969129457184 0.22593374050333637 0.10508232399169515
0.3952628506226148 0.20420989670938638 -0.001047402255750285
0.3981393242897866 0.24089284309712866 0.07032597642242422
0.3515716302875376 0.21113133493659575 0.029804960023085414
0.4143182133518053 0.23753970010920966 0.109961413510689
0.34249974976708586 0.19449294854464938 0.07514725127529687
0.299434336067236 0.21403205060148878 0.03194013402188034
0.3415902345148396 0.22021317238088045 0.05223015271090503
0.38175227473530526 0.22356523315832533 0.10034130856718093
0.4313328778345067 0.20870540076199973 0.08793226909855889
0.40983410198876413 0.2188765682683993 0.08152596851471117
0.309198877894616 0.20627959370173699 0.056723086886663054
0.2585710550333715 0.22560595604925027 0.12425793944422026
0.34603350332851335 0.1618699671901993 0.19722226297207612
0.41619987624250143 0.22075613174239095 0.0803876972425428
0.40344231669074304 0.29534130010111426 0.07991944979184495
0.3268542643972552 0.20354760691343188 0.08294738405257363
0.35953172544265044 0.23514968539831216 0.09673909238503597
0.4461172946573839 0.235901556933527 0.24292800932693126
0.27469830308965015 0.20635361157728482 0.0469385882390867
0.32855729797248046 0.21456152193556477 0.05187859453194221
0.3160175457688439 0.22342665916413296 0.09026360346237539
0.4602784473659227 0.4298718863741726 0.04450760513149987
0.3603463252778738 0.19890066676745732 0.02292849422374843
0.384976337150448 0.21277417079583927 0.09202831309193016
0.29590468928495284 0.2241493640849086 0.039870283724127376
0.3820505545108972 0.24438746862162475 0.07097211693769623
0.6206400835562533 0.2544063548967159 -0.04189134174642106
0.33719770578673547 0.2173194358838657 0.09324457155670984
0.4777726088216667 0.31749264896951956 0.10114758355595654
0.3935981004389646 0.22283010784411772 0.0760759302316103
0.38702685116294333 0.22365545169637358 0.09127834634873011
0.37151315323490053 0.2246965651392543 0.06979387335695719
0.36307837680476496 0.21135134972129777 0.0801562144543766
0.32597425293349147 0.23772665626695755 0.03342459312554524
0.30382243867293823 0.19557888637706355 0.018728009353964126
0.42561577873144074 0.4049938167994469 0.14666091060041708
0.3492002636267273 0.20081819482903995 0.01732109626532008
0.27173159555758275 0.20776446896073253 0.07704123094151782
0.33970220223713454 0.22044646523396239 0.05660054048371421
0.3382852305940247 0.1657259317462234 0.14081151177018114
0.37268980477008995 0.1547664404169211 -0.04481889405367667
0.3332436694610976 0.2100709171906061 0.05797866812694963
0.3411113553742382 0.20573713283909 -0.037611865687694035
0.34570829082957744 0.24959725658561638 0.08290679340703377
0.40462893816437884 0.2096072900828858 0.050927019437736476
0.40555952316478283 0.2939835062702798 0.3646799410728363
0.39201130458461364 0.2131769771939105 0.04947156083451887
0.405127756514446 0.23538398363854185 0.05200951786258656
0.27409737790547695 0.2651335319509798 0.20456970564470112
0.34008685397409977 0.20386693416183732 0.01428641086120308
0.350554732035917 0.2359896952368672 0.21643142580740005
0.38638640906117416 0.22954470357697687 0.10069238658010704
0.3556041901962885 0.20694750762700664 0.008380558733279031
0.35715385445328707 0.20582619532933677 0.07575418761942387
0.352965844960039 0.21804352022797957 0.041053881443758655
-0.07888355480496045 0.016036560076415185 -0.4376394500090868
0.3107934855070198 0.17130182613063027 0.06619460683336342
0.37698277510794753 0.2383158614573233 0.0781124371953581
0.3040095755686991 0.25615330017991766 0.06829149918317512
0.37519010101098615 0.21064392712489166 0.0967735853653835
0.3274824496224795 0.23884253154776047 0.12941028023587364
0.2975689466446738 0.1958510755668783 0.08633334097601164
0.46339980781274903 0.25193130122400476 0.08081194998656827
0.3660547955346942 0.21282999990491192 0.06630687186141415
0.38960382173638664 0.1347232234248139 -0.05592960481430964
0.26850122568593804 0.22228802256006475 0.04216564992572103
0.3692452782732687 0.22193720378143666 0.07680075262342712
0.3243474516365126 0.227848771056415 0.02823942581684946
0.357874942358265 0.231827817331407 0.026473571695603937
0.3608918029309791 0.22192640662174767 0.056782299785027135
0.38932485552027174 0.20564106805589688 0.053362049833879155
0.5644888190427224 0.26042958902158375 0.2620727513103134
0.29363973522345077 0.1875476750897178 0.11258874108439443
0.23253337272302588 0.250029047265528 0.02795342665181977
0.45238768991615075 0.2351826361170879 0.15860335940240589
0.37552965797752336 0.2489994822998085 0.07664181318125429
0.35385403938443005 0.20731388185814126 0.11614080430828722
0.3568099998367984 0.22733046788289357 0.07603338412383209
0.31549598425144154 0.20276603854020436 0.01617380708961491
0.5480396936213339 0.2698073526158282 0.1769873188668356
0.36567021455698523 0.22387962656497962 0.10898790737249442
0.333365035471445 0.24043075140906467 0.0635023189418149
0.7253617389682034 0.20052199719326325 0.46794729539519153
0.44697621820677114 0.23292024416343793 0.10045327963607065
0.6553655035066726 -0.11649463074282096 0.032796752984893374
0.3585513317521958 0.220525463845334 0.09635037120398238
0.28506468876079794 0.20341570585088675 0.005887307061868796
0.33033896374286087 0.18965178483477985 0.03198056620902889
0.366656462915671 0.22177621737522202 0.2901414880846147
0.3079586535256311 0.21782984553325946 0.03746770490326412
0.5501672985123207 0.2441708101651443 0.04211838611591645
0.3219927920390404 0.2729731686029311 0.09054022459579869
0.25549240180399124 0.15924399790533528 0.003609286188236638
0.35365008109727114 0.2226273360321045 0.10541272604669416
0.3349869956170721 0.24759543139012408 0.13509231458337467
0.3512687341922742 0.2091124616841853 0.05257704710061262
0.28241096592599035 0.23235542929388942 0.06614785112475374
0.41294738886568894 0.23623602437096736 0.1797724431049943
0.2557843993896256 0.17841799857860963 0.09710447274831324
0.27250900896230235 0.2515517000368277 0.07547682075005469
0.22994935629549218 0.28150999494403095 -0.08947097826467143
0.42543566995632887 0.20927178659415802 -0.012192640603927885
0.3510607573336415 0.23450480387083417 0.09674851911189819
0.39639250714668606 0.20394244654860927 0.07996643660754899
0.30642194587309746 0.20801499994703931 0.06340386890963146
0.37361038337050445 0.21550116441855494 0.09236077449899938
0.31075590665906816 0.6767212451877782 0.2762900812897442
0.3176280234278863 0.2009616102917562 0.1572276984005896
0.05068919100204994 0.04534331095339894 0.36548898009776565
0.41614027697129075 -0.04413275641593373 -0.042548651201826715
0.27337980260689676 0.20278986430474788 0.05014821401431391
0.4060178499472329 0.21635220666439636 0.0740990638777248
0.38251801439275823 0.22224346470082423 0.1667390486165914
0.5617369641542922 0.3297412412885592 0.19520855131020198
0.3807147518547538 0.24419594638365538 0.033098281525980155
0.554117016179319 0.2320700594173104 0.10482894485998884
0.4410364707401868 0.2752460564951775 0.21095905705200835
0.36215445367629684 0.20039915221782678 -0.029795885975119063
0.372685727885397 0.21351017045080312 0.056733591083144574
0.40985567879647533 0.23830090954022864 0.14160308254973586
0.3402960924614007 0.21393810957189885 0.11270191039795918
0.2654663970442641 0.20909005251503743 0.041945813812759525
0.4062396917613995 0.2035992791428214 0.08834837601082768
0.37884267694386153 0.22982902345501088 0.06484588310956951
0.3272225853724251 0.22177403075238544 0.03359508947912104
0.36468790147756636 0.22551780814468714 0.06383447121407926
0.22146074985140274 0.42072994954969545 0.1444828896958512
0.3309362951851256 0.3049986856366047 -0.028562122995666073
0.3580469229547134 0.20583907696487813 0.08878606105072606
0.47106854389981834 0.2146944048758428 0.08725258280881576
0.3314108680652623 0.21887042840887716 0.0741777598818203
0.44089099232625983 0.19958313888159296 0.051103006761081815
0.27595296393729996 0.1978274375550484 0.0326748964683361
0.353657456219139 0.22417341650596256 0.06648385445885197
0.3601277448993301 0.2165812027430576 0.06120369172751339
0.20440828060702643 0.18548657046250128 0.057138079897470107
0.48081067479762396 0.19468092656620684 0.17687818451773296
0.3631257108081911 0.21491381551345512 0.03407163096508725
0.4092487511258298 0.21833903941823962 -0.023070822176734396
0.35436211685140506 0.2331689894298279 0.13665842535870354
0.3594374057624776 0.21289588682401472 0.07859507112489439
0.33123305567345085 0.2277388607617894 0.08759534489510656
0.30930887290739406 0.220827946071239 0.056753969108001456
0.29515782602337026 0.22721906667489122 0.05422734957878106
0.35263129217719325 0.23285648102009304 0.05702573488011353
0.7296334764433539 1.5034227985305222 0.3918272036824817
0.4649747511328428 0.3162857478005492 0.13115661382894928
0.3367305700474219 0.2058042439388572 0.033247460943272245
0.3585051865257043 0.9974955322309143 0.6046462749779238
0.35821807957547946 0.20695832380570778 0.03764459828553868
0.2723341846126601 0.18224270704978096 0.0882892021807038
0.3224039020908833 0.20321899501334428 0.07854548603205558
0.2306142484297311 0.42053507305877247 -0.6874734887511806
0.4773278878732725 0.22109049889192534 -0.06011400473637707
0.35488311283521057 0.1652783322575999 0.055238060569379854
0.20631066289327293 0.16617540052678237 0.06971936618904806
0.4014121573489149 0.21263277151982152 0.19829021583099404
0.3185748369930508 0.257363994481949 0.10161713158515795
0.5107411710116594 0.05782732895303866 0.25793928797222065
0.3411125761581104 0.20733701196074605 0.18565251664279003
0.35730318971829433 0.20410824580962128 0.07465241897237718
0.3617687770742748 0.09434654840904955 0.013180840525194526
0.31374040618902654 0.20887386552119835 0.10678021536315896
0.3519016785616458 0.24375034981332533 0.06220975236055892
0.37796917503996497 0.20451148953442555 0.14801308038923366
-0.04067333385103211 0.06971456267974929 0.23099768701698054
0.3951508027497823 0.2474218265648176 -0.014928521669361317
0.33415583976911023 0.18695565775260548 0.022315320837350328
0.2906932277205385 0.24302594775983266 0.003084658778405469
0.2363161750760412 0.19520313228159125 -0.0737776426030905
0.36460231392211995 0.1556555421935002 0.15574015346743408
0.39229984325493206 0.2281383414691902 0.11270578076528182
1.1695870943334796 0.16081389926245038 0.2708478145478921
0.43942808518380616 0.23296916857097472 0.0743892519695919
0.36747751785166827 0.20874271945274359 0.05984644451362442
0.2840669819591142 0.23650349360849532 0.08812351964428444
0.28199740283494634 0.23377632990622033 0.1718409326985295
0.4351197273189058 0.23818719702953217 0.11783204666433278
0.3955218616126075 0.18372443755075096 0.02766261949304294
0.3587324133416132 0.1689351151334222 0.2920161934165151
0.37461414512188185 0.22779676376484304 0.029811153435858273
0.4136000686617365 0.21884160791050533 0.0833120832395764
0.3599558237459064 0.22281592877051537 0.07798130006591464
0.4058402967785071 0.1377381445940955 -0.022641437736041325
0.33163906211277094 0.16918067296390404 0.046572182022373454
0.40693008876165493 0.2370156914409307 0.07461886817691266
0.38109636572853844 0.21029088958789544 0.0563465917145578
0.3522435283927621 0.19758786219657054 0.07924370208435505
0.3606142720559262 0.20845635884182911 0.053469618981608846
-0.09802388195332412 0.5083915247473527 0.03640803991623898
0.3218262107455132 0.24806580893293528 -0.05520182413729913
0.3287216569561906 0.25423483320697926 0.02900285666130742
0.47150487215738224 0.28173506945530846 0.15370882451779266
0.25242838154227343 0.20387149602794352 0.06880527669267167
0.3463761310088955 0.23569610145767683 0.15837391230842002
0.382458022430896 0.1869307900066275 -0.01342730801520986
0.36274281440454104 0.24444101750476932 0.07060520748058252
0.3706841781784078 0.23278522791046896 0.0553180462408136
0.45996505976478375 0.24059895326314518 0.133061936302596
0.3888251893391299 0.22461586223168695 0.09018782683151016
0.3563998186727133 0.21394040567125217 0.06398625760587606
0.2572511688487964 0.3439632346265853 -0.03550508259996832
0.45025290394886497 0.12010835324099389 -0.0036437742309374244
0.3688071895145697 0.2439602554384237 0.009290085007236826
0.5575977914941461 0.236750829030143 0.05615097739439534
0.3501484040090759 0.19468719418352975 0.04918562962691908
0.29618736996901873 0.18344538455863812 0.03293763627354451
0.3120460660863955 0.20512143118737924 0.03947245875278327
0.3469708192953931 0.2089321780242699 0.15415815042508996
0.4274987904677374 0.20443986578609952 0.09309069297398764
0.4686509980201947 0.220598537971199 0.12407089635783564
0.3867261643797093 0.2024184666868507 0.04450710456740126
0.34209955823806126 0.23066198045182773 0.07874091746705858
0.3240658301016026 0.20847465159374678 0.0880336916709723
0.3360281981222357 0.22664718815443052 0.0525816597121036
0.4445708886234456 0.20879164877507606 0.06719162121315492
0.3234942994489529 0.26059964420211656 0.03760756583548641
0.3782757643798078 0.20788188703268418 0.047688722887329504
0.4421186798611245 0.20469334759309277 0.16979840443296723
0.39388605970955837 0.1755245225056541 0.08361305007821329
0.43501272644867583 0.21220811725243038 0.12498620631384938
0.3686510476772611 0.17892136998494834 0.10099846849985283
0.4994553233757557 0.032191441011988786 0.017463017926218072
0.35311410880501626 0.2085901968176529 0.010049364061288202
0.3570410279897658 0.23263982796619587 0.1160679951264143
0.5135852035135713 0.26308783131165114 0.21130264066427173
0.411660902714317 0.16471196315518455 0.040248851507072914
0.32492706638160485 0.20306012814896235 0.07118593961509134
0.3840526762511729 0.21256395880793377 0.12944771439427427
0.4012600922158214 0.20874331005558133 0.190048671413507
0.38312271009908727 0.2393875618183472 0.1223752565863947
0.39259763768410494 0.17515097832951199 0.10507558845677067
0.3402716790133127 0.24107527855403532 0.0022507259858173256
0.4534754166984811 0.22583628311664938 0.08111853011502035
0.3515293484990565 0.22524657385588398 0.16601072734786726
0.2778246564579092 0.08650704060664793 0.0720097418903265
1.4873142532188837 0.47578292954690937 -0.19605952906722734
0.4700493288735288 0.14518420238812269 -0.00041263663106860804
0.4035688955353294 0.18101637635172096 -0.027753417966792426
0.32403986358949055 0.236091043546935 0.10845599321174859
0.34478335155017703 0.2373646430234544 0.06694123427116949
0.45505375702794026 0.23735599456610146 0.07044758102505
0.3691206657923374 0.21184814258282358 0.08598537877094259
0.37451147529034756 0.2367334323406567 0.0715756146832689
0.34462302743799 0.21810188503013705 0.12629038926087333
0.2856094769520041 0.2263874675887223 0.0594900011133177
0.3481218079583783 0.2861584453864623 0.057807059292656504
0.42091051646991673 0.18838848179690615 0.07587179653283727
0.29854160625512804 0.2721705917145272 0.06631999905893338
0.36873593523117165 0.17720799477854143 0.0825036057824633
0.32729594042177723 0.24184694246895333 0.07616682347538983
0.36865804659277046 0.16613386256045715 0.06970368934364046
0.3983471490069803 0.2070259568962456 0.07721370470119382
0.4106946261030089 0.23562336182990862 0.08612386880913903
0.38817864941289315 0.229537316958897 0.10398464166181043
0.38491096300985816 0.23363489810566307 0.11331460198445598
0.3754710303022364 0.21638135645723366 0.07184392142698925
0.3343029461489806 0.2179004448662596 0.02153554965479998
0.4911101280449657 0.2461201561360724 0.020764464230325075
0.34542410155847847 0.21160644640173132 0.05983937821969221
0.37378310639107326 0.2325000657522196 0.08623363264044315
0.36505786509266613 0.2613286036918936 0.02535231911286928
0.31464324135555444 0.20877328611504709 0.018319263334774405
0.4174529143598704 0.2100646792993075 0.047369902890324056
0.3977064792229612 0.22752331860152708 -0.0024269068052547027
0.43161405174166134 0.19857417534845467 0.11463974513060293
0.4933230167277145 0.08256858949421542 0.06251767131018937
0.37630359349360276 0.2175145837918393 0.06464218987900949
0.3772800393766431 0.20083917561849773 0.06240523955213462
0.3994046779916687 0.23441774647974967 0.06648099620659309
0.39729212451409524 0.2302104679996262 0.13983737664773344
0.4522805349692476 0.2752571994991513 0.13650164044585722
0.3729399753001559 0.2143725562559382 0.0847243221321321
0.4333115530384646 0.20999633941815432 0.06782717467284272
0.4680919955137739 0.3035568381054077 0.19271270380849614
0.28062995197453233 0.19339358156753406 0.052092980351005735
0.20050934029350742 0.12902170935291224 -0.005182992437170242
0.3697536900445044 0.20101181175442662 0.07453296379236463
0.36188466974280686 0.238583209768791 0.08246303775442243
0.4104149410632658 0.23470371935536605 -0.05802979747683423
0.4587235726708627 0.22750948726277898 0.052743230985868195
0.38370314572551933 0.2311543934967517 0.09424131619240939
0.3345534233046692 0.25045311665066095 0.07162250171050744
0.25889573373990515 0.20489131123463267 0.05937995235085225
0.2689769612202326 0.23851068298048972 0.0803820241028177
0.3626604253327912 0.19431062128987264 0.15278612471527708
0.27748855692286156 0.2195668044802943 0.2633289283552358
0.39925854985935416 0.27790236285618164 0.151237913242511
0.3529121670994755 0.22141793170763435 0.0974875239994617
0.4165846195823377 0.24993328635108014 0.12955261185214795
0.41006985233228477 0.20659910964423034 0.04801826410481169
0.35466957035583846 0.21303737140908652 -0.0006934302043646312
0.3421224651516468 0.2418721708285858 0.04756263300897956
0.3575236308755194 0.221819916782394 0.07497148556799971
0.39658389954317386 0.2545246038122002 0.08065744270044206
0.39206819663350245 0.26122475582573657 0.14866158133787621
0.2918123702889517 0.21548982931281557 0.05626667584738243
0.3646725225979708 0.21828511862736377 0.0740222336589369
0.4147790058964631 0.22478806163931608 0.17784586963995253
0.3806576509461479 0.19885311386056514 0.03274519011986854
0.35446752756266164 0.21608688067419735 0.09625333302393813
0.2919163102173883 0.22146867675670023 0.037294625844907614
0.40495535803322014 0.24069178121158075 0.07683146366440496
0.3592835370690466 0.22337084036716703 0.11662023480008088
0.3292424803996994 0.2082501735305442 0.0633825723973871
0.3442116905214476 0.17717280502316157 0.0910961671739301
0.25520885778320235 0.22614115602371498 0.10014198308097377
0.28079469693579995 0.14468529697447252 -0.03184871860366911
0.28124036432456023 0.15584934052932908 -0.21718050658321886
0.3947998814474545 0.2245977779799233 -0.002886456195113851
0.4259737506914547 0.24304492033347458 0.11029567713762845
0.05140323838301697 0.09274495688009665 0.30043305825790867
0.36229054633378155 0.22138002452578576 0.05308892572377033
0.36341482382668744 0.2705282355415477 0.1293648576976807
0.40264027932116164 0.21926944514430602 0.046653367811217095
0.38084154877802234 0.17310740078352183 0.1085449882797036
0.4404260300785836 0.1974852510994367 0.09438030061578218
0.39753956368886634 0.21596140773878858 0.11617464975785197
0.3551140247659248 0.19922124298653898 0.09472765750831513
0.3665799167035715 0.23088615732433482 0.09783914850544306
0.36503476644013233 0.20807946103835206 -0.037622097768689855
0.34726971997518774 0.22670828738132798 0.025787619459975986
0.3498321155728519 0.22400534055442733 0.05976115928271497
0.23937230212314375 0.15102944422193332 0.020014697282476845
0.39693807437464557 0.26175711315863737 0.16426513652598373
0.3653914225577779 0.2513255034585882 0.1472478679306306
0.33786230092773906 0.21243609803482855 0.10317404151967935
0.445821259478123 0.23323271671870316 0.15580636370216894
0.37398678656415996 0.21654576590687213 0.0873739675701728
0.3677074485935776 0.21447794735743742 0.06364157092085065
0.3758385032568441 0.21717662041626795 0.08065485057895216
0.41101939047837277 0.18161169637316732 0.10121031859054597
0.43422394236965545 0.3369548776146303 0.18316597923708855
0.3833510827150519 0.22086491627436544 0.08275085702794627
0.39642679580816775 0.21631348924418603 0.1117352762488224
0.393868482836794 0.16997679063339888 0.08565256865668402
0.3384352063646787 0.21908308305685864 0.031227235480187687
0.35191005953217314 0.19777064788615917 -0.022518453180083498
0.3616341110310657 0.2236147455215871 0.03899864232528216
0.7309532622855386 0.29928651456465616 0.4149112103347079
0.3583383511727902 0.17070965173553532 0.14183820290321592
0.4628133717084211 0.23769645754998692 0.17241559575012388
0.5462973851039692 0.2077108638024754 0.15171593607718137
0.3110791254627827 0.20784370186376577 0.028361851461411902
0.43658650212123007 0.10964052309026329 -0.0360863506050606
0.3162748148457837 0.2338023110394971 0.11511151961670407
0.4835789260465617 0.2050134133449859 0.06133814453067998
0.36867562360222905 0.24219187402788123 0.09028446007761204
0.5354209741987859 0.295838708562016 0.2280499362869648
0.295660900041014 0.1960522384679848 0.05723044365446128
0.3656953401850558 0.21563409056864202 0.07430483381571662
0.4014212410142477 0.19510088344867427 0.08656827362082709
0.3497991070782973 0.24279627713040952 0.05565123708308306
0.4097010348850745 0.2556550993172664 0.11621656477882425
0.30716675441993857 0.22969209538183577 0.09492694183575168
0.7647554246071309 1.4789069107400508 0.39829932043386407
0.3771175288328692 0.2328566251508164 0.11154378471009352
0.2915325681384502 0.207538640235569 -0.00491340825904274
0.3326116921559219 0.2453694141709093 0.0958923035605892
0.33823422860388064 0.23650575437378052 0.07585372480136243
0.35209020616591147 0.2588072144360467 0.1074223752426775
0.5013745420731368 0.5187114366397196 0.23495659754144071
0.28505525634844275 0.24646145278859422 0.11368055245506525
0.392718990505756 0.21248324625011605 0.08827829539590937
0.3550653369644863 0.2144554596304431 0.0700731044342433
0.32284895124614366 0.11740600105569854 -0.02757308253728752
0.386643261263643 0.2008074157528057 0.03390991076716432
-0.07080874998953846 -0.034128500489202906 0.11233484616501244
0.3792352206164935 0.22301926002580785 0.09297965740367431
0.32370665705737167 0.2133647074593057 0.1098477369374109
0.3507777824678726 0.20219012497511812 0.04553760129036277
0.26422703449858886 0.21278062865989966 0.06719769172536871
0.5475225452133685 0.3946574502278679 0.32162799366163597
0.33657291449164006 0.21730278996696484 0.12030155048890379
0.35288157733612024 0.20411874477133551 0.1365562369416864
0.32853558784040615 0.22006015697121484 0.11411467909434236
0.35578062230943885 0.17193021714183487 0.0797100044881347
0.29472058401330514 0.24663859848445213 0.08214563126247754
0.3400071433381413 0.20524497096369032 0.0672701405263183
0.2554516813459884 0.19168889519876586 -0.024055019930258936
0.4450752960100033 0.16554688678239415 -0.06035619512084622
0.33221142633527734 0.26844759435161336 0.1414943885509672
0.3932985136208771 0.1677742367402999 0.05969944657897486
0.36763258765128626 0.19707441900149547 0.05396172712133307
0.32256301945098187 0.15027513319165564 -0.06511236732632142
0.29292459960456085 -0.9131623746574178 0.020943825873644073
0.6759596495803919 0.18864042440557682 0.1146338279660597
0.34631941326054516 0.21905817648192283 0.07201239540874838
0.2926058860669798 0.21070843687739682 0.040195348866049585
0.4006566768471487 0.21294918113886752 0.10387572491056574
0.3614481213607377 0.19487368240476144 0.07976426840241402
0.36333271108621545 0.2278153481569234 0.05313409954449355
0.39503779358661006 0.31233773226762196 0.35394025538953144
0.38372062428123854 0.21904960066947865 0.05788433640933022
0.36840204216004224 0.2043216034698645 0.018354275697589628
0.4697198612670377 0.2149207564990121 0.04801960005752903
0.3727127386746929 0.23627110575894505 0.10464218714103879
0.32062053837945825 0.21022103007641135 0.027052186594232808
0.3556331894992013 0.22956753554436204 0.0014817954971846348
0.3271131114263568 0.3111141827767909 0.07503145033780356
0.3745333265119086 0.21164367597066303 0.05708296307921046
0.36433449860459177 0.1937134525490194 0.06422611859537142
0.3184670743965512 0.25069669738394396 0.0017923017620660175
0.38251779486930104 0.2117408025776797 0.08699063619363301
0.2549198250611937 0.22242820776375538 0.02742455543237554
0.432491548056646 0.23710600897932466 0.10830125993686579
0.3725539970804448 0.2306262299753712 0.07845831960928251
0.46938380524466083 0.33390671934722604 -0.12355376190521383
0.3831620710288064 0.22419353626068528 0.06890491327287407
0.40654650902143885 0.2048452264518943 0.05085209485262965
0.4183759618819636 0.2194394103767081 0.09278192257156093
0.37996291621328737 0.2251468065208826 0.06835864448805751
0.37374568189538593 0.23002150606919258 0.08570421215662805
0.4043694570047478 0.21803665585525778 0.06021428627637704
0.37676279018137393 0.22233957173122576 0.1234239939923043
0.29660183332894974 0.21481547497005238 0.06471351947445214
0.34603640820098747 0.22815377966566075 0.06695321829587897
0.35872380528837766 0.21541531771774203 0.08772679018568397
0.3380626258021664 0.18726346768275448 -0.0049897781910033245
0.31205773074950116 0.2106636486170146 0.02714171741487803
0.643618848084202 0.34043609168959676 0.16996529296517338
0.42146422053349397 0.14893452074171876 0.08059383511131557
0.31052288664966454 0.18512201526347383 -0.027816741760815944
0.39426337329351213 0.22656468388879603 0.07167437249103159
0.32841369581090873 0.19091230298749906 0.05952820080001686
0.3762449909162626 0.1860950573999105 0.04219551435528501
0.35818839614235287 0.2234554410789258 0.009890672935114253
0.45757859410109347 0.18355704108303428 -0.06510956942874202
0.35401556442033666 0.2558647494650472 0.029170263824184417
0.36821747701498 0.24096120809031163 0.11401347666293304
0.3239680940475864 0.41394561784503026 0.09517627933770711
0.38076583975033884 0.22070521679469834 0.054851667418276406
0.4072627164616449 0.19496958241978746 0.05303910662250644
0.41962056184881646 0.2287637663341684 0.11756437261379915
0.42948287548139774 0.23813449969001965 0.07211571537112604
0.30923527413624186 0.2008192626294374 0.028855837981495824
0.34717547811260374 0.21231770443792186 0.038133932127124126
0.3319736271150191 0.24299327084364108 0.16365372233454423
0.31717722933547066 0.19505574270337434 0.024441125005324693
0.3003175588980582 0.19504333235946092 -0.049777339621570604
0.40383275716888534 0.291384600318338 0.0737440525410733
0.39089563627405255 0.20772028096919826 -0.02760104494942084
0.3837710307504949 0.23308643468604373 0.07671397779836298
0.3260325107984272 0.16575966672618847 0.11042820885566584
0.36991651361287836 0.2273671165601172 0.08868906514928199
0.40923294092037565 0.22823566917804783 0.07837787626499448
0.3523294505081367 0.2247259020199408 0.01341024628698051
0.33686339144756516 0.21170266693906115 0.05976719094900318
0.34647036447032065 0.18172843819148454 0.0512086719543845
0.36793265865914293 0.2218450706608479 0.06488850162790527
0.40211622865555796 0.2650504632683095 0.14269462098374674
0.40892420348629344 0.23784075663000692 0.08825529689627842
0.32720923957319314 0.2240420544023891 0.036833342762776056
0.41979099857240953 0.1713232599614969 0.20114495703145963
0.38722716727014017 0.22037144399314457 0.08193986117876761
0.3159246089897749 0.22557775344429842 0.07604015273557252
0.380238085976373 0.2898863459185179 0.17854218246452547
0.4326749575282207 0.23923462397900153 0.11854591420483018
0.3438127239814577 0.2154822040661486 0.0964804292731003
0.36085078983282415 0.19652688865248535 -0.069588778023288
0.4011671157611403 0.20855027475161592 0.2279171986495072
0.38116820194873924 0.23687222018008924 0.18382064496242378
0.2911651820644181 0.16893945260474652 0.01287419331839601
0.4297810108031115 0.23207905708417798 0.0971630683907847
0.2971481154166895 0.14300440897301314 0.06196483186963064
0.5259499123554576 0.27147441505057657 0.13649984544296956
0.3582802636484672 0.26294396205091175 0.1655614781955279
0.35547969489198294 0.18464480349348378 0.1272660790644693
0.29230448010696364 0.14873110322112382 0.20011867826985963
0.4168831305840115 0.2498844688773545 0.06740587899942341
0.41014095266575623 0.24410880809692515 0.08094058475299448
0.38175785837819376 0.22659736884813242 0.09456435305490629
0.4246148027900176 0.25060216834262405 0.12377626414246379
0.3435356783971599 0.21715701127521925 0.0002444049285657002
0.3481994745232555 0.21809205694867728 0.08028183434272762
0.48782423204740155 0.1915548525960844 0.12454104813133426
0.3681785534197246 0.21785223806408283 0.06926214627053184
0.3490032604219948 0.21264011977976338 0.08645717741725889
0.29619451448640177 0.2026844934742229 -0.04664550791827082
0.3959834320016853 0.25710176436501797 0.1090014244345241
0.38064448888391667 0.22451154540763696 0.16686629576568635
0.5414260561489357 0.20065649222757997 0.08948086544472744
0.4954023015682196 0.22373318933898645 -0.03613908187851678
0.34162333662658284 0.23085096974230623 0.07317697346320529
0.39261985716166237 0.23118570768187396 0.06136948573612244
0.41380995421346256 0.2206500648924674 -0.05856891227357153
0.4120314329843495 0.2065477552812922 0.05231536637103318
0.36385153385651847 0.22061008574931407 0.04817719458262104
0.4983504493951756 0.28042091457461993 0.18885007662122177
0.37169665373991734 0.18792914053385346 -0.006253460996902049
0.37204245444996786 0.18465862532698907 0.09739844970208367
0.3434651536271076 0.22906879340501973 0.11929301947253634
0.3462454678955993 0.20651877495586746 -0.006213435551245539
0.35821475329541386 0.21291418394807238 0.0439577736952117
0.3595524199857749 0.21571921328640542 0.03655944319092441
0.26240880803301536 0.4461216931910883 -0.016382164863912863
0.22721313324656478 0.2257206627333801 0.11086907496606102
0.3921081046952679 0.2345384854211261 0.12642206250137633
0.43392560794549695 0.2369936412402467 0.10083370024149474
1.1356786666384266 -0.18691743907805858 -0.0008993377228421195
0.3593615275378568 0.20315523202543773 0.07353300645112881
0.4187083842122945 0.23806052441625525 0.13197092962870727
0.39732826459874104 0.2606954349073334 0.00038297353530936107
0.34537854133810697 0.19311931754094758 0.029843562433285342
0.32267660506363427 0.2141083175604308 0.09643571341388224
0.4006655776299226 0.2369877775498992 0.13311180838846326
0.37414899031466575 0.2149075648379437 0.11482102858346366
0.3232305766661625 0.2247068671791368 0.08388003207473105
0.3294813770951066 0.2581035711530717 -6.52256152022801e-06
0.2514323714602824 0.20869500383656714 -0.04750198930399563
0.3121641268567572 0.18325253552825416 0.17700988513139748
0.3722631446904643 0.1981212256913807 0.08141953321540996
0.3890789119250826 0.22298496280093616 0.07761238499945478
0.3624206708257418 0.23779499144117722 0.11029067603598719
0.45027939674093886 0.08815990682560937 -0.019390254653146144
0.34631010143658614 1.1252609317258049 0.28590187133769973
0.2520330823329999 0.13415587591731537 -0.12986087728612006
0.37998585723664746 0.20243865075086376 0.08856351471274593
0.4202573838306449 0.2249265553221278 0.10609456945209672
