# .PCD v0.7 - Point Cloud Data file format
VERSION .7
FIELDS x y z
SIZE 4 4 4 
TYPE F F F 
COUNT 1 1 1 
WIDTH 807
HEIGHT 1 
VIEWPOINT 0 0 0 1 0 0 0 
POINTS 807
DATA ascii 
0.39044556932736896 0.19982011454605697 0.08852457881042142
0.4165760487952923 0.3186016724159799 0.45356377071675524
0.3454575454606754 0.22805425810355473 0.007215929527177423
0.38862722398511096 0.2475391710647159 0.07179494116357432
0.39993762655612386 0.23710431320077419 0.15615346590078616
0.37693796312134964 0.18204373405498586 0.04113552767958595
0.440574744562241 0.2506630908326315 0.09969369988074561
0.3676756378575732 0.16677099059918987 0.08219540241636025
0.40572202729129003 0.20883213490122898 0.05736722917212944
0.4628200882303588 0.18047214069866868 0.0980328797848955
0.3012326911992034 0.3077161677805975 -0.11918150786021897
0.3615444980598568 0.19458056789224543 0.026787443585163828
0.34169061586513294 0.21609943692692468 0.08250515239978995
0.27422882451948283 0.2238622170654736 0.07093052446887782
0.27649208795605773 0.17756862786066563 -0.015664947934538986
0.3170213557713595 0.24164937266070297 -0.040975484925738215
0.340768131173121 0.2142719009568026 0.09263177411884271
0.39720144933659185 0.22292675612862922 0.12336075005904945
0.3998652480082967 0.2104098426215728 0.10505944237584686
0.2800912391928989 0.24669723222484663 0.07786856318782043
0.3794499477372426 0.23288731163998477 0.08862274218107302
0.33108923108255794 0.2181173002622927 0.04413194256198949
0.08792730460950793 0.04222130224286502 0.039207093535438275
0.28025550149115475 0.2753800348843072 0.02733648339645356
0.1635023777532183 0.1719012149407888 -0.18686475168885863
0.3409408528969209 0.20651834730682594 0.05716180088188594
0.3890746903891227 0.22652543764186817 0.10094205754285213
0.3644005047399048 0.22494223599645125 0.0601373171479338
0.37491321106779196 0.20777816244446967 0.1259700417932379
0.3981323604898819 0.23426412872170488 0.06176574130446966
0.3487821053954292 0.2342228038859986 0.07614997369994114
0.23730086591768895 0.20148514282709584 0.04383052409534116
0.3851670498450943 0.23833634197856668 0.10814837212652151
0.3370687921433557 0.18720742445938754 0.04911686393424475
0.31083011597934274 0.19445744999944736 -0.09059834418741275
0.33883821422639926 0.2157536878771964 0.05594106041382929
0.46788117808654306 0.22174177724615163 0.05806383611101751
0.3405465351998771 0.21386444392149428 0.11200203299978284
0.4123999542066201 0.23153665573133253 0.09707212164155976
0.3542215283427481 0.22770810876576775 0.05145176064102941
0.41528162139603353 0.17780089936270826 0.06585565308279229
0.28446043516223085 0.218516162568676 0.02582072813251557
0.42833281374868193 0.18339973348820138 0.014360055482214307
0.4200419318153621 0.21844077523398653 0.11944425136428549
0.3782550571068981 0.21643432644199834 0.05613844189613815
0.34816845798850693 0.25655654856888077 0.08767743390961868
0.39359027182408113 0.2336075234927648 0.05828967593024004
0.41137001568893083 0.22778539452491486 0.11966954196971358
0.40518034734654407 0.2186353687683038 0.0947838454861909
0.3565706709563301 0.20958255833934913 0.08028206423557549
0.3721209572022701 0.2110829011220403 0.02131545382040656
0.5667901167278728 0.2820830584069256 0.14082583627620693
0.381905374207804 0.2222161206468911 0.11101571915054365
0.005666997651729844 -0.07655199325807871 -0.2048953280574608
0.35575766495341554 0.20444565962900185 0.0848020909217837
0.3586946056795455 0.19174008378519147 0.036408167589996765
0.19476506362502732 0.14540390650829238 -0.06830662635653084
0.31984243174267135 0.21962616378623068 0.10967063862698012
0.362256124755703 0.20543178897392522 0.07974932942531154
0.30516581408211607 0.20026124810158308 0.02834045501339233
0.3074345337807074 0.18518973342655443 0.04487170521244366
0.3734203249933046 0.21363285068451887 0.08303554876889052
0.47619508755778384 0.35779467450787195 0.3227634871188627
0.36379564672915876 0.21895507617537646 0.07895770741001229
0.35017143544463636 0.19521194289680466 0.04409671358688172
0.2509016510033888 0.19643925623128666 0.04145982159415951
0.3456982519749374 0.21211831245906865 -0.032133794116120384
0.3704698210548827 0.21895496680858173 0.07960806308783219
0.3269022418677423 0.2226327405159907 0.03911508727190949
0.4336711428655917 0.24678523236170236 0.1531550939379258
0.37680534299693136 0.22176732880021177 0.17796832386335382
0.319721268623951 0.19837000171426666 -0.0027735937091790674
0.36990640380106754 0.2115341782531459 0.023231630128293546
0.3129527974450923 0.24553963280092717 0.04629554541008929
0.394360219446213 0.3345859928047048 0.17787798698336132
0.3990175816039425 0.24567283656261907 0.07721178421765273
0.5911054129730928 1.3979795757526432 0.25941773816221314
0.34877142896394275 0.21891321040939715 0.07282263145107493
0.45624026942965656 0.2398519775397716 0.09310237706358748
0.37155938874610683 0.24967891795992614 0.19627085099116925
0.37886792931780633 0.24507316314654304 0.11738791651592351
0.4436418233080701 0.2670699839747215 0.10941602029215858
0.3775436736758593 0.23726943504050269 0.10159138636086595
0.3720612463308868 0.17039486222427058 0.06909951439746465
0.36127163922225236 0.19007604026573688 0.033047059061033224
0.34822690614916496 0.22565371787248978 0.07472692738953413
0.36904867603337266 0.22880316828630498 0.08887335940057994
1.5374046793993728 0.5843584841838663 0.1902929704548626
0.3439402485374643 0.2571977923888369 -0.019960356182195937
0.36837088359573045 0.16108149605197752 -0.009303882631982674
0.37487156376957387 0.2230701691200352 0.11646952409395794
0.4978723727297165 0.25737037917467376 0.15480293035516013
0.4554977843045549 0.13632982155385776 0.053720515788455714
0.38975575622281156 0.20551697934334356 0.0964647161105745
0.28575383630533224 0.24886569002080705 0.03678453873652643
0.35280308100914226 0.18718695751765324 0.04082523799814908
0.4663665901236982 0.22320582720769266 0.01816607534998127
0.3777274790312646 0.20035494607620308 0.07566782242690806
0.5650288821974812 0.0441873762725038 -0.10731447456632282
0.24851635700585462 0.23003614225245883 0.09470237895297373
0.33905196573189755 0.1802222484895708 0.048082253962334676
0.44081477817124437 0.2703182620914504 0.12374067385735543
0.45080320807440444 0.24610287752238946 0.14808319332939845
0.4790658956784739 0.2151164559070935 -0.032231069653590794
0.25543829475260793 0.2111068122363804 0.12193820067267325
0.4565354286789045 0.23903616102771252 0.0791343966392759
0.35004397858881475 0.2998104985184682 0.270710922395466
0.43588232036361774 0.17198330167266818 0.07559408235428577
0.39331401240431774 0.23664721977888803 0.07649401880560447
0.4624694627021029 0.25812516002933705 0.2917982580969465
0.3278153941923847 0.12591433004297414 0.00694444280914297
0.28537407405664794 0.17003992210334218 -0.048109103645742834
0.3080185636308954 0.2783582804578373 0.3189955397298263
0.3783555726372754 0.21522666938233215 0.08500106352325076
0.24981003978763283 0.21844772452496386 0.044149195162290766
0.36283776616059527 0.222665358176954 0.1708511284013099
0.2986155513248434 0.2702292727039719 -0.014051405370537395
0.36736958841385103 0.2146609426626469 0.06542015638025589
0.39829006897483055 0.23696557620061753 0.09906044890411181
0.39812020565571515 0.23111083190680404 0.1188150072051144
0.35660512955014667 0.2225580677947363 0.0448323940137243
0.40669317341252054 0.1836712045303699 0.08314553729087493
0.3288943377598059 0.21501118100283634 0.01122073104716037
0.348417861398417 0.12464057756275793 -0.07868294965177824
0.44988626230826867 0.1929735848675307 0.07410091996530355
0.33514930698896706 0.1998599315726466 0.023325319911066345
0.3056309763614564 0.18611209843595589 0.04169144972334493
0.48094299155995657 0.3039034660353508 0.050103012084292686
0.42162945579539723 0.23575550751962737 0.045509689129133335
0.3506979526898135 0.21046465278249116 0.06673306849486949
0.40653344550975135 0.2095090106826234 -0.05574917415620462
0.38889186657078767 0.21853501021135457 0.12131603965428894
0.3029081171348338 0.18429588627941484 0.05334174522877788
0.315916326234742 0.19378449390188734 0.0842803978770803
0.44502119013097285 -0.12260758698363361 -0.18833606976966166
0.2409233743252912 0.1197350754944182 -0.16990645024594642
0.38087077388108526 0.23855164478150925 0.07179183342300632
0.3215566920249273 0.22106846411585934 0.15167645923582995
0.4016349505568826 0.21266101568136264 0.050899071188808875
0.34497793769823204 0.2223494158398296 0.0638237583962109
0.5044193860584869 0.22616537993654617 0.0056993262780622445
0.3580216906429712 0.20904764696015832 0.08608370070072624
0.42514599398745645 0.2498981820610311 0.13911781880817387
0.38431725297496655 0.25830979293493783 0.09467575726361588
0.46130659602076207 0.2927549509089289 0.07916036530566828
0.462829004893905 0.26757802723976454 0.09277087161513009
0.23328647360406762 0.3183338913883631 0.12198627276009688
0.3886923644004696 0.24775934950650935 0.1421131039557082
0.4289240879732432 0.21879447393294527 0.07285850042421771
0.5909830429575607 0.25383901074044957 0.11000792498643364
0.3636178271631536 0.21597314601088158 0.07252532861730288
0.19801838065242805 0.1448927913442617 -0.06304979338041505
0.33008931350005355 0.23272552025642312 0.03127472885270777
0.32643359760274393 0.2503894690159285 0.09318818786606187
0.2158750477384359 0.20764360653782887 0.19829686725228157
0.3665236763072244 0.23554318649874517 0.09821791169281369
0.39853600183789695 0.2398577929205601 0.043620200563083245
0.3907435156051662 0.2436817642133775 0.06035796304318808
0.36143801007779075 0.21822128289008447 0.040169469676300196
0.3138841690305867 0.32821957228986776 -0.05465039073781952
0.23110867344021813 0.15001066808358132 0.1144353775004987
0.4383806473461789 0.1838130092481265 0.09386862143276176
0.3804108432574935 0.21155935685681015 0.06799068615512738
0.34295037722419863 0.21948897297639292 0.03719021109317566
0.3740078835371321 0.22281609077440123 0.07851999304304513
0.4088373310715099 0.16772647936195995 0.1470301567279364
0.5912302703249566 0.29621989755216305 0.13954359594706034
0.39239527231964644 0.22821532316856974 0.0753216982082705
0.4154320262788218 0.22681294033266397 -0.04368904212981306
0.3644033655826746 0.22810008123639136 0.17673492709623417
0.44945441393744545 0.22246788767461112 0.11983298087645267
0.4967941827433151 0.19153578445019548 -0.03017085564559352
0.24601798603154634 0.46101518296777044 -0.3324359436515465
0.36895351600412596 0.20851248250502863 0.08486800670411299
0.443709885474334 0.21956386211766699 0.11330230401225094
0.21264337046389414 0.2527999570425834 0.09481999178572664
0.19122664966350555 0.1985173664385229 -0.10590857353795968
0.48021361684942576 0.22670738291868986 0.15452571911606583
0.4581443139289263 0.24737590986882196 0.17748238442524666
0.20029956651680436 0.13961453916687105 0.07534519720059052
0.3060241733590203 0.23277690578689203 0.09720110669732662
0.3620635438445561 0.2151415427653518 0.049650809983432964
0.38002955450450315 0.21409562786985248 0.08069166300629149
0.3435638026135166 0.20498801623429586 0.06120535488435053
0.22557422067679056 0.19082126066999194 0.08274169576928614
0.25406562151916035 0.20572622016015885 0.04280718959520868
0.23102853001557833 0.1799716145899879 0.010918001400796129
0.2605413078173484 0.26408497468530356 0.1620433030535935
0.42612040842435306 0.22353354830785577 0.06523453239164212
0.3237703691349765 0.18575620446533492 -0.002300110876603867
0.5116420281763112 0.18922039674421853 0.0446379419841918
0.42202624017497214 0.2234067819258172 0.08688397865829245
0.3830749643718434 0.20480664920815173 -0.002841650875694768
0.38269857260297613 0.20967791229799104 0.06866146037752685
0.5296910198833586 0.14216259134738607 0.311140572231551
0.3664018274334069 0.20795259962011414 0.055404333242762505
0.2552381115168032 0.23729189066303036 0.07497091761459274
0.4927539212159644 0.7611662438686722 0.814237079121412
0.33643138965035746 0.1796842275406334 0.14295859540916922
0.3720847013394746 0.23890624603359356 0.07513010736018089
0.3648064955861514 0.21473395865990597 0.07812701111535603
0.35243897213970854 0.1876612956993 0.03989262254529535
0.3694438336750352 0.24413961570870413 0.12616843312329706
0.4002120682710597 0.21496433109305713 0.05556436802407916
0.3829057638329232 0.21710694356205806 0.05880656770592907
0.4281986495449104 0.17546792208983675 0.013317730619121448
0.4553115259903677 0.23469660904135026 0.05124242462233042
2.4986235583695873 -0.23883069626813835 1.3381427050393455
0.12278459541086306 0.2127640244593465 0.22070056384166037
0.34150146357158917 0.19752231812518062 0.025080403144329466
0.3944430408563733 0.22399836601489653 -0.03799191754956155
0.33768443644791546 0.2035547624926437 -0.05417202500954943
0.34351660508386317 0.1782739144237837 0.04929112560475346
0.41189335320103737 0.19710839536612923 0.04262352639577216
0.40286076372530033 0.2183420956480404 0.14856082038518537
0.32265135382665733 0.20399350282629314 0.07160184140613524
0.4016825137184128 0.25183425476404864 0.06736267178226285
0.3430706270724073 0.20929278576110733 0.05930192914557608
0.7745097671088672 0.44794659236654866 -0.04797654113791339
0.32764918718851277 0.22261881625274782 0.13776554358584292
0.45833440154851246 0.24328717199512084 0.1291819660455218
0.3303010354598399 0.15776329186689964 -0.06254650647304061
-0.036115966973682134 -0.4035599559679923 0.3187634047197889
0.35461623722895297 0.20568329330228607 0.07218034015011199
0.38850797656725433 0.22677191760141113 0.1309983209540917
0.36934533017304716 0.19964091987358756 0.05213508971878866
0.44725618216274654 0.23451930170810442 0.10747514088794219
0.24648016460322708 0.16906315166828279 0.02893059898154604
0.4018461799409465 0.26466133397137526 0.08998287395490934
0.3111146310575066 0.2188377293546182 0.0044042628274496565
0.44474676520050593 0.29278021969990675 0.17858841384114044
0.44224373103448045 0.12478478043112773 -0.02629119212744513
0.36526865434669276 0.22585835941036692 0.1033303177728726
0.4685760557159284 0.19538120464329722 0.04884670467274077
0.36420520267461143 0.200645797665004 -0.012818505836207805
0.3452258019483878 0.24709214645440625 0.16538130406934215
0.4055605797234989 0.21742859547262583 0.12492947539240618
0.37875837484678243 0.21989508733014418 0.07106597910706114
0.301998982985765 0.17754282603490879 -0.1269254424007613
0.334954218542606 0.225923674797599 0.04264522863654463
0.3232482844549196 0.21820472896786214 0.07497024052261736
0.3832199048304119 0.1570208968777962 -0.08944283776995121
0.3193515982983399 0.1785604314709417 0.037288556465554734
0.3690326823457326 0.20457578157729017 0.05092481634690671
0.4106981679024102 0.18400093659633399 0.08562968298562623
0.30458549655607214 0.2174392698891694 0.16574938100214354
0.34329660344286594 0.23153099118565024 0.11714375925004106
0.29295015997109886 0.13755542113437969 0.05177342998167944
0.3863272547721266 0.24080261551473825 0.07512282695716976
0.3286663106266019 0.21334400085197558 0.048855227658165745
0.3000701654853941 0.21713831643720027 0.11091730448910653
0.36806016935528874 0.21829606942210944 0.07769644607101611
0.37361385513951006 0.23147575460447456 0.1132381107179583
0.3644202571706643 0.2071434130583043 0.037894794199985427
0.3593890490137994 0.2354866619166387 0.09448602014529683
0.3999646667850669 0.2005158632361912 0.03306484378157393
0.39157386361624447 0.2503126288637674 0.20541581007546483
0.35770673554529253 0.25393720132618114 0.1257700674902651
0.40787340371028336 0.22514326411722152 0.09820678238736491
-0.09046962255808921 0.23354226485830054 -0.5000756029712932
0.40926017799534975 0.21686624960730683 0.08554799310680039
0.5449586207782176 1.3882115493754554 0.29672763038973926
0.3902123490159113 0.21063993587642926 0.0713466832106775
0.41274230127584133 0.2107950421067244 0.05945212899132457
0.38287867332465453 0.2214501100187931 0.06299951622688127
0.3516908080693355 0.21743299963534923 0.1078562820904807
0.3942102508073617 0.25947548540281673 0.035466790243162905
0.3553779514432165 0.24254689641242067 0.15504731008854833
0.9297996008272094 -0.9456838100934135 0.32429352885685603
0.3890964386079361 0.21865129949034667 0.064151160053882
0.2553208520265571 0.20972679147106987 0.08938493062262864
0.38928429643748075 0.2907373305979206 0.11831039071540772
0.3644238936549584 0.21065667247916053 0.07484451463579944
0.393980889943947 0.15281378937692125 0.014550344005101579
0.21196928613218802 0.19599855142799072 0.08242755203815477
0.39256184710284003 0.1885728054563458 0.061303504139715415
0.40092395219510024 0.24456253191598876 0.17240451588108385
0.28666237908825565 0.11835283124699458 -0.11623257047588709
0.548682325785137 0.1535406304276563 0.2195106638801576
0.36685412570398057 0.22299696309536898 0.13869492505591552
0.5136594502547496 0.27639670485180545 0.19354648017093723
0.4023426514294499 0.17870660864193155 -0.09477682146675193
0.29925709460923144 0.2090447333288381 0.07762982514719852
0.36273685946490275 0.19617736424882537 0.1344524208757889
0.32350360223196617 0.23740850465554786 0.0767458335944724
0.3737093185331162 0.25264571304938954 0.03288823811487873
0.2899929645026873 0.2361676367172123 0.029950824352994232
0.4073632216913978 0.2533417790561856 0.1027541410990267
0.31706566147769877 0.23577135178946662 0.07406339359005187
0.3897075593203283 0.2630444903967941 0.15489655934928237
0.35016659846459675 0.18016777768268355 0.06061860379813311
0.41688979796055037 0.18608615360584224 0.058677106414037894
0.5977393844704864 0.1571198718339133 0.11337967338951671
0.37579503996060737 0.20071938936041533 0.045078103833503747
0.35133240314002023 0.308974188074302 0.07796508004545899
0.3066744652123532 0.1882951198560363 0.1133855472568257
0.31542568804852067 0.1277916031979771 -0.010848592829461268
0.379124156010306 0.22100632211225957 0.056209664224056155
0.23263493633692178 0.3511854134865757 -0.15836358510237858
0.3352453951733878 0.18166236129653157 0.08733973148360974
0.3834385304833461 0.2081785429163574 0.0316893914551315
0.4217567286269741 0.259616679214389 0.10126386578511415
0.5044933046107474 0.13096505801432556 0.1217084193546043
0.33666646261481503 0.21624324362886682 -0.04653704657062008
0.07899764994198222 0.3175447836093497 0.07690922420407276
0.3215843419130522 0.24634639015249604 0.12432895287170709
0.4055681575800065 0.20657276545543368 0.028995530689030602
0.2680222112295354 0.2265193985899998 0.011696730507736675
0.3693607992930197 0.21504493993430174 0.1253525115103571
0.26134448030390445 0.19881655972552892 -0.0350901363074172
0.384898733053177 0.2199240586953124 0.056824427595017823
0.32022382701259744 0.18942038613089096 0.028566306521810247
0.3758927595583259 0.2398316248832657 0.09256095599772607
0.2996720658728407 0.24887596192577632 -0.06365765649556465
0.21578012372711441 0.18078362455494812 -0.0032193494700152314
0.37663015610220896 0.22520288167871172 0.15086624634118095
0.4390473132812076 0.285314871584319 0.04582976447008491
0.4556231307919063 0.19952518143651332 0.006337291679656687
0.3649875461135821 0.2126601048983474 0.07334967058739039
0.318124754615539 0.2263312753683806 0.09640512271374746
0.3871650690659294 0.22954134278673166 0.03266837877725948
0.30473783920959363 0.21433024271246381 0.06528675783135895
0.3398921667526338 0.22231830886609316 0.3857588977688806
0.3895623516119713 0.21181422678498052 0.14878466479360952
0.4025863139797963 0.22458668100080104 0.01611405308719327
0.24466193861746888 0.32675002783454943 0.14719328389301722
0.2957118297687771 0.20268438874713013 0.03459731130833177
0.3449080423164901 0.22430873965244302 0.08908426459242946
0.6406175187778445 0.3025043381174015 0.04822464850730057
0.44907665539366803 0.27954792145138185 0.0966117506909967
0.3404910591115424 0.2231579580490859 -0.0286804482180969
0.30586022808262214 0.20805708506584608 0.018153377212897226
0.2945629900751925 0.2227268000885374 0.022661749936531805
0.3965764741196267 0.27908202520274017 0.14834579630544908
0.303780877957621 0.25816686369527986 0.0005194943979347499
0.4082956014097192 0.2629594917238478 0.15781201506203502
0.3926416134807198 0.30659022961667404 -0.062018915924497264
0.354658986449806 0.2316495917404353 0.12737637737350838
0.33112934657984283 0.23977836420471021 0.115489418136562
0.3456665000625492 0.2019739000549805 0.07626632444217307
0.5024393383190784 0.22291259527443685 0.12842527310293406
0.4553315198928658 0.21899140373334092 0.04966129268382247
0.3256289045206131 0.23478382099830242 0.026244866524791632
0.35891811691766407 0.1752590090783599 0.03639533816273399
0.37644450347090697 0.23170601831935755 0.0796330894828543
0.40010105629106363 0.21631107480169476 0.0758624762561908
0.4139134683353092 0.20739623746682412 0.05795104990303912
0.2892357463279893 0.23459986240374064 0.08992996523559782
0.35265600112140305 0.17562429806190494 -0.031100005046369006
0.37856631480356384 0.15926106717546418 0.12672686612484085
0.43693904859540567 0.16157999533800194 0.25378047584317187
0.34998053206217605 0.19207402331326762 0.06979655261895346
0.30786925348581917 0.18129664139968327 0.07540786646589481
0.3745418467993744 0.22049324247660707 0.10158720603681104
0.3812130526976176 0.19833553060325926 0.010795615796382663
0.3565782072133601 0.216392160714733 0.06651389951016995
0.38224184748477796 0.22742438408590715 0.07074825649141303
0.44930763487423064 0.16817125730200644 0.1191651433764207
0.32454197863097534 0.22894356348697897 0.05603469826807839
0.39089895931033425 0.33743206294562356 0.2596461606020739
0.3457647376496311 0.2043830550784662 0.021881734424709975
0.3293962993079447 0.2151842615323858 0.02030084723287473
0.39033654688412867 0.21667886105615253 0.03347325334178208
0.3876297152390862 0.21904648230919577 0.08779566158807484
0.28548742035587793 0.21143818612692655 0.08984534357520602
0.32377567088246906 0.1824706846886528 -0.007139017310947793
0.3159235746222606 0.19268985575907038 0.0513214354835867
0.31959186281035556 0.196411829923278 0.08923452155308098
0.4392295526516534 0.23851618840699018 0.1432263991090963
0.37259906720717595 0.18504051935400412 0.05016681405982126
0.3736207568194345 0.22565414784642712 0.10966466794619123
0.3649428365939258 0.16393698829867276 0.008578116588154217
0.43068046460626874 0.2366218665663098 0.05593087042672096
0.34298047552687194 0.2057793934502712 0.06071962916053053
0.4209376616377085 0.2003088147403389 0.03434923011913327
0.3434908023987333 0.18765561406459597 0.0289675303877317
0.3706273551243555 0.16704863580017104 0.03128613727776042
0.3955062328682857 0.22494877755792686 0.08159542945570308
0.4619876327307253 0.32069943561731407 0.12991693819199668
0.3231870496019269 0.1924914361277814 0.02513657625648591
0.39130912919108596 0.22314688424208384 0.1106447258895571
0.42493217411603723 0.2498304385662209 0.23473746206927615
0.20459143343305186 0.14801735337374566 0.0010581743723605541
0.2869209549404559 0.18795271284314197 -0.04668541124758008
0.4173058772958598 0.20922481885743593 0.05078997248040196
0.40593947135590724 0.24637107561221683 0.06713143589328752
0.5412615215709877 0.17365293494754042 -0.04498320367360975
0.2491757413899478 0.19108234115172706 0.017778788328342898
0.35050509414742237 0.21781993805042532 0.056933857355303985
0.39987985887216837 0.21653905158137832 0.11335599485482817
0.3050667033548109 0.19301532150572598 0.10663892779999173
0.32430080837941944 0.15594964626008334 0.18919391733390967
0.35237737800120783 0.18834880292519074 0.07811957764523925
0.37564746184189346 0.20695868241611493 0.11279501756476407
0.39300896063294033 0.20229287062839774 0.1791503533517016
0.3127982237446929 0.25851236930910204 0.09583575146703538
0.38473630566289785 0.19734781102114596 0.04293031674083636
0.3824153457227766 0.20527241027019727 0.07607627454854082
0.3813877980932716 0.2242374361996724 0.07032271645815058
0.34304168568036175 0.20694828983654645 -0.007482408052155165
0.2913950691289102 0.24271359835447015 0.037417605126194076
0.3751289764630741 0.17698273738692194 0.05067592501107754
0.3627138323770964 0.20377171543051986 0.045575493401315725
0.9115082829907237 -0.017773660075732778 0.11803278026539488
0.3671147998967115 0.2627068560323096 0.08658278992768942
0.4003590010771916 0.16468187291984293 0.038482629597211826
0.35206043864127423 0.23901221917586213 0.06347594801746936
0.4453236246517207 0.21342257256536357 -0.045135301694728014
0.37997984843741506 0.23698352556525037 0.1214610568839305
0.35956280277332553 0.18415070606752693 0.060081973297940294
0.2796352064212897 0.20906447695686836 -0.05888079148292036
0.3977866876546017 0.23259253770693533 0.08909739621425672
0.3458634399275553 0.23401356355276448 0.09850243165462302
0.3176144109471295 0.20283353680218852 -0.003332349799833878
0.34218380122140957 0.19689611855022804 0.03975374744842952
0.36114197150210714 0.23645662973285653 0.08958732280471793
0.1845230577746264 0.14083033096179065 0.012293826392280494
0.39641455693468686 0.20763011228218886 0.09740426571663363
0.28136745069309654 0.18319134939615367 0.1223654267334382
0.29394808526595284 0.2535734248452286 0.43316853567984026
0.21677403462609846 0.20269202015711585 0.054261959942039084
0.4108867848051432 0.23709266934992002 0.05932559462978304
0.47368161546023657 0.19683062540438812 -0.0024097495784758394
0.38888730295727214 0.21706280272358924 0.061006309806316494
0.3570214378882497 0.17903558296316646 -0.00865581392582726
0.315964992959465 0.19202843946555959 0.015172288725096905
0.30805596384301737 0.17552195275351323 -0.2195111478924474
0.2760991212311126 0.1142650714554776 0.2315932828032743
0.31499589153359864 0.21683281394166443 0.04278383086219151
0.3791145217622329 0.2691343642913182 0.13873787943089155
0.17854405712890298 -0.043954052013504 0.09536210500954212
0.3349735339266431 0.22309827415821815 0.10750824363739753
0.3376175757928195 0.16455082699775403 -0.00451790981259137
0.3282170232995867 0.18053972113781924 0.16017550225204502
0.37442762451868816 0.23637778494007478 0.095553783426368
0.31428951180237163 0.1864612002520687 0.07602275262146918
0.2989922026731904 0.2050090057467031 -0.01794881975598628
0.3615465879381077 0.23439199221357399 0.11753653148531384
-0.01992486304821739 -0.27189910827959807 -0.2076755534917254
0.3451622996828405 0.24303368813143322 0.0666159615853843
0.2898189846499264 0.17027828555740143 -0.07017955908152373
0.3250898638410149 0.21664560671193556 0.1187552658362847
0.35298570676994245 0.25422105911098924 0.10879378153148878
0.37627902290715554 0.21614485378327686 0.06944563631000733
0.32619542463513085 0.20151006455022014 0.022979591558680568
0.40801926842742375 0.2393665090079935 0.14985851111725879
0.39033176774421463 0.2208635143532831 0.06727564362327598
0.31004579600484306 0.17853090643527025 -0.019043118828150796
0.3744320758135302 0.21961769342669868 0.07999932841283908
0.1513624025224658 0.2679369978291817 0.16206424974501488
0.32591943898539455 0.24691562892098773 0.13197673702939028
0.3721365013213642 0.23199786545978895 0.06346276656148575
0.3892884469826754 0.2249612405461079 0.0747106645280553
0.5267016375657079 0.1820361318349768 0.08994934507276753
0.45711495020078985 0.12407041047497103 -0.00409545642267517
0.3816528919832649 0.2061113873637339 0.09660382020329905
0.32825655175781776 0.1986933769010193 0.04346940227233631
0.3456055469328021 0.23244322050723554 0.0008707764207542823
0.3902021069801833 0.20119631744404387 0.07022801472412254
0.5709853672884719 0.26378128420417113 0.2622966911312261
0.4082979375083937 0.2414512689167907 0.056572147825264096
0.3716289138983768 0.23553277547884477 0.06934570246818339
0.41242356325986407 0.24120845788186784 0.08462098426835496
0.3330775545244933 0.18921836768257094 -0.03242413836565561
0.3845944537771402 0.2160926241397334 0.107092289847742
0.37241356799898995 0.21927349587545564 0.0622670345547931
0.4038464876954748 0.22171832159509108 -0.032954622727984884
0.3900168366886305 0.22007627401217178 0.09896103802662992
0.35787092158756195 0.23344213098900468 0.09219372917218038
0.4096396685702359 0.1639187313842001 0.09441118812452487
0.3843637760784304 0.21357957593730248 0.013954728520971571
0.3107939738620473 0.1773833316967739 0.015665553060230764
0.4058625605827473 0.24428690736007752 0.045927819733421416
0.3448137617979228 0.21062058693019026 0.0881734027404093
0.41417741614495185 0.1922862278011621 0.041912787320171674
0.37823526350391035 0.22669081329519258 0.02743946415678522
0.36101585514579426 0.21255681449144959 0.07090887208376273
0.3600008335904903 0.23086861765898448 0.04740710531878278
0.37297142358798396 0.20738821501927873 0.1258835702311103
0.7504949667668228 0.18711316493667596 0.5001768962745246
0.360988486196419 0.2419305304636481 0.0836297408565656
0.4953239987125073 0.21899452854168544 0.06297367004884791
0.3785922144337235 0.21143551914508407 0.07724290394673972
0.38915728972564523 0.22519302983710077 0.07240972245439536
0.4457491354525871 0.16206975712233884 0.14496290835856485
0.39121475427327823 0.19051691670600235 0.07657553525041294
0.4317961616109045 0.20782968096304444 0.044830169172598744
0.4054001847507891 0.20125528883562538 -0.010346910171875834
0.39574879602839985 0.2452409889386047 0.09957322035840832
0.3436512966507621 0.19254345093162328 -0.0371619911392429
0.30341511749281835 0.23319697954116236 0.08602819863583022
0.27555340700077124 0.19299503907141968 0.0494948408954059
0.3161565347447777 0.08096879355164788 -0.11966819137830953
0.3589326508483026 0.1973662142897865 0.10641570464557049
0.3639174909970393 0.2336267322110075 0.06801386953904398
0.2638535390159973 0.24040681315888435 0.09551155154312596
0.5076738788808228 0.2890118659292824 0.11081629647608793
0.2337967976048958 0.051204982310281366 -0.10270355651866225
0.3819581892023223 0.23230278995174558 0.0892041989651915
0.3391347991727969 0.256564618045644 0.0995289192006652
0.12989857137662852 0.23373605887536542 0.006460727004196087
0.34094324078006366 0.2257474407699931 0.06651487001379053
0.3287560025888183 0.22111340371480992 0.08543878593712861
0.4671467587943994 0.20898190236523817 0.041912631899080566
0.37787252434677043 0.1779809978384037 0.010702439055307877
0.38239017561534183 0.18370835927592566 0.026368527615886705
0.40849120587272125 0.22098058042566038 0.1069712945128174
0.48232442517078766 0.1651725582169945 0.026802201131843617
0.34428188988684383 0.23703958749149479 0.06953180684649851
0.3481038060199495 0.2114329519941407 0.025313973548620083
0.351423566250503 0.2165191515353797 0.15465712257822872
0.3125229278809627 0.2542764669106816 0.06236501253016513
0.29694643730280745 0.21584891636237558 0.08498511373073825
0.3900227124800182 0.3211449347266182 0.0016244955588717858
0.3633916659688907 0.21670256629624873 0.0010037080575813206
0.4168999203238002 0.21500348562878457 0.09721323467729803
0.34991979264349027 0.15408722649644346 0.06434516357722941
0.3005852268808269 0.2085172845227703 0.11401429680360309
0.32256807401448384 0.21948932117558684 0.05587558753211397
0.37379372441426995 0.22005417711238806 0.0685815788089883
0.36732516443072427 0.23504939720993434 0.16437374405028038
0.3628170231873469 0.1883852189158972 0.02157394283567271
0.3530280986460923 0.19972497875349404 -0.026592604043614188
0.42557430201941315 0.24678512913673956 0.08003284103611463
0.3407000060732912 0.20193681611124248 0.07474830656953202
0.3934803397916795 0.14515396520771162 0.12093261285131973
0.30206670361529575 0.21356576479942646 0.042867775741029845
0.36941627402086397 0.25752569027048366 0.17334650788879458
0.2626303728182364 0.2023214746692048 0.050016031701133556
0.33760071786778667 0.19620053582738706 0.03868669690379534
0.37280528301685933 0.19366206693695176 0.02780105467793703
0.3483157086202908 0.18282581396792352 -0.012654740637813688
0.46043910483138006 0.22337531245118214 0.05955434933923698
0.36988765948674995 0.22736394506847546 0.060454917486524096
0.3630825755475371 0.21470802068277806 0.058753550614852657
0.3859955943522664 0.19498506910483115 0.06907196764566947
0.39219114940840427 0.18815911584957234 0.10246821075163837
0.31318841126213215 0.20907016757928432 0.08169651232674369
0.35564324669269354 0.24537349646028872 0.039380696193930476
0.3659756429816525 0.20857242975392865 0.024199185478579466
0.487542789651215 0.14293113447463668 0.10446186340709573
0.36609585960093227 0.20190619402018228 0.05369462586223506
0.3026362452570197 0.15779165500393333 0.11150174959342962
0.3419570995542074 0.20521696778939713 0.008291505547106226
0.38582175546427777 0.2264864485690623 0.0590844415433196
0.39930225516836515 0.2549321263442721 -0.021401722118838507
0.33258253614462774 0.21133930170257997 0.015518240746771994
0.3760878346492973 0.22214513163491745 0.0649685781758933
0.4680450404787848 0.26187338536934135 0.12971767383666588
0.38059349167619416 0.2152762436908091 0.11957049916216533
0.3737064207356866 0.25668506434088556 0.08218835826170334
0.41033736121440256 0.17835582223591473 0.11110334417516299
0.35907847815664695 0.20645455288828884 0.08517620271877036
0.5103492005627857 0.24281867245436217 0.060575722537038246
0.35374900919849495 0.23388510173489863 -0.03126308565913405
0.35854096984142814 0.20028034548283813 0.07038670886436194
0.4171028822322853 0.210584008029727 0.11702978083198445
0.3310967033558825 0.19741886111640383 0.03261018502948332
-0.21864756370339933 0.3772179516572294 -0.06175456096336518
0.47209271618217485 0.20062991101310956 0.06022566186182132
0.3604825946465553 0.2003426005058202 0.012104008637606967
0.38303437499095594 0.24828910233446777 0.07486701414603658
0.3786759948049081 0.21017592248327333 0.0678458270667619
0.3801482781501022 0.23814624546520236 0.10409030468673564
0.2936564549415124 0.244211680944872 0.14156185165118984
0.3932690126122793 0.2735655115440352 0.1771285861683225
0.28862450600345824 0.1548008172553068 0.03908056959963346
0.5030044424314042 0.05833791541942901 0.524372669509944
0.3461616309621718 0.23683763025647409 0.11019917121376466
0.4539623796142962 0.23990056685852323 0.13896105018825722
0.435530438644534 0.1726728442809531 0.011933109700350997
0.3579472677134561 0.21251797262983985 -0.06344359932376165
0.48926209567868284 0.2591154705337573 0.13968399823043853
0.33659413075898215 0.06645716760635878 -0.051007088148708135
0.4252233790326727 0.2522644919899335 0.17888425680175146
0.5279910224112427 0.257454882689899 0.09353518066313882
0.38438903981995054 0.21538645452922367 0.03993533905139657
0.35246269627698723 0.2181043367613995 0.04874834578410514
0.37112135563549487 0.24865054805459863 0.06111465236202207
0.39132591989877596 0.2468015285797378 0.10110200416987425
0.32655569002024265 0.1867964026824609 -0.1603784004317106
0.32699360154680335 0.22433289649065102 -0.027685641815338613
0.37586262342884424 0.21775332456174112 0.04327261350128708
0.2637600024319937 0.19366758962040365 -0.032856932956406126
-0.12645201231143233 -0.10776130744413592 -0.21607750794416347
0.5837424389967509 0.11389240043831705 0.48845485445338
0.5877048545196715 1.4120561397290885 0.26351700289177415
0.31420817183479244 0.2801674201159301 0.10720998916347924
0.3320955368686924 0.21659572468874444 0.04139104937688387
0.34933637518631144 0.2509037869587871 0.04559623395402923
0.30345009014050106 0.22507573361578181 0.211196456858886
0.3909421280338137 0.2493360322153535 0.13974591911181733
0.3256490684019582 0.1993261416794212 0.07912773048465738
0.3296743304399996 0.23297982125075123 0.09943371750617302
0.3733135313063656 0.2433075359365091 0.061279687555853
0.4192386696159076 0.2034540741336457 0.0036879712730240044
0.3585379328414149 0.2039795762518679 0.09205969156596439
0.395663168213531 0.1684172923526006 -0.02205360598856032
0.3713484014751032 0.23947683423847366 0.18015046742965524
0.37884100326567705 0.21124270760167008 0.08053697062132414
0.4353169752967574 0.24984564981704693 0.07136410996049847
0.2994420581552788 0.20476350520405617 0.008538324537340714
0.22756593945609893 0.15245575010104062 0.003103364881098969
0.25791129882256314 0.22338425375801307 0.08477962174197273
0.379162077265633 0.2151856799295473 0.12002404840836789
0.42318833524439015 0.21353891228369548 0.12266139899918471
0.3178877523227186 0.20383188508685635 0.13753018400757355
0.3198756967673262 0.19125131888928593 0.029897652944200104
0.3280069282641165 0.1940655860976932 0.05457946768672173
0.4008640014943978 0.2184199567281837 0.02671663256697343
0.3184024645759109 0.1923155080700809 0.04758886689049291
0.343581437972972 0.25396345721050295 0.09641313534868345
0.35307638281085474 0.22019694349960162 0.06952740084207676
0.3833559796804309 0.15147271132238416 0.065098952645684
0.3798344526397557 0.2287118010407454 0.07497976324019362
0.4196519787710429 0.21853942364973022 0.08436221598120142
0.38611543976134044 0.16370478536519784 0.0873039874562096
0.40826124044670564 0.23470765865759802 0.13462515221542048
0.5627209040746095 0.23969529894894492 0.22079364323657558
0.3004242676426827 0.20655204701344587 0.09114281923581302
0.44378719413984413 0.2099065027908864 0.034271155555785526
0.4813956435615978 0.17726377332229504 0.11641201048664129
0.36731956643218666 0.22859552635634373 0.05970623424266819
0.4407170756322074 0.24087878577147137 0.14018194449198518
0.36894686066145255 0.18441742136334938 0.018543887483872368
0.3696332147455337 0.22391889127038667 0.09026956877075065
0.3922046606757448 0.2189932639002734 0.10789181705563067
0.4240340506852789 0.21948073405673085 0.08464844157799689
0.4369668672628535 0.17627257215613668 0.0927171618001239
0.3875124327613122 0.2152908600245098 0.08671093804386487
0.6457943508792994 0.11613488302319297 0.2593108426619892
0.3857071800058236 0.2255507891650268 0.042747893382895086
0.26395016319060005 0.19689329440841163 0.10458515034743243
0.38836805274743824 0.21848271741410485 0.07005043328450711
0.39233882121970964 0.2444192156012548 0.056605614392225334
0.341467619960099 0.25185892403428056 0.04596345052881645
0.34288592674852225 0.20819809275505463 -0.013876796739026531
0.36761633372435654 0.20773406581420772 0.07157269385913878
0.3609006058434545 0.2332270095918716 0.05570057042390886
0.36736086421956315 0.21493134389152146 0.11802891230414048
0.37675704184931647 0.21410786685899552 0.08428365919357361
0.3395141254603118 0.17023758831265923 0.03279609371602987
0.3920684859056962 0.21509949347429824 0.034957686212578665
0.4090741943686851 0.21749512373838797 0.06468958447597117
0.4635924359085095 0.2539747529814065 0.1227820732241014
0.41400145707049774 0.21266712703800295 0.05614257420583613
0.9126553020562227 0.4730032603749805 0.242849812219589
0.3665673558366649 0.18223913590286145 0.030436344060774445
0.42827883487487384 0.24739788954443043 0.1065192205026051
0.30976612091149036 0.1974923640145505 0.05095159098968338
0.39044196738535675 0.21452788836023728 0.05762119118270448
0.33640457137559565 0.20807435156693543 0.09686332387229868
0.3440887285028964 0.27124229156474655 0.10438182874844415
0.31094534998065626 0.22496129679603882 0.07826536364996173
0.4083644337404735 0.22840289649867884 0.07393204860323976
0.38431276260737945 0.2005422921223925 0.08819316712694558
0.509980083194506 0.2063407581457426 0.09942804203510036
0.42588532887320696 0.1904160377666244 0.1052888657771689
0.261839437912073 0.22922476518792223 0.04878828288238424
0.5270096426020103 0.48647778199733693 0.25042610475864535
0.4075820862739761 0.25112293444411193 0.1808244558013712
0.45927413399510897 0.25639527376469573 0.2706764876145513
0.36173372768368495 0.19116015787903962 0.05660268213631525
0.3190287688274509 0.22097805092673184 0.016989355931571026
0.3351547852363268 0.267651284745952 -0.10371127359945831
0.37970195555347175 0.21876597097980266 0.06451624022335523
0.3961584236309932 0.2261320555064401 0.09087677790051885
0.2992273814358555 0.18149357546491274 0.051913913900108355
0.39767072005165005 0.2550537343991266 -0.7869982792412884
0.29261653464379833 0.16101425606836983 0.002682245869181088
0.40056205665308653 0.245137970447999 0.09089991802544262
0.408710507201846 0.22575288915899705 0.07597083640342817
0.7766683338680025 0.15343238720043928 0.29230799408691155
0.4198093219300745 0.2191646009414967 0.05634831844432142
0.39228159466449597 0.1982803153588577 0.011334597017253145
0.34546582032598394 0.18554128798743363 0.0652691707626758
0.37685749323438245 0.2103276715797051 0.10295115975281988
0.48275598708065104 0.19965210352299323 0.007563875437796241
0.36257706806421197 0.21462736770570245 0.040934645254523616
0.3419082036038503 0.18035533964643946 0.05633561644850715
0.5338355771069416 -0.007212396466158566 0.09244195895692542
0.39110524354799736 0.2221354350895126 0.07042957372124192
0.4483314216057721 0.2783442443345052 0.08636309990328073
0.3946550105553399 0.20919704862228627 0.033646356302341474
0.3872759343765608 0.21180502478999585 0.0035000172701415977
0.42234565819610737 0.20054603853367325 0.06888900045797186
0.36348950735153096 0.22426231109008654 0.07991352583582056
0.286571779213574 0.3676434744801327 0.21794626409342754
0.7489118531272965 0.13573861626376527 0.317049375483208
0.3214132652314561 0.19076540611442283 0.004312455495494305
0.4555754720458651 0.3481035170612614 0.19097314869522108
0.4162366316669761 0.2352994042153398 0.1325295422009276
0.3829438332669781 0.22937336584644186 0.14524878855425527
0.38177701568714895 0.23005805821711078 0.12706635420013868
0.4171138221876163 0.23653164776774815 0.1032910899268984
0.5267111139538088 0.15294935204215676 0.08264874999372296
0.38646601024663596 0.22614786372304252 0.07168278314830445
0.28324360715136265 0.21336767339667517 0.02072486834961751
0.361388697095947 0.17881258455410887 -0.01661296126059142
0.4702093271117178 0.24040447497962703 0.13731168705464825
0.44727739452531523 0.22239655963655025 0.08572700289226987
0.5133815942301823 0.26566473616138353 0.12925361868559548
0.3917707741179868 0.22657363244715611 0.16537213935234263
0.4841037507984538 -0.008581219940069218 0.12449489681117143
0.4278169386474673 0.20993256225642654 0.03500415341358121
0.4639503435680723 0.1369041443308987 0.045486914788483546
0.35032562747791474 0.2258253934797665 0.03606802829916944
-0.04366134231965191 0.3533961234750791 0.12923814925454735
0.3159524639740141 0.22649471385145148 0.06336484903522432
0.37750595261354647 0.20673056278221225 0.06801209029006827
0.42003531978224373 0.19387746085791946 0.1273139151136462
0.3315983176646 0.2080276459282686 0.04226741987224614
0.38364989024196916 0.2837668841688128 0.12983937980271776
0.27412890474860774 0.21944675564719773 0.0814954648038082
0.36403426004203254 0.20810966257683106 0.057680708218981636
0.3903922143375951 0.2181830184201914 0.0734498419780607
0.2560536969516818 0.16577744541226025 0.049247446187280275
0.35925986522889275 0.28037655664570593 0.13462089101324182
0.14210459923202734 0.28775005814954113 0.008579665412526083
0.22409541440848102 0.27415082678403735 0.06854114883122975
0.3719189820004942 0.18429597611100235 0.05420313857881354
0.356670442398638 0.2141968968033865 0.08104934488740412
0.3905946030034215 0.2188945341397357 0.07977995917809722
0.48883708902542367 0.17286079751723094 0.22779556563585857
0.3258706696688307 0.2299994040976685 0.09570889095536472
0.3851464107186473 0.22597030256872586 0.07145239479075371
0.198325480437461 0.21295360874563585 -0.04310945923413101
0.4212389128732781 0.21522681432571744 0.0702844374344096
0.2909399879951735 0.20198864226371427 0.10981309967939978
0.43641895834068123 0.22539843165203877 0.1457945054333436
0.4351661640739479 0.32296006918170406 0.18848672197111682
0.3905796964067747 0.24349178193901366 -0.03460612999464274
0.13952860559830071 0.20193539107395964 -0.14833510404258732
0.32302164615859397 0.212072826878412 0.06447931083334879
0.3640977631498288 0.22094390567175992 0.06516659294065619
0.177385484726301 0.19975777335989164 0.07853201157389833
0.3913214045371518 0.2611401786751344 0.10698853729374491
0.34796763268468567 0.1807401423151731 -0.0583986173820108
0.37117703716334915 0.19576662289254898 0.016686725870016517
0.30632363379919525 0.22848543803908683 0.0782463426765787
0.23280272488580067 0.16303313577864742 -0.07691194266408274
0.40142759432210084 0.2144303218507133 0.07032969714353499
0.2748999186391927 0.1954651711762807 -0.0025718239835441636
0.3851059458528141 0.22234967428116192 0.09630541139753745
0.4288554071698627 0.0747710864712019 0.14609157025178376
0.38958711682710145 0.17339606894898907 -0.07457334450815267
0.36204446153456615 0.21020134554962056 0.09952173034270118
0.28546321710231837 0.19943742806415798 -0.02944426053471716
0.9615537536489143 1.2147726878817195 2.113706614474893
0.33108523447208427 0.19069750892488457 0.06368402555116859
0.3619389949756453 0.21714955517828116 0.047016083671891806
0.3845973700964578 0.22500375341790857 0.0945953982841985
0.2803038400035689 0.2558128689232575 0.14828344229891854
0.46067679195775213 0.21286004532369418 0.1663214182057402
0.3964898932928378 0.14162168093207583 0.04301235667026049
0.3613602907279301 0.21609579459256167 0.05198490376230325
0.3077946019180615 0.1901813715051901 0.011109928728600948
0.3544978864066195 0.16482064728444357 0.06999246092482281
0.3511191851092974 0.21093995452771708 0.055674263860282736
0.35549276198912594 0.21244850782989033 0.05609857215544878
0.30450640836841103 0.18840438134209592 0.06325799009496791
0.29179041516403004 0.26047517674368237 0.12449416969474214
0.32910946321638335 0.1985386634384696 0.08549960074631713
0.31503267703735105 0.025833518613580964 0.08255786438826362
0.3926233611759926 0.47562472673661205 0.6455293313588015
0.36609841544209587 0.24851234149448942 0.08240704045790892
0.37688037879223657 0.22726855130251522 0.07810622930375644
0.35800925231370684 0.22234440372960762 0.08635858451262379
0.2638399291558926 0.20696352300433318 0.0036832102499744224
0.41025531041259455 0.1829126961315808 0.07630695676613186
0.3586813894170291 0.21434836644593247 -0.004308492063401559
0.36444240169768705 0.22425176400271596 0.09861719547626535
0.3903397682210823 0.20982052017146202 0.13142267192782242
0.6053040831473027 0.15019540528058428 -0.20264424502741463
0.3878610840683052 0.13760507555427637 0.1681822568548199
0.35940693792994693 0.19254808253026567 -0.02661074067681568
0.3825176795949403 0.2337507913538417 0.05989541561936562
0.41702735675190183 0.23051870455770995 0.09416201791096057
0.3705789798192143 0.24527887243941393 0.1537284518720412
0.3505636688365428 0.22646114637875314 0.07763834048793683
0.41320704274241393 0.14112821372995654 0.0308875880221251
0.3781035998086111 0.19954889683256738 0.01463943694898262
0.3716948328922882 0.20574913298507624 0.04396548622814578
0.41335611157586527 0.20664882912070937 0.10182186175222796
0.34803977047796764 0.10703704085176469 0.0068244401364268015
0.41889129196884767 0.07076896823392076 -0.515554877250139
0.5423891029460037 0.48917440391215905 0.3001787302797254
0.4196655528580777 0.19877633712943066 0.1309376488578664
0.14778002785800481 0.13326512440632143 0.07537077249182289
0.3285785312553031 0.2288523924935646 0.060454606584556814
0.35655899010617986 0.23068171797334003 0.10347650694097865
0.4382728504056388 0.2095881698254516 0.00802688701230636
0.3520346013490183 0.20826348218500357 0.09478577624051354
0.4421405178261182 0.20215800815189766 0.10309614304895831
0.522025857833583 0.32339054599189865 0.07050795723455394
0.40146038303834075 0.2109184185462425 0.09162183572152571
0.36782344180213045 0.23695335202307888 0.10757232983641529
0.39044150127068633 0.22881014658725007 0.08934171204703034
0.14922294679873005 0.402093494635551 0.3496618347473657
0.31190020875544633 0.24222557000766187 0.04188777995452142
0.3710439904570819 0.1983591855898652 0.05536475201083135
0.3374364409247619 0.19922517048590294 0.08272366287835098
0.22283197757646178 0.18085410129711477 -0.09088880848389636
0.4614985788794854 0.2119222774774414 0.05047972723610883
0.2964900611880239 0.18494725139652246 0.03716237844110992
0.3953381355160701 0.19352262094561468 0.07012421920339307
0.32000932824701067 0.3317690142610985 0.07561001001167256
