# .PCD v0.7 - Point Cloud Data file format
VERSION .7
FIELDS x y z
SIZE 4 4 4 
TYPE F F F 
COUNT 1 1 1 
WIDTH 807
HEIGHT 1 
VIEWPOINT 0 0 0 1 0 0 0 
POINTS 807
DATA ascii 
0.4824455971861994 0.28670602872813333 0.10109674084594644
0.3916562269615014 0.24390783886360623 0.07713929918691065
0.29319482561895427 0.2553430891220785 -0.00704278039185624
0.410274327568402 0.18620248338115175 0.04707898329297677
0.396692131896458 0.19998425109946538 0.05396694109134614
0.4736922481519201 0.2307663968158522 -0.04439102406138318
0.2997548866387518 0.15141136662685994 -0.03999986760643992
0.39568612322854335 0.18477188632496677 0.06931762124580132
0.3616634046248066 0.21396118885158444 0.07548930619071825
0.3699819156641553 0.2048600615761984 0.055972096247202785
0.4131590222458783 0.22217254912374074 0.08982642685180053
0.9518876269341945 0.21237828818007642 -0.11109248895988344
0.38969773594203616 0.20804380224117835 0.06294595760148525
0.2917783337240394 0.26488142346116206 0.13480555267406658
0.7778915359753285 -0.7099270008643401 -0.7136982781726289
0.4042331625536235 0.1792856725697618 0.06613924712179653
0.37549550142206556 0.19807032570133742 0.05459649550023471
0.48717666786291147 0.21979623611446186 0.07787775656308327
0.446474410012911 0.20151978376303248 0.04246619163905052
0.44042427396537676 0.22312022025991496 0.07995962308343962
0.5287066200788502 0.1374953720239489 0.1057975899516066
0.30222841890478946 0.12535954963519202 0.2060605396557662
0.27438552078857015 0.24078761560215867 -0.09074538693973011
0.39395199928202373 0.1871297936038161 0.01850263913709682
0.44938765507868084 0.21536212982459801 0.049007637281818006
0.3203289146424737 0.18802699504769294 0.027411104895833205
0.35880255824488927 0.2007295370464277 0.006157478657314641
0.28514330919756503 0.18028788584540223 0.06396194151065515
0.3539011212948111 0.2187512972752188 0.08468746447721287
0.35848440204512144 0.23509532853948656 0.09428897695821092
0.488286332323284 0.1849758218843931 0.02072565210430355
0.3436341270912635 0.2416904538162612 0.08295527468507657
0.3993086586671666 0.25279921080317536 0.11447871491299111
0.38518251677000137 0.22052859545259196 0.06769426929443512
0.37694036365260786 0.2107484353233673 0.103484860269063
0.4645860812296121 0.23088249710494324 0.06842369129394399
0.34194067915190374 0.23190771152439993 0.04705075893568278
0.3458020206343093 0.1875606847879112 0.023167846860033592
0.4213485703667317 0.22737008325884744 0.05695288898226636
0.38743978251395106 0.19690689588384203 0.07532855064189903
0.4666255097094165 0.19883294006012875 0.03763644419157686
0.4917367889608357 0.19079315271969222 0.02219155169504461
0.6736228077853923 -0.07740768367195017 0.4957596541987641
0.35224185234741867 0.18980952702611376 0.017816184328253826
0.02587159595503863 -0.23269395384733116 0.4376074344360461
0.4395656972028661 0.22332703282674515 -0.03336423345254502
0.38269896282710647 0.2533067385707142 0.10708974433629237
0.4209613971673605 0.20144924796514374 -0.0720591367407053
0.2043953622026322 0.2637012403258723 0.10604357075773407
0.3577243423328582 0.21843860995087994 0.06334890300155394
0.3467959221193979 0.32581453072225486 0.18838339045439056
0.4086334888858403 0.21190934811623663 0.062018742079317235
0.4810645044754551 0.2135291472126113 0.06730941299414894
0.27638285348679403 0.25291590443302425 0.05113270644378076
0.4131322757860971 0.19343367778137122 0.008831302601734592
0.24315491645353404 0.21700216998112865 0.1024297558759173
0.24963890388600873 0.1391610707735822 -0.1220018381367538
0.3667918828831347 0.2242334039062257 -0.0746623742059569
0.4170053051741718 0.1945770927353152 0.09783169745928433
0.33510026034838347 0.23162843417408396 0.12174053630947412
0.34823782469655384 0.23470482669407033 0.1326324205363676
0.37891047281911483 0.20518724012495682 0.04411723896981812
0.38303561398679165 0.20773750017670523 0.06337210252453929
0.4248538309288108 0.1963208505669627 0.044753622684936545
0.3993940923407706 0.1876715381750671 0.07139800826178089
0.40234987011805856 0.22110153714598368 0.05980773091698666
0.36751359873863976 0.2386238823797271 0.1515785469563582
0.3709226365820655 0.22329595507541455 0.08716381112530769
0.30598222515801865 0.20951862692791678 0.1016248277850309
0.3243672066898 0.18932400474734834 -0.04689349955961575
0.2747074430388352 0.21104494914078487 0.05826691377035331
0.3320653571082488 0.17453916731606967 0.016607979774875048
0.3448830108978882 0.2135459785865237 0.08270394069963061
0.33738528727857897 0.19408901977303117 0.08302256831051125
0.475593890908101 0.20097487724962093 0.09325159608169997
0.360865561723557 0.2133681217196255 0.054296949177114584
0.22258182075970012 0.20292666983101526 0.0789787716122845
0.3314957657503754 0.1888958560278695 0.07740447841415232
0.2920763585665327 0.2503623643530517 0.06271897008812743
0.38865242360995467 0.21513468837602545 0.04523658846545686
0.10499504886422528 0.2030025923030223 -0.002135670994022121
0.33118223158587057 0.20325808511498167 0.0031923985828825607
0.5046224163342288 0.17248060276844512 -0.01979833463693126
0.32000179159246045 0.2140309193659391 0.07757512363180297
0.3402127166361595 0.21309738888841423 0.024623550333302546
0.5357255138127499 0.1744162864755765 0.18034468649526048
0.34714842275306523 0.27425659676535474 0.12500924788429302
0.4374253291054373 0.18377925765960867 -0.008265852946635732
0.31549243821058326 0.26064218880337364 0.08906654797092983
0.3969403416458732 0.20947361198480507 0.04353926404013464
0.36616068521229295 0.19901010817791587 0.057175934812221385
0.39120424003226617 0.20256466039055 0.04585496642533826
0.3618252931672288 0.17118807930975777 -0.016886013613259365
0.346935300032186 0.13475393729807195 -0.027040120519501443
0.34771085587297534 0.15257487158071115 0.15759750868613764
0.3839815626554639 0.23691277151462486 0.1297492863726859
0.38852743789023236 0.29809609437148765 0.194474431422492
0.40083576099317497 0.19492899142395004 0.02387704707015814
0.47644593782965217 0.19993989368327902 0.0185433206837331
0.36695283762115594 0.1850555153453115 -0.045329641942686294
0.3644303825175683 0.20532648805561848 0.07890470245169467
0.3775646732901805 0.22688191160928284 0.07034750838806758
0.28343386138551807 0.19169993228419457 0.011787030118853181
0.3740802517684756 0.2473415499424192 0.061704726756985906
0.35356662917409665 0.2539541695747971 0.09916237301442266
0.43407190353005376 0.1669019873274209 0.1117914689366728
0.3827305263547487 0.20646670508529041 0.07066557967431208
0.46390070516535786 0.17566468114375766 0.10443087640882709
0.3893417504068424 0.24527047602109064 0.14907573949759012
0.37658388833537515 0.2220288440250613 0.058529587870438604
0.3767863702699401 0.23207721240146384 0.05535316042343652
0.40132631268893704 0.2275782434791438 0.08326739541098505
0.2904635418119881 0.21534552301172027 0.006465039353457769
0.36143721281260355 0.2511307368970819 0.12378814582596931
0.35729503112719385 0.2446688976190785 0.0471080825640513
0.3927696833948886 0.2273012536168295 0.10846413048733439
0.3651531193737583 0.1800495949341041 0.0210450193262659
0.38497942444563193 0.21159903626590904 0.08913338564664741
0.37551762950769785 0.21797416992811236 0.09407027920276789
0.29867063762961266 0.28718376841329984 0.07702764183966337
0.3661973344531759 0.20557328617333326 0.09894818525879145
0.36745111984841117 0.23614170540093937 0.03436758729014855
0.3736777188939584 0.23263798553871595 0.028221622955882708
0.5863412371516716 0.4442452285095868 0.2848203872531201
0.38801596266563365 0.2325693266425901 0.07201346246958451
0.29083027496105274 0.21654553627308815 0.05353318052428335
0.3694607745369467 0.193698322155484 0.04962163483747872
0.28373121214016805 0.20310111157063204 0.024519359746108194
0.2728673636679275 0.2254343462984707 0.02840479433078258
0.46482712537077475 0.17484924189494677 0.037200404993967595
2.470522390568334 -2.2836665572069705 1.9269986727719584
0.4739636247748251 0.2595552359513533 -0.06610249385123268
0.32168646427678027 0.1830627677831842 0.040766764853799486
0.3868653147967507 0.25427146731077244 0.030630532535127486
0.39261273629843174 0.2321526881426621 0.03686417025133437
0.34143580476330726 0.18877374491279397 0.054001293536174444
0.4044279600259415 0.19446024741773726 0.040514679284399335
0.4841009652706987 0.24239971324809062 0.13119373017799774
0.5210461266483435 0.31141261259385544 0.17811876212863353
0.3927496644035813 0.2253018334354806 0.04923410689271179
0.36461440936120937 0.20908872910705156 0.051952151866856866
0.3812040511383259 0.19084774576704433 0.05615668677094732
0.39852116405504034 0.2533277233685425 0.12519230833129313
0.36837546286955103 0.1363476008145028 -0.019674519465240792
0.267218608422354 0.2005237942990732 -0.008431480357785404
0.2629720217018132 0.18836274243801654 0.04021922742926165
0.459445217695162 0.1956098726081592 0.05535687238776177
0.3520196059321421 0.1956339836553127 0.03084378581660019
0.38922902348379296 0.21551574051952116 0.08601419768825735
0.2865768301331002 0.2465219417515243 0.10860782902386745
0.2573371320877982 0.2373128026718092 -0.046518938224437534
0.38845644443509286 0.20750006137210164 0.06260697050402086
0.4953752418193176 0.20576231730505867 -0.00011426330561903342
0.3308755034439912 0.19609309448961199 -0.01735144181154169
0.45852276135099146 0.18826701921932454 0.10640154251409228
0.4897701204853888 0.24861913168186334 0.20711538911444904
0.4004490903591318 0.22579307311491448 0.06765552930282581
0.4641700131761297 0.218622580116687 0.09212403034828753
0.40610122069065824 0.24187445699735122 0.09054189700047743
0.5146552924527441 0.13240011935286589 0.2224352740659299
0.7902400995224923 1.3237605649484294 -0.20281145333527206
0.3569142423067291 0.20756401407859926 0.04657250373884381
0.3155703121327491 0.21619599526471234 0.13499413133266103
0.42171388116267394 0.1992557017553338 0.0502390829051933
0.3214597059584037 0.21987269128278797 0.06828861594937052
0.3448423162206211 0.2289718045450826 0.050334695650221306
0.3721184020704271 0.23475976364916562 0.04773754654351592
0.2718518545516986 0.18925851958235285 0.02188290806219584
0.39091385149987445 0.2167362444682226 -0.002317044268039581
0.32931876244350633 0.17976541123121592 -0.027263589780602615
0.38762037212957523 0.21282451603735808 0.07432937827283581
0.4372498099578195 0.2416291496614349 0.12680764082151086
0.4257279051675624 0.22009694034906602 0.11157141790788216
0.4693161554648668 0.25057395902683766 0.1606367429415343
0.31994686441817066 0.2527866797872207 0.05036186387812336
0.3938428506606044 0.22924876989898735 0.06097943866060973
0.37295707866763905 0.23595590892588802 0.09802110910437989
0.3761348586577071 0.21408047474503178 0.0786911503608394
0.37318703929076946 0.16494224663497903 0.015045450722368514
0.3701850504649542 0.23319942640068803 0.11173222401623661
0.5002238308081814 0.20501493152194428 0.07141776846701475
0.460475645615972 0.16052699187977737 0.06016495464700711
0.3773627183735755 0.22284583159239446 0.0671235433427313
0.2729750299286309 0.11146151812994276 -0.06420226118558503
0.35140340064552333 0.31339518483878237 0.042660178550022465
0.44371430323030836 0.21249503666780356 -0.008260253087968294
0.40592773665869686 0.10332383957566549 -0.008249130043154196
0.4835667654746203 0.2846611914028472 0.14955558326030882
0.2865015434485656 0.23427170390962715 0.08944107026664483
0.4379585404324189 0.32537883845974136 0.16042107850252307
0.3151535244255115 0.2346564039248733 0.1011430337756849
0.36498007090037277 0.19991190998149477 0.0011231870367112151
0.37511882250714734 0.22610927261277425 0.04148558126072999
0.3309539327873665 0.27282428603359676 0.11330999895707805
0.2709704874735621 0.23684657865138092 -0.1179366337134411
0.4448964567143321 0.18098341042660593 -0.05100790321384352
0.35272740647056366 0.17764670778893787 0.06380142487523699
0.3695749402523347 0.18380096183186367 0.08180672563418057
0.3598807220666629 0.2092703881683633 0.07050091981977857
0.3337647605062415 0.20540642076981896 0.05698261058111598
0.505798445265242 0.27279318432894684 0.09441764485625015
0.4376343272417387 0.21228693621299044 0.1334700546620411
0.3900773160383011 0.21161410343802345 0.0682226078602639
0.4886366732095695 0.22091257588122915 0.07340936524218478
0.4014662500050008 0.2176538439690887 0.0684215823000045
0.43323141781390007 0.17542726988125423 -0.04124189749011009
0.6262473704711624 0.2961235765438488 0.15022514321799463
0.5372179980194289 0.008845161842202742 0.11406758037163911
-0.15094999967321598 -0.20001846185311933 0.0816487893658433
0.4356617509186691 0.20073551850926208 0.0208284109885426
0.4669384316783294 0.20230860075110968 -0.003803182029571417
0.46335714521666205 0.19235883908447704 0.03367080584226301
0.39957825042345974 0.19200824098675184 0.044210036729282365
0.4342219921104089 0.2150737954901274 0.0744811155598768
0.3499744847867561 0.21704181158960978 0.08054950731410315
0.4050560809546653 0.2318191478601932 0.12275277298709852
0.41590391536098537 0.2662089954197455 0.0863628493475943
0.37278171681025185 0.2224035440499108 0.059874638795093915
0.3984275547741163 0.19551298028338238 0.025294224313142877
0.3392532215662669 0.18926852261932936 0.014938403265674083
0.37756870578320445 0.22607468888546123 0.07527441101855459
0.38322183968499246 0.2318477591772421 0.09841819704161026
0.40040223276528764 0.2508080670594808 0.12629862117253765
0.3925078199171139 0.1957410712583112 0.05769813893226683
0.43640828982657354 0.2091635509866876 0.21602030782096904
0.3972324494863102 0.20974690350419678 0.09404321239202318
0.4665440021331193 0.20363610323258285 0.0455205823401883
0.3996202663992534 0.22092606499472822 0.10491459873401254
0.5240136299060794 0.2541358912159808 0.09022452436400386
0.38671786466268543 0.20654463061811157 0.05449795748302222
0.3696776193277884 0.1938623608563148 0.05334224780253294
0.3962099485655415 0.23679770046155113 0.06460025551400861
0.43720648708449517 0.2055338951958845 0.020662449390471238
0.4419849380760752 0.22462654080180755 0.1583357697346912
0.3832388344613804 0.2010281020830007 0.07640022700280724
0.5911130511070155 0.3055435863318934 0.19071245899613132
0.3692715917132716 0.2559097188554915 0.06523392351995483
0.36245013832160566 0.2101130701137066 0.07199622298477948
0.3633398302444846 0.24214678488621644 0.04245941191049951
0.3920538418196884 0.21932544049764147 0.09564580370303588
0.3517952371444437 0.2043273568576751 -0.044005729190388365
0.5449867755493187 0.14295848233965103 0.030408336889934162
0.7395753173362039 1.0806480877722038 0.11614569443099754
0.4510493482722069 0.19817841015363058 0.06783069491493166
0.3823257228960131 0.237447796918417 0.05710024544303849
0.38460440200948653 0.20892452757439628 0.049285084455135575
0.47029957257447563 0.18468795804830052 0.012727733837436972
0.48462617438227085 0.21137127482052165 0.04878448854333328
0.31213809956526006 0.19523517615677122 -0.017931315973385153
0.3570458235750493 0.18484964224290934 0.06325065616189818
0.4070562326366769 0.21136081936421647 0.05588104485889289
0.32347820512718783 0.2570107656361955 -0.030338378952677658
0.3311789722774847 0.23920501062193011 0.08877468484882911
0.3683776014536022 0.2178548422625397 0.085769760335495
0.43098912442175674 0.18092860939876232 -0.0938154142099279
0.49697773715220706 0.21443770726035893 0.07668467856672123
0.388835604920331 0.20891228372965998 0.04287403240167009
0.36556328009720573 0.20889515699221306 0.07519820031191671
0.4458810980287353 0.22430116749760032 0.061604153600342215
0.31257165437261847 0.18696869257959747 0.01915809656159695
0.44381251034769775 0.2544896733708413 0.08227792623335972
0.44652652530379555 0.23678386960617104 0.11142267457839239
0.4805859705114983 -0.36270213538699636 0.12571702892441294
0.20235504281885142 0.17182131669068212 -0.20293442392821248
0.29759302513998875 0.21066187064579367 0.07996065259062846
0.39960649628233114 0.20420081275274526 0.05758756894216788
0.4013617364516051 0.2263924161249946 0.0717900887691485
0.43655314188384864 0.3078066089021405 0.07321415255051988
0.3905743977677787 0.2138430341405524 0.09279271022748503
0.33029165520056836 0.20762843150910726 0.08242401225331264
0.4659046999051668 0.2989019594348292 -0.18537544373562298
0.35767669899689736 0.17403952949702273 0.06631206735460182
0.3457672972273258 0.19064876553287036 0.03284872260053362
0.30336116043815764 0.2212008192035455 0.11606594857377672
0.3710850288937877 0.22842153449984437 0.0742069363860196
0.36315078778721954 0.23603638426760654 0.10967751528674796
0.4690800096229282 0.23403048447141828 0.10506759165062363
0.2808451147543565 0.20553538210984357 0.05700109029434941
0.17463946374601846 0.1415386052171641 -0.0768988989424031
0.3736955592139708 0.2183176799586164 0.022943000123206048
0.3726994612814849 0.23018883843616322 0.10825168496083393
0.3077242145223664 0.17957597064922481 0.015354110961752099
0.454845580120093 0.2416825653259025 0.10643630465307297
0.3597413591015055 0.2142157112248242 0.26501853752934323
0.37407511110707503 0.20739944003105393 0.05369784225590024
0.4022099769030376 0.19701478008816764 0.03088541811791856
0.28510725131576464 0.23320238222450484 0.030798412709074796
0.48367982487272343 0.18918733585556424 0.05990312439277545
0.3182235343653872 0.18869979231095613 0.03627890062293204
0.39105017520084573 0.22385410679164863 0.08185347864767323
0.32546672098283125 0.23072875759299905 0.11362087459265524
0.4033292284340604 0.2703810235988158 0.08873956906134595
0.3302291104824633 0.18969868408072443 0.026419209082163775
0.359122007877275 0.27672357861077046 0.02737856625032009
0.30446323892310545 0.27648676729748445 0.030979543583470104
0.3695799204994614 0.25583506056005945 0.08760208493677624
0.4126479679299848 0.2459715787648804 0.03156717249574115
0.3051915822053246 0.23460419132078414 0.10821326598886571
0.3166404227749524 0.32261144822402343 -0.05156062993465582
0.3910602230446898 0.2128537837769926 0.11111387598256783
0.39878531146810303 0.16344298890879827 0.01865367871353385
0.4262596012450217 0.23226421422120325 0.003605355998217874
0.46449324621475796 0.20407123281481176 0.06229732896561302
0.4358905240402464 0.1967165131441817 0.05798004535712664
0.35969270554180355 0.21898193156283696 0.06635911744945133
0.370561520056782 0.19677672603206986 0.01134021184580547
0.35035200480061235 0.13406303585765045 -0.08847738731557797
0.3769014271139213 0.22610683831786105 0.049075813864419615
0.31651497243205995 0.20348877027092271 0.018721128968223866
0.2503556261158053 0.5141448141354488 0.2853679449698916
0.3894892795165106 0.20467626628493463 0.07943900942166238
0.41742837131343435 0.15876188002712865 0.06997436839014881
0.35947654109591554 0.2582582374242577 0.10913499702486718
0.41965658020546925 0.2474750133958139 0.1775534663746896
0.3765424006778062 0.2209047675329998 0.13135683929567676
0.33131584740482367 0.19401443809604757 0.042111977539363465
0.3826329594310778 0.20438221054328665 0.03865381322508199
0.3953070752405665 0.2000811846340298 0.026938947381893286
0.4701080586146418 0.19813079707874692 0.05211646888011501
0.5157780290596463 0.23295947118663207 0.019438294666628053
0.38457306572263406 0.23439395721166534 0.013550029428870403
0.2948182018674288 0.21725105809431966 0.059520367919446926
0.46295964323900307 0.24985008350402893 0.11840187022551163
0.2788610570902108 0.18755918876897226 0.014587767634566262
0.5152537710226568 0.22916496214327253 0.03310225460074889
0.40682475684580766 0.16981442375637812 0.14068431415466875
0.43091734638959167 0.23589119687289895 0.07547070519689214
0.47049532695368157 0.23238588015060202 0.06781657262956742
0.3354036893020833 0.20159756245308813 0.05488157647234004
0.36174681927911934 0.22860522571555464 0.07012779652482948
0.44737907096252627 0.2737019928847815 0.19035397418072364
0.45866880837256474 0.16610643428212768 0.08734187230419366
0.41284535943984224 0.21152597237380633 0.06313659108309366
0.42109456156069314 0.22143997677645189 0.07091617371969505
0.4582495091385965 0.1816193444667249 -0.07738705189112238
0.3859817081690835 0.2092598721570198 0.02101923813958706
0.22481457304908758 0.19150736194563933 0.12487861561240265
0.5188977609417691 0.19299491263765844 0.07670372781016965
0.5939799716130096 0.1592146573761255 0.0961434209470724
0.38623381099435505 0.2171061689806777 0.06783364168302342
0.2741154016202785 0.2618231822909536 0.15476592172852577
0.358726808826475 0.28693077961168 0.025366725624877517
0.28769481232154703 0.21734068347296898 0.06367060740770114
-0.1174359330530308 -0.9926615581865974 -0.870537847153912
0.3737285654543996 0.20957724811867706 0.06456854904129727
0.31979550298603954 0.2166862812470356 0.013674735538927507
0.3766577786290952 0.19097796377940313 0.05277395676343133
0.3970843021910184 0.18417913244270778 0.09506713787959598
0.45205652206242064 0.2713531594147298 0.0799864915128694
0.3852807894503343 0.07566383923855824 0.2109883998581381
0.3378116491005869 0.21938346655920782 0.15074421628656864
0.48364554937134585 0.1171764396257231 0.05857094660836992
0.3428175685801875 0.2696609956107636 0.046437720538165195
-4.920816681406151 1.838596957247077 2.440809907171399
0.25398382551242094 0.1745738984873526 0.008746086284901367
0.410999232143638 0.1970498563752301 0.015302115308401198
0.3524749170152006 0.2628083563962491 0.089340740039205
0.37377450434286175 0.17556604629140793 0.05650505076243917
0.37408674729741165 0.21205622056100992 0.09553125534593221
0.2833502940699191 0.18980521716495957 0.03295352998485157
0.34288718274467556 0.2178529787380512 0.019629752544773282
0.41619744117861046 0.18678732227070327 0.06796919822812697
0.31867090944106735 0.2200187288780171 0.0830109824453018
0.275253042086689 0.1628206600580029 -0.008334506023970789
0.38881049531178746 0.25990810191620994 -0.08234013579360067
0.43231168334020253 0.1985498290465273 0.08204008043469457
0.3659015043084821 0.25152751253921224 0.08507837297668175
0.33605805132256705 0.20907334381628573 -0.04783639701523157
0.4055894949635075 0.2142485798632947 0.0717490313778768
0.37840222794156375 0.18817570506317338 0.08597683464141426
0.3903161688142518 0.24328984282963972 0.11091183462696108
0.27638870604751276 0.2139767937328969 0.05775232294269017
0.4648715793686904 0.23062445127395392 0.0563216036555616
0.34447886286810103 0.20445365229568324 0.062374184145681966
0.38968845016059106 0.20965416817963956 0.07196631226108252
0.35880106583189786 0.19680805248680144 0.05112305368888315
0.4817879874136395 0.25439832568122256 0.10561944087442043
0.39342686744964794 0.21331125231522208 0.07519115076378569
0.5230029047120155 0.28379657123016955 0.16256011416363947
0.39004152623647315 0.20650282792207975 0.09470556270747466
0.3523574265115883 0.2346482142400106 0.05125019397050323
0.364418029915214 0.20663543701489573 0.06337835507719092
0.4127516969293623 0.19250623468661843 0.2118797395155525
0.37676123313515575 0.20782659583673535 0.047849024881259083
0.3955817516506386 0.23206204924579765 0.09140813098839828
0.4222424366124642 0.23169676358401148 0.08862887762464311
0.3873732884457013 0.21163615391296275 0.04611366215904411
0.3467641052665442 0.21753147634350967 -0.020785007537952538
0.41432512647216413 0.2018963241654319 0.062253919090721865
0.3551678336229287 0.20819374762861287 0.04140368900281999
0.3822850377558922 0.23670882929616255 0.09280860534337876
0.3976964555174902 0.2449404125358825 0.13479424597431944
0.5420945345928203 0.2589897169668234 0.1060893929702047
0.4328609579925313 0.242460520134685 0.1452716845521138
0.33060496917669013 0.21413160938703868 0.012652896542846293
0.2830108468774597 0.2198799615767939 0.14156198346998394
0.4347328037645468 0.20626509318029207 0.0338063805008062
0.19524288889401475 0.14040433321726198 -0.10348454414638297
0.39457811745018034 0.23895257210512 0.08652023403406872
0.40475857711737717 0.19424824872461954 -0.0032445254544484214
0.3825170152528017 0.24006621322971 0.04789105645272684
0.2959061931358917 0.22544785270608259 0.08066943894274914
0.3952841990147533 0.20622975031477608 0.08304183655802433
0.38851872399555987 0.22103047188829805 0.06975581943150644
0.4135411045863293 0.7642797843396352 0.3204550615446067
0.39679296448052526 0.22722684331044718 0.12850459336996778
0.2622976746937411 0.2386762940942333 0.06606936403987618
0.3663423962155008 0.2288228391107907 0.06896217113830971
0.36234389014296653 0.23102500486371014 0.10478801891733269
0.34355871590611287 -0.0035604870140701905 0.17195642495957486
0.37154312304018333 0.22695384096141424 0.056394014980469365
0.27254369762319186 0.1620731678234506 -0.07733782165411185
0.40009701733804093 0.1910683066606964 0.13471108123658837
0.4083143321371807 0.32564290250667227 0.16970518654608213
0.36752505222834486 0.2898245196717397 -0.05742634394809443
0.330485801188118 0.1535582861293534 0.12417931679146932
0.3115009944948639 0.23254979130373954 -0.03350405146538549
0.46127595617747374 0.22715625961926378 0.15674351511492546
0.3832338630341212 0.19451615845564163 0.024005101273360197
0.42128358623605777 0.2719889694549664 0.11757095924230043
0.31292389556119815 0.26609953376295437 0.16225405411827865
0.36389519414180427 0.22796453407210038 0.07281319721124646
0.3668061262816309 0.226811327876689 0.07601113803218595
0.46346486291668043 0.25989492211573406 0.13354388355499225
0.35459062595947444 0.1578303409955737 0.02481982551665851
0.3863389790889187 0.22395960605976484 0.05214986022561163
0.3905665503158673 0.21102139333758885 0.14584610200611792
0.4055178052926749 0.2499755794054579 0.06931169795930714
0.517196549394157 0.2413187368441072 0.042402199129213614
0.3231955349993427 0.22580499168199708 0.030864511847184417
0.30706179317697035 0.19469409485020606 -0.03233199622118832
0.1912852753276013 0.26565542415482923 -0.00011245590222586088
0.42326647795326267 0.2027562475476259 0.0891052700919488
0.27966775329441873 0.19841468177102684 0.08641218848089238
0.32709233955864647 0.269778397405787 0.25955318671464056
0.29254366152861166 0.2202683079529777 0.16574543832274458
0.4487430558018133 0.15084475328959002 -0.02668319676763531
0.5369427416548831 0.1068167643830975 -0.1200566215499066
0.3124220068987711 0.1567879075195151 -0.009918147346837713
0.28287912029102813 0.15001965861884514 0.011447339712475468
0.49381736336795257 0.19013905487537386 0.14559812659888394
0.28890519272871984 0.2497095173319508 0.13118777404356763
0.3752101565922601 0.21586159675280214 0.07176025241309958
0.36238256181573547 0.025421313569822246 -0.10145120636309457
0.35447359132001566 0.21283835656115002 0.04787887105553068
0.32800794061353145 0.23592864914789402 0.11926970478171484
1.064163386540514 0.2274772925778734 0.12703567579239916
0.39481207507510874 0.2265380810899842 0.13565519547816507
0.41612536628318253 0.22060986004517247 0.024604736620744916
0.3948967277864881 0.1765105322448477 0.10450957820157214
0.47204134136083553 0.19142788276442957 0.027551978348270723
0.3677417259228406 0.2583654789761596 0.1044831226318621
0.402501664192485 0.2144916791034177 0.05236646566476111
0.4209699759793466 0.2153540612057725 0.07929592236868643
0.37112794161267004 0.19809338526914644 0.06356844118225524
0.5617333741490711 0.21707099654599915 -0.0014646700405052115
0.304141214524293 0.2645680984768717 -0.09383074236755817
0.2887505995091999 0.19084584673234417 0.047579605033234884
0.4100972173429227 0.2208273337513873 0.055507149453077886
0.2963218494978861 0.1941252659339341 0.008028909360263015
0.4887800705974996 0.2545718589541792 0.10888218458663346
0.3251582413358136 0.20200709196791422 -0.05454062525640779
0.2798671672843369 0.25175128407796876 0.09155806579272507
0.37128197435482946 0.21523590260269998 0.047903912593994846
0.4468500715146604 0.21077353290706924 0.04465899278019947
0.3276385655690035 0.2797444373756548 0.11024064245478371
0.32198119552239746 0.21566952046633503 0.0850442389984778
0.38276947382837534 0.22322414813869784 0.0756520967344727
0.46911900513120486 0.20364624208119153 0.03792655509491283
0.2506980166828612 0.18503807114159088 0.041756552526564406
0.37850308496075513 0.21518295006714538 0.07092295229765
0.3898651604663428 0.22671619703254464 0.08772742892531937
0.3729602373180114 0.20476191500230811 0.07473491827788337
0.2815379334674901 0.14775598606308904 0.014338562642663533
0.3758368802723169 0.20811247219421602 -0.053431875083759905
0.3272165657232051 0.2229862094564794 0.07876608469939583
0.3895276428185639 0.21595429004426592 0.03374303933995293
0.44627961457877063 0.23681744309079988 0.10897024036303549
0.3534737655986788 0.2316625669408694 0.15678629985609405
0.3915922668860645 0.227091517288585 0.037113453346563574
0.39293351075158967 0.21941344389719575 0.07803087730700042
0.32197733810482987 0.1904319764591662 0.056289946939187985
0.33186098788286245 0.19893504173003862 0.021025323501845605
0.5089280977004478 0.22006625993805073 0.1790060209943647
0.38270128866160746 0.2259100873303339 0.14121809855964784
0.4598688091831491 0.11579769463489242 -0.03298809049786655
0.3973892236581804 0.21408934141553004 0.05560865114270541
0.3533556424334421 0.23604387181205766 0.23505778127321264
0.4106230007987932 0.17628850601347779 0.034498410366722965
0.41090498760121363 0.2294866932394939 0.11180519441398928
0.3753541773110385 0.179642942194846 0.038875962979233236
0.3532891909077591 0.20132704487367903 0.06300338840856057
0.4400839428283234 0.20930604894020632 0.07781506411949124
-0.029758603315173104 0.409682418372995 -0.01518640497985757
0.5229650854232943 0.11079369575145392 0.0405657932049337
0.4090494488218468 0.2038703905098913 0.01247115494652462
0.05162013361483275 0.2639016463656958 0.23473575377722966
0.21892971351535095 -0.07448601570231972 -0.2301864319610445
0.425358846716378 0.2366543042455902 0.0658563166061299
0.4032662513564276 0.22559531426317392 0.10916028779504927
0.30809340987111966 0.2153920165089005 0.045205628878491666
0.37418765758133077 0.2126615130223115 0.08291974712732042
0.29729285005552697 0.3241503630784166 0.16443217182171566
0.3695599651845498 0.2027129061447397 0.05232628532625938
0.34942392261797295 0.2014048683776366 0.06023652399882451
0.33206523824863154 0.20922808274788451 0.05144474273467381
0.3802274182595511 0.2162134724708551 0.07070154256248884
0.38969069424342706 0.1714189614013435 0.047963568357161535
0.35513690193452874 0.21335405745452363 0.058598538979268255
0.3917220469980407 0.16948638901217805 -0.009257972896676847
0.39729884583061903 0.16917777217349794 0.040698042910420895
0.35871235794650147 0.23957820031735366 0.05330157298506322
0.46941946099796894 0.20328356729645236 0.01446610706653928
0.35650116501824414 0.26843303806859353 0.059043823543589724
0.334895192536365 0.1567585629011603 0.07106219930953728
0.37743204988639434 0.28690278716922535 0.04323983724263769
0.5085985042016716 0.3038966238366072 0.05304427548949775
0.41447877122138266 0.226093024481699 0.05484757570135912
0.4379197007170319 0.18356022203330724 0.013929365517768133
0.3915170254620648 0.22691031070603174 0.08913817689179382
0.39128655594090844 0.2289246189628784 0.07886718891823818
-0.024051612251184906 0.006263145563167427 -0.08514716767240316
0.3834988406159141 0.3370660642537757 0.21744366049217945
0.43796412950132435 0.224356271659218 0.07950590455953943
0.26736921038857986 0.17466776827023978 0.04838531145662728
0.390790544218504 0.2260467597498632 0.11066206011410884
0.10964189139264136 0.3277420671972209 -0.12674113558357192
0.3411413612189875 0.22998201899943638 0.07124725649644859
0.404742620943324 0.22531176747020254 0.09720824350881685
0.38025537975926227 0.1749222057879649 0.002030492685946683
0.38065192675563253 0.19530111890892954 0.026735501150994878
0.5037143398720616 0.27952329818575095 0.08607494238044922
0.425960590412771 0.25785389446974705 0.13968636631113895
0.3201474331728633 0.22898315665221958 0.059762489401805396
0.3528508393895322 0.18502193529457145 -0.008293544300414624
0.3804403935205869 0.22776683669620468 0.12625028176813657
0.34763072190261823 0.19349090924700363 0.13342568097361607
0.37041049170971974 0.22612896333988886 0.07307533034281732
0.3785393283171459 0.21501681253752736 0.07570771632111928
0.3229851605561578 0.25138866539850824 0.018312771788600912
0.38117082348691156 0.2112125724032694 0.06169671101071117
0.38189832313805994 0.22110162480100826 0.06345606334755871
0.5674208436376205 0.23623980541825063 0.10733268254571726
0.4079200431005887 0.2908300224439415 0.1740137318467987
0.4029502856661793 -0.3298014369801763 -0.46348205963775513
0.4704470410195398 0.21038702173598267 0.06467830899879345
0.39232616291286604 0.21705240791219182 0.09577631597335312
0.4578650649082334 0.19562176997168024 0.05801039185269019
0.3089221238868447 0.2589059875724331 0.04521590418247001
0.38057204155552427 0.2260512905147607 0.0811609574723775
0.36882911606923585 0.16584021319172848 -0.019877376844988248
0.3620868713046548 0.1784087169174029 0.11598664326116648
0.3784857268244508 0.21182019509254246 0.0660865901453036
0.3684317559657586 0.2308398673957015 0.06742803864607083
0.3893490238498174 0.2096215170875837 0.011506739657193066
0.3366826604295454 0.2403280378111674 0.17172290781300603
0.3662038918484143 0.21344254323298628 0.08298617285697674
0.38387328907285223 0.27373732947914675 0.10595316262057963
0.4378054508954392 0.23713045684462486 0.07804023564648332
0.38540339327335005 0.2018374965282419 0.052266343294405715
0.4696759527936081 0.2632456262513756 0.09140335255008836
0.403938768804494 0.19540861511833896 0.07955538795818029
0.36626224300539434 0.21392454224553603 0.09777731276687973
0.4506421075658409 0.20069501588798744 0.09249508773044113
0.3719221536097308 0.23132575061686111 0.049971217482465136
0.35527630430522095 0.20980245573004197 0.07537237238545913
0.40753837173215857 0.20993289330672837 0.0750709374625842
0.3742722985392817 0.19327673729057437 0.020672480213448807
0.5086340015697601 0.2741123836133852 0.08707496013472849
0.38956013720550686 0.22851023297857864 0.06715128393359748
0.3571062561653662 0.19864219905005598 0.0297821264179845
0.16124513609963742 0.2180589373093227 0.004410268369170467
0.4203076627012763 0.22697802277133405 0.027080655312218482
0.8165026510047113 -0.07893558629709219 0.3564974586286098
0.3715536748049999 0.1776212440433511 -0.028731305238579807
-0.07813011804159942 0.33370807410864245 0.1696556101063038
0.5613882067879388 0.23611940511565876 0.07150596010481536
0.3492131659804443 0.208262764681848 0.0833762481039173
0.44409937631110097 0.18972934968252275 0.016206486874338566
0.39085765426230523 0.22544103900136747 0.06992101213026558
0.3440769828223438 0.19577309731312198 -0.05635140613495082
0.31332750891047567 0.23808978115870616 0.04884648712818773
0.3964787047024032 0.23861560328992937 0.07957871161225682
0.31926524160942904 0.27119627070935337 0.0393878595923951
0.3940701567032363 0.2595751243176494 0.1654469558766749
0.45538386755177385 0.21297858693947092 0.019300800997967826
0.3473658091366758 0.22143815214704432 0.07079892245204178
0.43384296310676973 0.233562280202392 0.05453353585906484
0.35834133239484345 0.2234671844062177 0.07501942154036101
0.39312156896690453 0.15834814648196982 0.07428799667465569
0.4408249439891563 0.19382165663849094 0.033174021256968445
0.30231625731704526 0.2970456248648645 0.042482260360515056
0.20024522757432806 0.13192488582822648 -0.04446740651371783
0.3806061341972793 0.21560729636226483 0.07259151485251891
0.3594786331227624 0.21910637298671531 0.07605756776790429
0.4526997953454668 0.22961936463701704 0.093431718143961
0.28274024125320807 0.2391737348048082 0.07032528099149715
0.3919066313329722 0.18618012351723223 0.09698862802096642
0.2872096557205026 0.21345965623795848 0.18370213679557423
0.15052561909210738 0.07696992071601017 -0.15626916448356098
0.5281426299395804 0.1640203569726566 0.14173474137882636
0.36013227864080477 0.23416650867363842 0.08272190707197069
0.37254277603689445 0.19968097756768088 0.1282176260017991
0.490931205348204 0.24465041712045377 0.20316349225484487
0.2905370551003159 0.1552357858757034 -0.12321743155749232
0.44668866535420193 0.12600985746502147 0.038249309056055836
0.27323212339469194 0.17753336891644267 0.03454195582067143
0.3748535743621346 0.2072784109854524 0.0552882814657778
0.22812923875724778 0.29442964842883157 0.16970711175687825
0.43600674460476796 0.2714114852997227 0.1722929867560481
0.4461912561150996 0.2199153296422196 0.10268768595447852
0.37674501962248996 0.22998501634654644 0.07261316845145416
0.3766627641556539 0.22353304915458239 -0.04557399434969511
1.4321997402673077 -1.3712683664573717 -0.8060293236378442
0.40372629266687454 0.2932677881246093 0.10069552057237274
0.4557277784612097 0.1959868376951306 0.09284040902301172
0.38792237425896303 0.20187215611640852 0.08071703102078231
0.4218757186666551 0.2415718500032824 0.06648121647852179
0.5822006990890429 0.3898064590001411 0.136674099030742
0.37905968287680025 0.21540689521404488 0.06855523530396113
0.3668475306417065 0.1935078619893602 0.014915444128249078
0.276871660096333 0.1682627748874097 0.04722830153087898
0.3410461267845051 0.22052467630456363 0.0737714503509892
0.42600859376369726 0.18173167806915558 -0.07618950598174479
0.3490518517668022 0.2642583638393745 0.18547239447823927
0.3219631572776507 0.22904913394432924 0.08904813088628316
0.38733829789823915 0.2442513751365425 0.026212158459827606
0.3904655196655824 0.27870002898595203 0.0024441931690546426
0.3239679615621185 0.1664632031005766 0.010107170616777239
0.36269568960656784 0.21544007459027625 0.04941501892037081
0.22694522689380392 0.2510379403409928 0.18042605565608483
0.4597815600580759 0.21262239932363514 0.1497106119388576
0.876193270363899 0.08358883764913116 0.20643731822556788
0.35363153209416964 0.04059290490286571 0.001351834761351256
0.3203848945041443 0.23288365643011844 -0.0030431819800469384
0.5259119790429594 0.2323553284420825 0.11891878102554188
0.4215257742143024 0.22474599385574834 0.07173097812656692
0.6021124780630203 0.25001124710360045 0.11356395699570498
0.4077676920782096 0.2731734933525587 0.12499103407220957
0.408829891805766 0.2075088365747888 0.07192257896922172
0.42456011346786227 0.224848812157731 0.07947939869106335
0.4085167635754203 0.22764774330917703 0.06759744348954655
0.35290750016045536 0.20145273651229445 0.07809191320262698
0.335925145937523 0.20424453813447485 0.03963691389779456
0.3485197258535635 0.17067930342906834 -0.033682649465959
0.2916567442127871 0.21101298186476924 -0.023910374549075186
0.4998326143164604 0.1352730123321635 0.05783900529470998
0.44898534936399415 0.15402203368606138 0.10870357764062533
0.39023230793978314 0.19524304672997062 0.017203267449119153
0.3644033372434876 0.21737368624664555 0.05033389457068438
0.31830595738907164 0.21944993561550064 0.1474548734073835
0.40857554954082786 0.20779971603454328 0.08693706769443565
0.5016796313114469 0.18225623647386158 0.11768882484528831
0.38050897715977783 0.17721050652603765 -0.024124783384564807
0.35338819800901433 0.19859301131296547 0.07900983377018633
0.3156207456225104 0.20664658427251936 0.0016796607019102794
0.3575788048348869 0.1790115506044856 0.04740642367775649
0.3232591218897909 0.20048277049332341 0.1421302437716747
0.3866171537571006 0.20322607603856113 0.007786234602107811
0.4593592402100768 0.23181316216036407 0.1178489905071558
0.47113613182916936 0.1392451831929833 0.14914663832101382
0.38778548178865435 0.21187593819291806 0.031532361196894954
0.4909469645070885 0.22271716751274084 -0.027146448261390788
0.33875373611627424 0.1989261935210891 0.10529604920367319
0.46883494047841623 0.21797074006715889 0.09530150685168337
0.33659142919586316 0.19200523234854927 0.009358700294427535
0.5524534416576614 0.2557706859594191 0.12400099104313256
0.37319673537132303 0.2061144834642903 0.12536433970826977
0.28369657770164736 0.35082688673368523 -0.10439242416198624
0.4147727158835153 0.14288803526000038 -0.02199239353728899
0.46492225471530446 0.17628943475453696 -0.06660060739184814
0.3600879097794518 0.1627232024805778 0.08801258662074929
0.37254259962702463 0.22320585925382375 0.07204894329129274
0.38603605638954264 0.22894442385049274 0.05462092112858841
0.394336168233238 0.21015231581051808 0.07679039929067244
0.43062570035706926 0.2223396845605521 0.05176540661426543
0.22272679610082946 0.2645647825813455 0.08082199749537722
0.3747719159603662 0.21152889580181977 0.05158430661539626
0.3630499091281081 0.19998174468506136 0.11163570391865107
0.40018951324171326 0.1904197763818587 0.01902271314733639
0.3900318337292106 0.21907582875542175 0.060712353592748514
0.0920465665224981 0.04661899643630818 -0.09664358337411727
0.3765109761670544 0.20747883608461848 0.06365437414910957
0.34776730475344664 0.16793715233259832 -0.01720703918306299
0.2926926647593717 0.25903209837065333 0.20366081435120975
0.4067295052402926 0.22241895325927885 0.0829349285488945
0.40401943918662653 0.21017252298683786 0.07205097305634922
0.41047820060214235 0.18159705778333546 0.20317183920752768
0.4419936260637485 0.1929488037308147 0.048699106630635924
0.399657272532167 0.20838708520737725 0.07733972721686655
0.3986721972464977 0.20639816656067467 0.0644077439323496
0.3726239254045396 0.1938332541833745 0.045774122089881075
0.3381831847025012 0.20275304262879956 0.03721290455627013
0.42814939857601075 0.21097918679686245 0.03580812840223757
0.3974421350428514 0.2366739652930221 0.11006776348590108
0.3449580133608663 0.19319476527186907 0.07950017291003064
0.5167995247499846 0.24630144420251554 0.09558561865412685
0.46534306672531045 0.16766315249984132 0.10009382112069432
0.3974038746463009 0.21696935334338718 0.08239251472625142
0.3712697041716666 0.22526770696555332 0.07417704523217594
0.42432735100373975 0.2063108929258135 0.024144871550845437
0.4191684215140157 0.20184719209532886 0.09556869452916317
0.36513695161598037 0.22143433003751056 0.07146678485243285
0.4094983594286248 0.22260057665792488 0.08453776195187857
0.3620970498220686 0.2288309612360706 0.06181484888938371
0.38690916964308997 0.19987983100591578 0.03660401145654646
0.3846090403588107 0.25069757971803597 0.09174237071192692
0.41706376579456617 0.23618589316660632 -0.04736727752215586
0.3112228266623731 0.2040553268547569 0.00019110161053959018
0.35462284000955435 0.1950352167245626 0.08465951897861146
0.3036989309530327 0.17004342632996838 0.0382509204619339
0.35341722817346977 0.1495702020064158 -0.019825997773082804
0.4590352669358708 0.20776757048867012 -0.0014904176445327266
0.41475202672319256 0.18324117482995916 0.0843936817176143
0.3534486509001624 0.2548590499957015 -0.008591202241007068
0.34665077240077835 0.22370108181004866 0.13814348330919302
0.4173638441035763 0.20749181980195885 0.12282305213352629
0.3053266114496864 0.22608239978812605 0.06574469559058116
0.25758872076093553 0.2237165761982709 0.05076784749384444
0.3453840831759294 0.23484359455173376 0.06514051701833523
0.30985926163930344 0.22234614538808728 0.07000888046788134
0.2579286805161587 0.15723715022159013 0.026542508586999247
0.3196960820870913 0.16138053088096171 -0.06648067995699591
0.4272536284352668 0.20697413847079815 0.04009350323883609
0.3897045787502691 0.22828707256260827 0.06394757493073655
0.370927262924738 0.2595030894773771 0.03427496841302968
0.3859961091181958 0.19350144563833283 0.01981179717417092
0.32471452121450284 0.25099398267204265 -0.005307490182829611
0.43206915473658114 0.2726664601584332 0.18360252913956288
0.4090571694338223 0.22408523687610682 0.11502622614688107
0.3647349581935515 0.21487537005279478 0.07937061773193932
0.41931588813586984 0.2459734032537142 0.1096526712723005
0.4820342078326405 0.21459267322066466 0.02825860326390739
0.41320656137864376 0.2485072129361754 0.06324749393067464
0.40045772213146336 0.20752965311407934 0.03770829449368307
0.3091106814352145 0.20373710816258495 0.03591756481752384
0.37333672207705604 0.22510733334351585 0.10990658684323762
0.49271133277741797 0.2173559824447011 0.08084070487481654
0.3888886853523843 0.20410693826946158 0.05390901412677351
0.3973192669460417 0.26045842742736625 0.02393785942618365
0.36662011394008687 0.20814063437960328 0.06142193683054131
0.3919807789003471 0.18814927864484332 0.030725768673818266
0.3796016430182334 0.19128574681613486 0.011597710401957784
0.3697688490399571 0.23158342464628845 0.036933075470784615
0.3051190474910186 0.24377947651525744 0.17101399144523555
0.40450854449042595 0.2253626605733814 0.02099826798840354
0.37559177282794565 0.23759703013878664 0.11737863872635046
0.39552739213755217 0.17081272184336171 -0.019383587504307798
0.45636719149112537 0.20554130608940113 0.04095929032716583
0.4415638725548945 0.23930066658684268 0.05244891162260501
0.3767530357163196 0.20311643382336797 0.08818549470669268
0.4740343192003138 0.21289044112933198 0.13266055976777125
0.46531831348293906 0.21962397303835246 0.06300532404512182
0.3580475809024648 0.19245800677708758 0.14154393244083963
0.4368010337775132 0.2827319751030757 0.15148003980561953
0.41499754641237985 0.22425373584805186 0.09233703796402892
0.41917890276641856 0.26016485847569015 0.15206139763921556
1.0060541739096607 0.2225272704756378 0.19202668284437152
0.5051425931038693 0.22368019848519793 0.0480041396349975
0.35009250123286506 0.24184533769968652 0.19364057791170808
0.36345941528151116 0.22584626460393054 -0.01923727026186839
0.26814552116188395 0.20472329065690076 0.02793435336593575
0.48651096024892126 0.2297994574929021 0.1796653065048588
0.3601611203125401 0.19857799128803322 0.05397926978494638
0.35640840028548837 0.2059418921814995 0.008924239310431403
0.4022696136465811 0.20142549219701777 0.07804757203226131
0.4762784122762156 0.3911991777321475 0.035367558934623844
0.4079712060122631 0.22263062603046535 0.09406032432718803
0.3792916515521796 0.22508284603176776 0.020082736674879698
0.43934589745242647 0.20512673169459106 0.018904740765890438
0.3369584307569795 0.16084313677581008 0.0680975623866118
0.417429749325251 0.25536589986191416 0.09760732443797338
0.40200449668861893 0.2538331591535439 0.10745814383085417
0.4834898874992746 0.1986234285712669 -0.0536294691372774
0.31024738753779957 0.22302481242128636 0.058619382013830545
0.3855904619615558 0.20969591879337202 0.035881784350465296
0.3720329728006533 0.23485498259603332 0.059750201416790105
0.3208076896534493 0.21136459529768103 0.07329752367334663
0.4061370588883051 0.16204823971574456 -0.008078813875755486
0.4113138497499875 0.16555071774675412 0.012373937326401574
0.38428100463991655 0.21335492712265136 0.054480647508285074
0.3080381373555525 1.1558721106655128 -0.0017500636901104372
0.3609546305575009 0.2838795109933301 0.030911556247161798
0.4226177431049507 0.23395899623494643 0.018322690608272296
0.3841688514002044 0.22738959687646343 0.11994138488154249
0.43995615155952805 0.20143060085143816 0.1073163148671199
0.3874799941538072 0.2088668892725849 0.08548658560849276
0.41019423865553506 0.1999501183557868 0.06548580737961629
0.40207727247155844 0.23254546612368188 0.08969844049165943
0.43114644287044257 0.18120570833775673 0.12672807939554787
0.31709815716928347 0.2911700877300092 0.13661328904130698
0.3692657180368428 0.24090962591381526 0.07042435041202566
0.41827120469363877 0.22795091372077536 0.10182855729986784
0.26119921603843466 0.19872022057488437 0.055158060946979504
-0.027584220661850622 -0.0147777846153474 0.08193482594363388
0.46686619576951216 0.14222199012009185 0.11417369687106316
0.390341217602014 0.21640594036855987 0.06731727889339822
0.4706593062184652 0.23761447706242222 0.10336314103912514
0.27577345207510007 0.1644024312803367 -0.24656906361033748
0.4402555370944299 0.17327773531802393 -0.008160715208191505
0.3782410050125691 0.2100753905214816 0.027359865455053978
0.4383082185414793 0.13258451324767861 0.10424664576021314
0.420815183480471 0.22536091153779125 0.12235976356753042
0.3003568698173922 0.1704882127048677 0.06385420533467823
0.3799592619483292 0.23835288614071715 0.06030160525462236
0.3694650176060179 0.20546483280557482 0.02698987277682363
0.524246296398303 0.21872891853658416 0.03920660561973932
