# .PCD v0.7 - Point Cloud Data file format
VERSION .7
FIELDS x y z
SIZE 4 4 4 
TYPE F F F 
COUNT 1 1 1 
WIDTH 806
HEIGHT 1 
VIEWPOINT 0 0 0 1 0 0 0 
POINTS 806
DATA ascii 
0.3121207812054081 0.20994799230909678 0.04803295013675779
0.40937504498116084 0.274487033994518 0.004944274259401027
0.4324274613093735 0.20610492485116083 0.07509397185965838
0.3492272513242938 0.2505139284633344 0.09749324821774508
0.40319500376701 0.227249679136861 0.07628268831979312
0.4115381257060733 0.22219070740645464 0.060930713450417784
0.38748533480324454 0.21689131616177804 0.06382974993411494
0.41017663015172445 0.22326782899710906 0.08891495050326625
0.38459969742524436 0.19704522546058456 0.042085300695390515
0.39479112543537553 0.2186363143887604 0.07762511637425007
0.45202159331364555 0.2614006255589345 0.1300706356790613
0.4662144817644389 0.2226001949309051 -0.07274043668348895
0.34898396246344987 0.2179687105721797 0.0700787294427414
0.3885053169318269 0.16595892252821898 0.024882861569579973
0.4109164537736092 0.22302412477137068 0.06600668106540297
0.2721537327332726 -0.35448393925216237 -0.4073006187850723
0.4864564657275139 0.2361910097786506 -0.007345861545573484
0.4163707524563307 0.1905005817349945 -0.08280398389129573
0.37202373072454975 0.18073347033239884 -0.0032051423182366534
0.39333454004918167 0.23213876519727705 0.04613321241187407
0.4411836458207574 0.22562915966894082 0.04872683488000007
0.4877654056884353 0.27380938720268944 0.10669873960152643
0.42938731979053557 0.19637841189850747 0.19146667660879757
0.43364500196071276 0.25104453635808 0.17770997874387717
0.5573595964873732 1.2554762427871253 0.25798003614028175
0.45170872314409394 0.22511801425102362 0.07417213678989754
0.4366274224560982 0.2703875596034777 0.1682133902667715
0.3472587336888182 0.23692755277068045 0.05782368458176279
0.365126792096504 0.188003020304933 0.0342852471531927
0.3514620715163659 0.18207123234911649 0.026761804145507995
0.4216627691257884 0.18847013414432467 0.03724156962869074
0.3679992351275416 0.20145800499220456 0.053843253768974364
0.38421972631250867 0.2708000457209607 0.2187405018823938
0.3299352590349116 0.24844082083282615 0.06167427579555351
0.28242991827906394 0.2101506797448991 -0.004410267586976602
0.385326704193389 0.43534832094519516 0.07634707646221273
0.3510028528080795 0.22863654842444703 0.10710300323148658
0.07218612089400267 0.38389728562272296 -0.17766016649409266
0.4509714605140118 0.2512151192681529 0.18034181503109892
0.3534503534315263 0.191989222833854 0.017450872004189932
0.36287555340268796 0.18254335452687087 -0.02935942077202469
0.4060177802233085 0.20361403761428676 0.061762839969190964
0.44410616656819 0.26757861060983146 0.0337937331684941
0.4348281556403464 0.23836079672921073 0.2295972110466522
0.41189215438713234 0.22299182558425912 0.08149672088441662
0.41942113396942204 0.2013522275149029 0.057103835523349744
0.49729910025612867 0.20171495815142748 0.05744976497305743
0.3844071148507453 0.2022417101723022 0.04522458325109824
0.34340141968050375 0.20008474702999024 0.043714251740567533
0.3829612754936136 0.2440879994712759 0.045214383639461175
0.4762653818757201 0.25628852047429973 0.0809602342794733
0.3829757548961936 0.20929976336897482 -0.018652480652662007
0.4860710171026881 0.28825968421300274 0.02873308864207047
0.36201479898662114 0.23020776574273327 0.09236841455377487
0.35970777743655447 0.26615592987965897 0.07649921386318681
0.2949197271130828 0.2558570660009991 0.03256607443231019
0.36818971201597606 0.2216120419132892 0.09991322534457936
0.4281979179844484 0.23927050521373872 0.06639547211011632
0.3684592238898432 0.21630463225781682 0.07240461431257472
0.4893556456599981 0.1741364914546324 0.07826155975294569
0.4495549911648027 0.22369214789783598 0.06235737454218793
0.4635154998386781 0.19163281480058458 0.13624487147366438
0.3939818818474521 0.21424391808884025 0.05825273215799598
0.4244424554437387 0.23033851261314453 0.030133828977113808
0.45585352592043193 0.23660320604216167 0.05967423362187674
0.4783833203542258 0.24218572265402827 0.02100215953686302
0.36339814921318236 0.22071643765083593 0.06846365595802695
0.5940569647492282 0.2599569951549654 0.07998444410904426
0.32298752451782775 0.22194925349896266 0.07321049889810638
0.36981864584910795 0.21404386284265797 0.07531938967170504
0.3057337515723475 0.21569234060460474 0.05578459455843188
0.5034874757825634 0.20957107203135195 0.035935049919203266
0.2847345242592212 0.25379477736454703 0.07364452650976716
0.3809891995408208 0.20839063998184315 0.08960078586908082
0.3780312312065348 0.2060636500882822 0.045565999787129385
0.34039112415004524 0.18597301705334246 -0.012517843316075528
0.36774682204801934 0.14575180650746233 0.017801194720391322
0.37879353362714596 0.2885532516869205 0.03967373125117035
0.30899161090218286 0.21140357138432364 0.21526581822199375
0.4618083197202907 0.20495325085298077 0.15216821343948084
0.40609922910867624 0.2868266737034162 -0.09344811225095384
0.39836223468512344 0.20919293854538523 0.06345583989462966
0.5944282909018881 0.36036444243345045 0.13758574138643098
0.40906462616314343 0.24336306630516447 0.06826250519948474
0.4608327836804733 0.21413972683272675 0.058351920468055596
0.391879624206382 0.15643237425609868 0.05705859422343451
0.3886788885389194 0.24150565237069088 0.13297713182942061
0.4146481863785425 0.21014183448752988 0.07957694620694156
0.4435651291816214 0.2138640303190158 0.002790589763677076
0.45771156873721 0.004867867424721339 -0.008864649480699427
0.38983054776954873 0.224204283819617 0.05280521397926918
-0.06755750817308126 0.3799894058773532 0.06002143341922306
0.3268537140182701 0.2506764917770141 -0.022533408267378263
0.38458165118682075 0.195514386780701 0.12384214551077832
0.2532025826904203 0.26098238905373705 -0.044153741875362584
0.4336786212087702 0.1910421494308423 0.060527950767706784
0.19933660963215516 0.16651006246192424 0.08926274424605651
0.3817678764471566 0.28044368316128043 0.08295410705096629
0.42799309753942794 0.20837157772447767 -0.01189527259086276
0.40596848253659346 0.20467868242653253 0.04541979653509998
0.3812863319470239 0.21182451548767744 0.0518779403867029
0.42522141530983504 0.34255917253980783 0.19369947198303805
0.39263975657921435 0.2454026860136196 0.0043394239839500415
0.41267222415045524 0.1955019423073452 0.06144419690713221
0.492404710565566 0.1969509432280745 0.0019269780018191796
0.44214421710823615 0.19984602816427355 0.08683456486383534
0.33737638290746474 0.2102013367291704 0.05264264244719641
1.531936559673909 -0.13662441735226594 0.2204537622607461
0.4824980584660068 0.2495392807286123 0.13373454529266837
0.2720250084455529 0.15929608371160953 -0.07967441317795476
0.273428916611536 0.2841279869663822 -0.011102105606425994
0.40994274449424495 0.25378455941418565 0.11830445134700085
0.42437151557669495 0.2160864267048339 0.03355892408282557
0.36618712192793623 0.2259804594798851 0.04435818812970638
0.6971594963613938 0.20731260759936276 0.20075883496363645
0.511046090564264 0.24225136807336867 0.050441391203520425
0.3920127023510247 0.20335469737952394 0.05096595441192164
0.3771681496279484 0.1680950519606199 0.05142212533110069
0.25839445379162385 0.1816075709285485 -0.0032785614079955394
0.3782989469716682 0.21944265234253635 -0.009878312345932727
0.43784695045781064 0.2489520558915359 0.11208520940284927
0.36091279168887525 0.19281923305837267 0.017125421962020937
0.4246907791117849 0.18892687496477834 0.007338440393880319
0.36828370742404104 0.2128430596661275 0.04238222326580399
0.3360143750400937 0.2331703304024586 0.11292008731271608
0.38169486497707794 0.2513157739956 0.020111484037215632
0.3978748946913697 0.18492385832949765 0.020947460054486555
0.7564561022180669 0.014726954046665242 0.4620586428417255
0.42724976868123576 0.18223903315467282 0.09269769706102693
0.40213663488435714 0.19713065842930177 0.060988265032179356
0.21429654755343108 0.15634686202264447 -0.04351986520443063
0.4432222079572341 0.22393422079721859 0.025655717544054824
0.41513356776076193 0.18967239298312677 0.045551956266734805
0.4343617205666419 0.21284083301424062 0.07363906965784395
0.4156848437590668 0.2152601686941864 0.08276842244175953
0.37723711430818696 0.2070917993896586 0.04114540568207303
0.3898784388085801 0.2162442438385881 0.05312382707876395
0.43165538984888485 0.20028133731423736 0.025958211950538157
0.5123787586763342 0.2404346906809991 0.14921631149283598
0.3114770742238875 0.18495500936641918 0.04436952782782555
0.5298822017308282 0.19188115201396272 0.047542591945273216
0.3552678616109972 0.22047077379436075 0.06235004158038748
0.336715392859432 0.2166377197879541 0.04945661275840507
0.38593533830575666 0.19430122379290538 0.05927755162721837
0.39364349320180736 0.1821933677190657 0.12323326222212927
0.20230150362749555 0.31824098686428215 0.13181321028623927
0.3807396855166445 0.22985933703483852 0.07781961058810793
0.4294732878857701 0.2584788188795102 -0.002136229214471541
0.3302849640162293 0.2441400189881051 0.12267103233541832
0.22921104404402115 0.34867492604567474 0.2992040897740793
0.4280682800825275 0.24614264699221167 0.15103401911451897
0.4670097888891007 0.23410955810955159 0.02903843735438727
0.6668906577927061 0.25059477012993625 -0.3309622903881575
0.36363159375306964 0.17592577823614874 0.03515467268485395
0.3780024166530609 0.19352741644055982 0.03143364987235486
0.5360546890640023 0.22263670751482323 -0.16457785206719677
0.3788838823782896 0.1993302303200153 0.03819729244290215
0.35755432458688574 0.19518505316329993 0.04685069063154401
0.3940460626693749 0.21712364842426268 0.036588366757627
0.4280671290270277 0.26340465330949314 0.06305934263176027
0.3086009829999057 0.22572297582286183 0.07043993654477276
0.3934367673150234 0.20605374410584432 0.04921011390069907
0.39578106523384804 0.21427597731596393 -0.025791445026669635
0.3938642912848138 0.20238098479057953 0.04508146449626338
0.3426453086483434 0.6984953098072424 0.1376738131915829
0.31793685483754075 0.24366952319495283 0.04878843396926413
0.10384119216820409 0.9451317980839349 -0.10299016500073321
0.43904407824420844 0.20327981003464402 -0.0005466234264304148
0.3441847329432619 0.19406169911769666 0.009764297580403536
0.4302211162297169 0.21671166690487098 0.07949517332843925
0.3414470414316213 0.2536793629110434 0.07340704566149725
0.4609607701782181 0.21518103325034588 0.04529174688281046
0.3525774175677441 0.21688657627046837 0.08956718616408921
0.4824290381650371 0.06724643924682994 -0.3493590682576837
0.06566280166057936 0.2863091634819881 -0.09137358487285496
0.396363192162255 0.21370690084471278 -0.009793318957264319
0.38992592067347687 0.20700790965346982 0.047872567720389725
0.4021491426209707 0.18949661977370624 0.04539183713885109
0.3392821928447063 0.1699144952679461 0.01636834316866498
0.41482025106360254 0.26387870832181193 0.15441914046934357
0.2049011388415778 0.22135588150459284 0.026058607609812157
0.3962336262582369 0.21741517458653448 0.0697769391762364
0.42048709675140117 0.20921195609616916 0.027893667405407996
0.28904027248088937 0.21208856918870822 0.028024576822900826
0.4268771974555534 0.2201569755487469 0.07361069714522728
0.4089083800596143 0.22848738358990772 0.03742612817083568
0.36633233761591555 0.20492620736933986 0.06835486968716964
0.30434602938717603 0.16528617454666517 0.030536584697159697
0.3813184540396719 0.2251166772054205 0.14698279576904838
0.506653782881898 0.1902179820209824 0.18508478075307266
0.47046848416172793 0.21268924042892934 0.04451815858143959
0.47304778720597085 0.1292516024322765 0.012531328936205455
0.37719725287684014 0.21201746063118776 0.03414418738410063
0.38446144159777873 0.22708635044497782 0.06733873133882184
0.4834494993726821 0.1620313935675881 0.06358809913911045
0.39595044142456004 0.1623697261278778 0.1059620436673896
0.35270248971391993 0.21659580303631287 0.04272142149042679
0.417890443666451 0.19918714475113575 0.048399414242837224
0.38085137718528017 0.20188790826776426 0.026174896503363243
0.3988610204709033 0.2340620411476948 0.07646502620835349
0.42020506543767056 0.22106448894146524 0.14996179643424057
0.3676107547707943 0.22059737580769934 0.0326702814001294
0.33498486878795575 0.23985957508594424 0.0949537633947557
0.4170829394889495 0.2276344706555733 0.043002899843259
0.4865560063385317 0.22614448620075223 0.06881863090364959
0.44839799077693954 0.23029448888075876 0.039860436541275135
0.4355607492659601 0.2184375446800857 0.04712292450389555
0.41163725106329707 0.21714510066416892 0.46691430610280804
0.3168781978701247 0.21501658353071207 0.10707055228050422
0.3820349218931085 0.1655315158600672 0.05287305608742088
0.21579558081708683 0.1482891315550603 0.0038495203169190972
0.3641440687855777 0.23741140521433124 -0.008498269197730224
0.139484853026957 0.22400958344843502 0.06530148892335319
0.33867713375643405 0.17517167463896044 0.031190045926109633
0.2335568147724416 0.19296265845274263 -0.027245250355150574
0.4394996495343122 0.31283527822481005 0.11010980769835044
0.45600343238156427 0.22218381497553708 0.05035621647823518
0.6099830476745183 0.3192713971580474 0.02065235957448408
0.3725667898823275 0.20371909624697082 0.011499821718444991
1.5677511950929812 0.2646080327514255 0.546668505543721
0.42818739917072435 0.2376672275260887 0.045357698934225255
0.5046562838541035 0.21756249301574826 0.09254597725650626
0.4672229192563293 0.21615870238811397 -0.011510134150000795
0.40315855230824127 0.2559933594853021 0.09073412216447707
0.3973641450374572 0.2355825881537612 0.0925012620986223
0.5989412388185542 0.2667960763129713 0.03156360548500459
0.30738677910034085 0.2584835748277641 0.08913344643261212
0.5388481879863463 0.191977867920059 0.11768010279647001
0.4283694537537883 0.23906648884261017 0.09258219928540257
0.3947771588210287 0.2806639775956654 0.010415271131023474
0.39171305475558427 0.24253101250133113 0.09638756529390946
0.27900083388524877 0.20140450328230486 0.03515991748901115
0.3661005335326877 0.19693217422317844 0.031649227820935266
0.3984882054801915 0.2304914527611004 0.10325361896339302
0.4365755326057581 0.2009606414652012 0.05057478895673739
0.4244656134623028 0.2104995331930013 0.06155540671076665
0.3971233718168605 0.21514514815694952 0.0557309094515972
0.3975049988119679 0.22255752908949944 0.048531937212914045
0.27586029421991043 0.1708035014474376 0.06342724184793269
0.3017960358194358 0.19834680299376828 0.053392612981014054
0.4042587743352897 0.18559192873584607 -0.05494395218761383
0.4197277107614923 0.21205213206914664 0.06996766865179893
0.462805802684116 0.221220850138792 0.03211122499531882
0.4753024495675504 0.10914134379615348 0.004220901668134047
0.3712716035136765 0.1785608041232365 0.07976727698803643
0.37525300183591526 0.19174898687268183 0.0438597132584988
0.31960751213321714 0.20492942458102448 0.07873240435097273
0.4067406471781254 0.2164361883361039 0.05726372331389484
0.4830158919964731 0.2626561819505895 0.09427868849650167
0.4970337516961223 0.1636171174957468 -0.01441354064613165
0.08874354302673737 0.2325223936549179 -0.1364844430840293
0.4589585472201918 0.1833756183298192 0.035851867606425
0.2905659752591987 0.21512396675561263 0.10937829041279201
0.30358444618047997 0.20814253206478384 0.032329702167245955
0.35667717911402974 0.2100610216638188 0.042733822308179015
0.40777178070317177 0.22109237711838148 0.03004868090937407
0.24641140628176572 0.23441912504500806 0.06329840933747732
0.4040263862768825 0.20303587612627894 0.04863641637859928
0.4427749374766421 0.24334143808306408 0.09909927556628872
0.43032737781558694 0.21133013070451057 0.01932452758802583
0.3296745581554461 0.2693319205707496 0.11169067400567201
0.3631691412383873 0.22738077387779754 0.08737531309951407
0.46945550306848816 0.2194086689947028 0.09877343400215466
0.379048487166628 0.20093598893664932 0.021082256328355697
0.4263600859253245 0.21290956407972317 0.08308713341961038
0.2931493818334445 0.23448844934723923 0.09673174470370327
0.459262928784284 0.24190026200139414 0.10366391663055197
0.41801552576390577 0.1372604437327567 0.05719913204549698
0.47029767184133675 0.20037481274786728 0.058954603045833665
0.42102102806771313 0.22953692932981085 0.029464565427474554
0.3815367522174853 0.19150815859173065 0.07536512096774572
0.4047940654327107 0.2337763670260813 0.09031166281823744
0.2780441202476993 0.15946002917354463 0.057342849480278346
0.36230376877752235 0.2749951442397389 0.09135118644111628
0.4384652076142572 0.1581384913864099 0.06855698635146723
0.3061000087363084 0.22583487005357483 0.14449517139613022
0.12053345274952676 0.15315513991649254 -0.49420829023873125
0.3999064445336842 0.22103676715499887 0.07369806290606107
0.3767442958242384 0.27644430131618947 0.10943083143654064
0.3983635613420802 0.24578369748465434 0.09092165618686465
0.3733305594137164 0.23737034703542292 0.08584324737151405
0.44091703597916876 0.19728177215111486 0.098858418339006
0.38148816494980053 0.19775361980421735 0.04575610746253744
0.41899281904382235 0.22055472900620998 0.09611908903414701
0.31634743908878704 0.2190599008265508 0.0348743066329007
0.3953144945261755 0.1890268594021336 0.06702306437034622
0.37930760133808405 0.19375415993452805 0.062433711429051186
0.32313376100432833 0.19629005822125123 0.039809720809586224
0.3782694650623313 0.17038187878047495 0.08982945669350784
0.38936601402392057 0.25151332577240737 0.041613675393165295
0.08302531300179794 -0.22013230401304895 0.08957880435895049
0.3858545922231116 0.2135694972673008 0.06302770262666968
0.4503332501867021 0.15786484212620167 0.049371404433713906
0.40996778072033635 0.2007874820743325 0.04186628009406945
0.37574525268081516 0.22025531458251635 0.07348529693487649
0.35386253548861646 0.26246018690778783 0.16640313185871491
0.4484153808573268 0.2238680515046667 0.07748602583261288
0.4163890758166531 0.21450675085709747 0.050492165076462925
0.3960562651585917 0.24077507027655543 0.04187564459354576
0.3654522377091496 0.2336048252000893 0.09289116588965385
0.40583832845157986 0.24078514407023022 0.12354724340406165
0.345431588575309 0.23823455867776033 0.09858177210719532
0.44399466855310266 0.22064607026449323 0.09620125917763289
0.30378697404843535 0.2392606383368019 0.008736555021940262
0.40945965793255823 0.22880875209500573 0.08881032119279553
0.2549399040576361 0.6810828304952565 0.2787357198600091
0.42230027064283604 0.22610181066667678 0.07759883926161137
0.429315461520531 0.19796210915255585 0.007271515728888289
0.3895970104473463 0.22587867810528905 0.06951985725099519
0.3689553009999429 0.1449828280431973 0.06661476357220408
0.5459974977113404 0.21933848507831044 0.13393218068574697
0.35317801401117777 0.21513046962104454 0.04239618443739346
0.30829469897108197 0.23348128196477091 0.016855018919684994
0.38866572678406897 0.2122991876247653 0.029612619714640687
0.4547014329587 0.038675860578379684 0.0695616078489536
0.4205294561456867 0.2351201085248249 -0.05339871232791893
0.39076370953966943 0.22425046700945472 0.06012095738458356
0.327791784705866 0.25280421842501255 0.04380843282986291
0.4573243446769766 0.26445651109750656 0.03503913270347425
0.36451899618998596 0.24285489014022232 0.12335035735813449
0.4142144418166822 0.220012113954283 0.08682771968028646
0.3204650689544053 0.18280579326361135 0.03704104269485242
0.38621211689144275 0.21608911643292572 0.05509902123208121
0.509612081114355 0.19295690387383502 -0.004511065638837408
0.7040439476113249 0.38951288914545046 0.6303477579700427
0.3408000007440535 0.21566542280939416 0.11571577715864123
0.5271898415266207 0.21581406968202543 0.09338921940749856
0.29637403830379583 0.27418977724491356 0.08056016517039666
0.46940104639331537 0.22788594771579085 -0.008934097492442561
0.4050067377698383 0.23055240460621462 -0.028296586890178332
0.504087097059795 0.25844345774197564 0.06527310203156844
0.40618370926230796 0.21793253211862407 0.07148069309570815
0.3523050193197719 0.19500411282700725 -0.02307173481034397
0.372445856481761 0.2149957683563457 0.02743359594563799
-0.21008541978068251 0.0015060549506529242 -0.2739625251088853
0.3769815005972106 0.3007589088249176 0.11920775316046672
0.40760741847650195 0.21834265431715494 0.08797945603964763
0.44319598959924633 0.21434229946814298 0.10855933556136677
0.46852529070162063 0.24792745651720338 -0.05639420886190294
0.32496231358223326 0.1862140355348174 -0.10661016630177755
0.1731393570510278 0.27556822575056117 0.02379540769305777
0.3120167274545622 0.21461485681072645 0.053134319070323954
0.37638547048283044 0.19687270368891063 0.03126344487850474
0.4374807910299694 0.211387033623879 0.1627410269571783
0.3484775405595144 0.15203513874196517 0.014188487750203649
0.4063398534988636 0.21927254066550006 0.04978739642790231
0.406538413861 0.2278601957365538 0.05341293083830578
0.42425359317431344 0.2256842045276528 0.09071838031238144
0.2461331200720167 0.22624501866519608 0.026000340694793067
0.3021532768378563 0.24121134668357058 0.08774862224808544
0.4094713965024823 0.18026411198189862 0.029100670881987867
0.41195379246522634 0.24833259508287142 0.07309351988578783
0.3776930594922021 0.24403801223036226 0.09146553137256319
0.43950741436256635 0.25904784430215955 0.13790477082341113
0.2541044237929242 0.18005258095098498 0.03987929408361879
0.43087850934281846 0.1623853344142674 0.054626343977759007
0.462267685724953 0.19096554479874328 0.05476558448035007
0.34180517742098004 0.25019506872803277 0.048413319092745155
0.4317546031888355 0.18151577884603398 0.05081562821256114
0.4342020721801134 0.21903398546507447 0.10807040255602374
0.36769230284188836 0.23852265643807868 0.08000220696126803
0.462828531047478 0.18426370795671687 0.08163845122916769
0.4409230648519866 0.19918822205150377 0.12070113102754476
0.37132590143926336 0.24216313892797814 0.09016195024568674
0.44158405998300054 0.18145516666430694 0.09714014557400219
0.42057159879969674 0.19684265210236163 0.041172342004003326
0.383348903061119 0.1760156600009566 -0.002392219658702288
0.3746687008566312 0.21546090212882518 0.04548341428065328
0.36914146985407115 0.24908501878692846 0.11315240135314752
0.4569442301683182 0.20094188363472654 0.04509384696129359
0.4413362284675628 0.23953861167075274 0.02368963625055187
0.40918521297041366 0.17780746736985975 0.04723398604173212
0.41013625332729475 0.2556971101685974 0.15352270513021438
0.3893645714626359 0.22384077956961335 0.0999777049624555
0.4267511050472308 0.2370171801013612 0.07245505216681636
0.4296795150317365 0.13094655475782702 -0.03009895643792504
0.3849926123657781 0.2161047442605195 0.10613989341288743
0.42797900398356603 0.2312765324668078 0.07615460936156637
0.3831210584299356 0.21621834426156283 0.04503695641669481
0.5151874580180618 0.32296007958842665 0.18392495477519333
0.4351031803572596 0.21612519368474636 0.05890299680663702
0.43265000449591184 0.20456700532025707 0.09358015896216898
0.4470088084687518 0.17312440821291375 -0.01213976671567707
0.5586085479404517 0.2510747200895338 0.14506147302276418
0.3779376025956367 0.16222970582464313 0.01530129214032172
0.3835773399726179 0.22643209693288213 0.05098345531240511
0.42914509265042966 0.23488761469997144 0.06924944635356667
0.3217670138601818 0.14698095577955428 0.10117503698134556
0.3029519520992068 0.18768856611158924 0.10188712707271463
0.40166550041246296 0.22095284478351118 0.13951988133557336
0.3698650226563984 0.18074711064045346 0.06397328085506615
0.4902270844327745 0.2158247982664534 0.018792654058472635
0.4696536439691954 0.1967901107492338 0.02896874432494201
0.4398004506209503 0.16250239082806672 0.14088855247842957
0.4261532977730269 0.21977075690978154 0.06948944010756009
0.41460025546481916 0.20342608492097725 0.05402873392233687
0.5036535388284165 0.2005472661160752 0.04945375603448099
0.37131694358198786 0.2160226167950725 -0.00709414501332617
0.4755228446826436 0.2192422669335201 0.09092933675314896
0.32850856595796074 0.24995406190853942 0.08187084447529003
0.41810360931636126 0.29085898167309665 0.11965202259395369
0.4827851465434492 0.20591565436356518 -0.0017403006553422529
0.3300131484842268 0.23792335548253618 0.12036070493365969
0.40436027440200917 0.2420085596666013 0.10732380999149882
0.4618590957666697 0.2259723893680814 0.0280016331805939
0.3727856873674682 0.2131070334427534 -0.048174615427086565
0.37775818356008983 0.20954273803407375 0.0784741703355678
0.32890596704552877 0.24330719357305952 0.07857965883295037
0.5524226730396009 0.17189558761285184 -0.32669415193025486
0.4447410085844865 0.23604826650043265 0.08505751492529612
0.3501767586999165 0.21977395772675834 0.011859106686216592
0.47508375918697254 0.1966116072767221 -0.05901250883792386
0.37723746846360484 0.21512471708700787 0.042089487789638724
0.366181629346471 0.22161026470321588 -0.004803744760835116
0.3121051155419252 0.21205264937535162 0.06414440200302352
0.348669144509131 0.5201752275116149 0.3662120662851862
0.35836404234014196 0.21828781921391283 0.069740677710314
0.3372364231426559 0.19741217401154643 0.05627787503541981
0.36520863008252036 0.22443891165512753 0.09337634583201293
0.4416146902073024 0.16934398218035085 -0.08982038052944574
0.4018752528165237 0.2133363403343651 -0.02207281680585993
0.4568085779411035 0.20384572686910474 0.024654228555419877
0.3430048259676255 0.20927444146573748 0.10700892898519498
0.43045787883863795 0.1516731913399667 0.00463648494815061
0.4057941928375044 0.20491181321725094 0.08005191640035036
0.4445927567973058 0.20808371116866908 0.0375914483427664
0.3617293211522963 0.19794953663281945 -0.09076109890253292
0.356292678337212 0.19712580808416647 0.049220292896109186
0.3999405912923635 0.2234934330632825 0.06786036101905779
0.6590084698022025 0.0792821431426205 0.2411463448466975
0.39186651079651824 0.24774433363657522 0.037782580605721705
0.36103197559172884 0.21545862126011173 0.019286261959166495
0.37332178705538865 0.22348716416459524 0.030127043985700652
0.36371194701619913 0.1816241395383429 0.014223568587027557
0.45761812245160627 0.21324076899847455 0.05369182686317231
0.39992410340462925 0.2627466268170906 0.10215099010393658
0.38549363050628926 0.22647598512544675 0.05212534072404651
0.3876731917245877 0.2136235138501945 0.07082298742051307
0.5417281620371455 0.06720179064343768 -0.15066613757342395
0.38981514441820764 0.24712105997508615 0.07943074568444786
0.36212072250852145 0.3370080338230679 0.18844086598119247
0.080487122176649 0.1499138276056442 -0.09318330838891598
0.4327990188108686 0.19905079492447442 0.05804117922222929
0.4013694620558823 0.21323767315169562 0.021622155869749804
0.8209117023499601 -0.0952036127456779 0.38995637876408296
0.5622171024484146 0.3070359238380149 0.04338429451399861
0.3492026616289934 0.21178757087764666 0.001873700044029647
0.43635034836239583 0.2693180167742355 0.1239212753246477
0.34838226045954457 0.27570073769970804 0.06048184503950438
0.4271438724074983 0.21857022057868392 0.04818055886356376
0.2973449864402511 0.2194091251643897 0.049674126858349155
0.3504945644744737 0.20680717953516137 -0.002232470669241593
0.3757754887514153 0.21688780236556227 0.046546069325017925
0.37906564595985515 0.22235949524491616 0.045776007449205736
0.38295641954078974 0.20845210616272425 0.042393907156025534
0.47218498846063994 0.24169488780728443 0.03211194093665881
0.4020377518532996 0.18824542448240322 0.47506195427183684
0.5007794170313957 0.18353628506065434 -0.027794653043699213
0.4942340936714942 0.28873560011390964 0.21210715883705689
0.3328893979930001 0.2149577872847317 0.0521371329329412
0.5285328164309675 0.242939435352298 0.08899569373048166
-0.1352237820734672 -0.20815308060811333 -0.3346075858198958
0.38328457824044904 0.19273296053911793 0.07843447737639053
0.3934581901726517 0.18453755425109364 0.04386636286788814
0.30296021503922077 0.23365664246824736 0.11093615412562485
0.3935661067403373 0.20583858957999723 0.09126118482546985
0.45854653999366235 0.1717595256604909 0.056425795390140365
0.37978514701649146 0.21517145014513517 0.02066198794628349
0.35387691401014365 0.22163047577431882 0.043262886858869365
0.3772375884051371 0.20720327963344687 -0.0023072296645949564
0.37897749247167667 0.18153684391859315 0.11632519337294411
0.5704090253246648 0.28993170518667455 0.06712777960041194
0.2724709490943553 0.23350917722153497 0.13795641729177532
0.4208622542027456 0.20886366135351864 0.05108891888346534
0.017348449803009203 0.1551945177343157 -0.04233714935682542
0.48047430268002245 0.1909943749593026 0.08025091271989027
0.3551304405264659 0.20249345015449194 0.036341365501471046
0.39879270504827957 0.21270732161903538 0.05227379360300688
0.4749016636126271 0.28032704586226487 0.15211397050049413
0.2595146878614685 0.1888969122852444 0.045966274511314964
0.41867611359936063 0.24436938985712686 0.09157748441886326
0.3848047068216829 0.16411094806863957 0.031295836409114486
0.4508318376419709 0.3358869261538331 -0.37779152042818964
0.44440990061318075 0.18680896968773197 -0.002634275658891738
0.42671486373671996 0.23096890099017742 0.07277395984411328
0.40076265115314413 0.20913334980332365 -0.09266593514416854
0.38310669137652553 0.20808489486945803 0.05975863694411032
0.4336133482453306 0.21586599758235536 0.08624498738609532
0.3845200437526728 0.1606239507331111 -0.03581468930167375
0.42801911246795044 0.22483295187915076 0.01884101350250944
0.34875917578025906 0.25214674791683933 0.11643844858303964
0.4031356030450297 0.2138672723367563 0.0003208953209536958
0.27729511154532815 0.30098417458231097 0.5122172512290035
0.43352722803692245 0.2254632066006792 0.07863697372323486
0.39010535551642533 0.23845056949940613 0.06472953782854063
0.42519985235934143 0.1978692449925603 0.057897311429428555
0.4951656121711778 0.18342353704909442 0.02486169070135702
0.33785107737398334 0.23531407419463335 0.030200342730424268
0.3326464083605174 0.25189992194461297 0.07068369272367647
0.2589810848869689 0.21720087045304126 0.12232757421782026
0.5073704243370969 0.21147030717851578 0.06933652170171456
0.4192330910626083 0.2239043494332975 0.08888346088629362
0.6678156789945433 0.2744826440323891 0.2308758556578141
0.3137195918104112 0.10726156585694469 -0.03823751097183958
0.9056031127113897 -0.6327166940050404 0.34080397092202475
0.30541137491732684 0.16929161534810078 -0.0021908719855048275
0.4394296754273057 0.20288921261774817 -0.04536749701486542
0.62654656061585 0.12470742085443476 -0.17783249311798954
0.18247001749850256 0.21353600405484485 -0.036712694480115715
0.27507285481678423 0.14927446855728022 -0.1251273245145086
0.41455087778733457 0.2124411699172981 0.04881460383123226
0.3382353305481445 0.21697874796132055 0.09300826857676725
0.4198596173280009 0.20227380027057507 0.08503221628049573
0.4968057569295041 0.16699353031393116 0.16479203342609594
0.3132995878162035 0.17858465527797307 0.047408549535120414
0.5612999061065409 0.12690596665061094 0.07362607440661861
0.24324586097509382 0.2590741994836492 0.11872658894090193
0.3561320447445411 0.20360842352698683 0.0703279710396032
0.42535179987332583 0.2394657575991772 0.06250944904257949
0.5084410672026536 0.20088435091858514 0.03638790156882976
0.3838539987855256 0.1628362772640628 0.09466258148177076
0.42875966825043577 0.2325987573631494 0.09802946406793467
0.3226622519724458 0.17528333933600493 -0.021994274165848537
0.42247902906098034 0.19554792669254084 0.11654597292925928
0.3732004084008338 0.22279379184431036 0.04660050103225899
0.33778882566062407 0.241305868887153 -0.08172555975187379
0.32864021683258215 0.6553281828725517 0.11791343606989813
0.4187369966302583 0.22090642614330136 0.09572574674666612
0.3436375189168075 0.17438476338969622 -0.03286872469466573
-0.13713571465868313 -0.011691501842847174 0.3845377718130578
0.24249577936848254 0.1985442876947019 0.13050634133426797
0.417841739490882 0.23467397534312795 -0.05671658921292533
0.38538258462970987 0.21386517951576423 0.07399849812964021
0.8502238943789848 0.5274692942794559 -0.019279143570571478
0.33998947877854846 0.18271933843482202 0.0342119955696063
0.39241341400948215 0.23568306285068275 0.07167923566609602
0.3781783991163934 0.26165590553708284 0.15492543783568635
0.42889890429501065 0.2438796467885993 0.06713568960520888
0.35133188077722366 0.21389820861071485 0.05170869060427208
0.47915848195495414 0.21335037892403363 0.0705448062035714
0.3081541334184692 0.15447264703928454 0.02499782149737939
0.3814020973202048 0.19852041452972458 0.03743298323669819
0.5198030256015755 0.1425631313902329 0.08935679883197167
0.4322907149939965 0.23368442379818077 0.14716429298422895
0.315541948862915 0.278119715592112 0.011490256752978212
0.3969286239414629 0.2110430000303154 0.019840300839575775
0.291827498933543 0.20723656912466026 0.09129339793591384
0.42487419383657254 0.21850732563737552 0.045457676964247185
0.38102448857421223 0.24571070583346 0.09357193344976622
0.4816432454691153 0.26085250419380657 0.05808125080721993
0.41769635858750576 0.21684137987656982 0.050241191505705274
0.49655897228478807 0.21775763006755255 0.06828567875153624
0.37087313272390077 0.21839975548741108 0.06993088989000285
0.44128789937013835 0.18005890007654557 0.036827031778571495
0.393974131379224 0.16704266531104395 0.09550312039863229
0.3736200619086105 0.20315510166554418 0.03949611337348813
0.300969627786543 0.22040580192549442 0.02760217463179515
0.49137463441411455 0.1423274303917026 0.08508212592715836
0.3255561389472632 0.24973061147358067 0.11195866543235411
0.27423754099851294 0.13493013695710943 -0.012557035047933596
0.326818447106632 0.20070734261406642 -0.1459940039539589
0.33749600467679386 0.21088327779833094 0.0659451280415908
0.40661563495173425 0.1962684136621533 0.041577057086911395
0.35458276910094355 0.2586172162907303 0.1319869277489687
0.4400502128584378 0.21423373029139725 0.04838731874986024
0.3652273232834631 0.23075151125914317 0.11859601746107273
0.3360437262258671 0.22069519509636848 0.058275951352101174
0.06361573065660764 0.9467540769846039 -0.12328520643114871
0.40035233074834764 0.23070886964362103 0.04424349291801377
0.4104436745782891 0.21865288353018286 0.055686377282327726
0.3257224043508984 0.18950298397908227 0.1246642459732783
0.43013760419967184 0.1857550036718152 0.0381962976047987
0.3825009298062412 0.2508710505691596 0.04881158120727491
0.3759305396933428 0.1938293417625232 0.03436447774906526
0.4450766148978005 0.24142441836380613 -0.0005062280334016123
0.2512883739451581 0.4805794535494101 -0.24996578841881956
0.45880483193639066 0.20602231405908356 -0.010448189465819269
0.4056887044077655 0.19117703941893183 0.05412666115130094
0.4193482466518219 0.1978375309358711 0.06938627493840954
0.05704338326259517 0.3272683439122943 0.1719689241635649
0.3313898270428126 0.18489238788257012 -0.0003594662683212846
0.3667730071967412 0.18924195579529624 0.0755462484244589
0.4277220907506205 0.20853544740629104 0.03760021865531371
0.4432543832866145 0.22376388431015926 0.058182973247127734
0.4385257788387378 0.19410856634642926 0.032141306669643654
0.40797203722459585 0.2224683589865606 0.05543110830609521
0.293585420278788 0.19322435487592315 0.036832209647400305
0.37995456923428605 0.2042547040658178 -0.02309056144460442
0.29620819741580817 0.1461731865609579 -0.07953179593292248
0.4393504812475584 0.1975740098254164 -0.007900255421319002
0.2785850623468349 0.18631984628140685 -0.05057779364676662
0.39691554804231544 0.21871247689357176 0.06731822726291625
0.5988614290172336 0.07434899350081992 0.0035082492666020926
0.3300645234778443 0.22388716264620712 0.024966930100177365
0.29242409163816774 0.16645480822960224 0.03313969233147418
0.46979873420957574 0.301501668663704 0.08360741519840076
0.4437236449737867 0.2591725028835157 0.028918995049821206
0.38282717085785123 0.16854959315243434 -8.247434806207821e-07
0.49040745837049826 0.23950053883362443 0.262758134352822
0.34328765949531714 0.22897614877901162 0.16867148960878353
0.5345231115146589 0.18764595675976636 0.21414029050241368
0.4399877996847721 0.22300813719846246 0.049210707429239164
0.3001812352480613 0.19158095620485938 0.06364932511525012
0.3742613318754735 0.19854968369176618 0.041999661044542336
0.3064688823025392 0.23680601344455 0.008218254611335851
0.5286316333142622 0.18507145058092078 -0.07411821080398795
0.3857063022817613 0.3089440550270979 0.19778251648889977
0.5408579969541734 0.2451631158011338 0.19747089610088153
0.4505081975432006 0.189138419008259 0.1529332181053178
0.45281516171851877 0.24398757889034073 0.10274271699496751
0.3463275714668299 0.18468877647234194 0.090973329666582
0.4258552556358097 0.20905574125762882 0.059036821859976385
0.3714089334354753 0.21332477849078657 0.06987150302936129
0.36137744142357064 0.19572486804845823 0.030131138638552102
0.3475017761464727 0.020038016979356144 0.028061222112199857
0.3624841789414006 0.2080843007802855 0.06669529579852451
0.3811300121969623 0.23111202972926037 0.004026669136138139
0.34861370508002665 0.18873941012022044 0.02003952967419309
0.32094864466250783 0.20087245020003763 -0.019645422596425988
0.32740032030667976 0.09691830863248185 0.1855267697340821
0.5103132468439497 0.2161448056551194 0.08124890943139462
0.45254651021822667 0.23735359976294035 0.08923513543149397
0.371533298850764 0.18215289285797098 0.049782676877768495
0.40757625434279987 0.20558116332398413 -0.00044685145934408865
0.34899780400348845 0.23884807788033413 0.07868159238651629
0.26221116349367435 0.1390529891231722 0.07083977084586479
0.4006155669685256 0.19922056861959447 0.04506639716963434
0.4230654857834537 0.2544873067732567 0.12818954960499696
0.3743881376524598 0.21861932815430407 0.05660295855952313
0.2950933827764288 0.2182202238724642 0.023076180958653936
0.41443763310613235 0.2246909344891037 0.06649110613952303
0.4809267888813906 0.19459731599530983 -0.016996589388099892
0.39287812833229907 0.21848034001186534 0.0996225303893965
0.3745568490678295 0.21026861722933177 0.06280712073061068
0.44838772439790375 0.2242119770088351 0.04448202530237211
0.4508577517453034 0.21185711438670296 0.06338783759416344
0.4101809314518903 0.20698387775243532 0.08525350358036121
0.38794166274000474 0.2305156171247802 0.07947891712834121
0.3486565662077652 0.20057391492680665 0.05569317372348337
0.3446100873466236 0.23329142155799332 -0.0015539762015066572
0.46911225053368355 0.2133149553219198 0.024422825767999257
0.548424261260493 0.15429298696416538 0.10652455239386427
0.4057566741133485 0.21638289042564907 0.0634106637305365
0.29629850404742797 0.2044390468348638 0.05201849160445704
0.40497512735764474 0.21833558661035113 0.15000674880724318
0.377288290116752 0.2019501690580654 0.09062390798624165
0.4145886128759315 0.22772161291686643 0.064384960457744
0.3725028219184736 0.24112059242018802 0.09556360611276205
0.44071428283785963 0.1471268866377784 0.15839787116098591
0.38638552793912595 0.1958749635578556 0.017129703093502258
0.28261992034885 0.18569069108318104 0.02106686579341499
0.37189101032865324 0.1724050456916757 -0.014409419250299038
0.4942305215397198 0.2666774982804867 0.10098577338160908
0.33223977214771594 0.13012693971022316 -0.05564346825561017
0.45749734405330855 0.24526980010398347 0.10226355791971287
0.3168229931845019 0.24323307972085217 0.2503969997228097
0.42052390065428824 0.2163140215602084 0.04096384360282457
0.3880330912112413 0.20398901691388005 0.06883257154177613
0.395647705905958 0.20609966339051766 0.11984016134307751
0.4528096204717684 0.20092117523594766 0.14272945056058006
0.367772614028155 0.172288261843633 -0.04213510349747196
0.4451470572533083 0.20039850401923331 0.08415285609049761
0.33797699041357987 0.26111460815930343 0.138639506226383
0.3926973237295499 0.17548443350320042 -0.014840884077145233
0.35389950010095106 0.19623207479386906 0.022542545370114908
0.4351678903205425 0.1845039437999958 0.046624951935086756
0.3718248095867125 0.2584474177053835 0.08933849820735418
0.4276307679664626 0.23184123058535988 -0.013305660335987568
0.31094644838493934 0.22005698318659483 0.03208345217569786
-0.0676816348755267 0.4421648418914117 -0.03013275430596707
0.4081474281547628 0.22144469195906424 0.07995403052589722
0.27108772787659063 0.3198335899433573 0.027662131052238692
0.6184123966552448 0.08166176877563203 0.12907872190345415
0.412021622682758 0.22508063917516097 0.05471585269194179
0.3673788880303164 0.1902819468383825 -0.016655108735136537
0.4766367580377846 0.6855794604980758 -0.2747191198530601
0.45632135438367527 0.23311671737141637 0.08404198401601093
0.27714234233084767 0.21964633676495282 -0.0037263170354435715
0.6224591824721983 0.2021617419402162 0.05472718742007032
0.31772032798087935 0.25370589911594266 0.11254888679357578
0.3622557422496584 0.2935120793536896 0.04117551139694342
0.39767601000625064 0.2692713867793515 0.028190930285575178
0.45795751867768786 0.22719331061819048 0.074677944129391
0.4257149896784824 0.24069002699634723 0.05814729089655657
0.3898026321575827 0.19193605413803994 0.03888046444910742
0.3572469962674347 0.22497311666813857 0.05284189486118862
0.45365016970146144 0.2013480087654358 0.030462795281749777
0.4791064456380383 0.15075964297435007 -0.1601762193132572
0.5039787792938171 0.22210415685675855 0.10555538376711127
0.38635412344854103 0.25246750347892544 0.1457186763560685
0.73996488689437 0.3417732334839627 0.356161975931542
0.41912349122461023 0.2347327710652536 0.0710593487600022
0.39709879041805607 0.21656498926478207 0.04882128836663924
0.505594143793644 0.2298382606393119 -0.004432499051276295
0.3698530808470082 0.1862614352245373 0.0754184788111445
0.3697210459072977 0.1642543063974955 -0.004193083225345617
0.3701056029440224 0.20032560741071848 0.06362241132974589
0.4186810706383426 0.21796179399510152 0.05027634056405361
0.40295719154400444 0.21446413410347986 0.07958585862596124
0.3863138837374436 0.2104072862749149 0.05876252054986253
0.26494191357906516 0.14138992879065881 0.030640879594841408
0.42904067611024743 0.14396952624178994 -0.014147809546088297
0.3419171411566708 0.2163539502433025 0.07958699309169504
0.40683279701266883 0.18681567590093096 0.13722523404767628
0.4126584027400497 0.2256954269281124 0.04908412197117684
0.41699872931133086 0.20963203191244872 0.10111329815080694
0.5379590884711405 0.24787780684596328 0.018658748199499087
0.3681387777580625 0.12437657220461062 0.13459787126163292
0.27684911255916234 0.21405236845572517 0.12665688506379524
0.43361841197950923 0.24317046660746655 0.04825587492655359
0.45272448346162264 0.18583500736947656 0.10885879957453426
0.4031589629329062 0.20779782768414634 0.04475589079186193
0.3884745029371146 0.22791220136494417 0.06425341190438871
0.393550063327865 0.20216378478575336 0.00277218246759503
0.5536984798785056 0.20131840148435742 0.03777737761009803
0.4129230596666389 0.3006934076684047 0.12038341001117203
0.4986379281799884 0.16359219785324797 0.010823762753460642
0.42695348889316165 0.2234484783926547 0.07249665619158918
0.4656595993608903 0.23847618482341204 0.13993389472065587
0.4595969493938554 0.23619219038985761 0.06423334034126071
0.3617346666097774 0.25040711717913666 0.029824689192679443
0.3034029395746103 0.2455875800955596 0.11414212317444594
0.43175082186402847 0.20821404634143903 0.09317224919028888
0.41349172542331303 0.23975458260133564 0.07844850852472973
0.48209493841386575 0.1807282819466849 0.012664428118554838
0.3762835552836066 0.1949511737744416 0.0032861220967390636
0.4814220342359192 0.21034929844989847 0.035416782932202295
0.3640277002659502 0.2090222219415523 0.14116247039055452
0.419721876109719 0.2080252282326569 0.06627046287694327
0.4440891044094286 0.2579321455694128 0.1762165984797548
0.26172899199291066 0.22111875209904497 0.12425306904481204
0.42281896254193896 0.17742991645283723 -0.05995061575083582
0.27487499608334076 0.2119941997029855 0.04587625125427053
0.2736721106096667 0.2620285837444385 0.11052932906848412
0.1325960808944444 0.9349478075671129 -0.15167556445754826
0.490639267442063 0.2278086978253384 0.1561603737481363
0.39133061733829777 0.20522580985851846 0.10047151427019685
0.5103323957542898 0.16546521013435722 0.022267083425603573
0.3099021529036179 0.2061594885448983 0.03513026023304633
0.47101248413285646 0.2033529246496073 0.023694098998419122
0.3700356280710082 0.21242633928707733 0.039045701837721936
0.39898019576483534 0.2788937060075227 0.03771427807740224
0.7785828135928625 -0.03861035553845227 0.5090511386623717
0.6237217196087101 0.2739571287285969 0.21120508212612776
0.6005416402879149 0.24550281994984857 0.1113649279604374
0.47863027727876784 0.2159024009478685 0.06609184373081689
0.32070518117038205 0.22744071751844785 0.0780456995487242
0.3676806460222508 0.22406286290706134 0.09907975530629187
0.4190399565247134 0.21718670399418727 0.059937192180683496
0.36597464759130105 0.15535220289345375 0.06529627866241583
0.5180421499692471 0.19636474305670504 0.06445754282543703
0.35510192522221473 0.18933884393022993 0.05435463733853396
0.283711131807479 0.19697813627479377 0.07951910868041523
0.44182999262912404 0.21568213433386063 0.12434166244668177
0.5432796568734091 0.2293223553433279 0.08755718904822629
0.3888950298465943 0.21811136077076299 0.07920556594675077
0.2963033612280981 0.2238120436054487 0.1386384185425129
0.27704543846220986 0.17422670538208251 0.06785220069446041
0.33183580631222753 0.2071912410338541 0.08098808698662197
0.40274872174512666 0.09751431420312429 -0.01080524269673333
0.21786895496457248 0.118239952385224 0.02603998409426822
0.28603565339255965 0.2171788630077458 0.041507033341673605
0.3271659360283792 0.18953420186903713 -0.09819636338554005
0.5590694631308963 0.26925475671494326 0.1189018922121079
0.37965649984764127 0.22040892711612514 0.08664940646580988
0.5157493254874339 0.22185415658302077 0.1719903448428397
0.46470336863842476 0.24559289296743714 0.09395980211449739
0.41088469515543125 0.2052060673963183 0.04357746824042863
0.3539579347873314 0.20638095543552026 0.05228772951603844
0.37829097180556914 0.18301132498802986 0.023343714709952224
0.47003699978361624 0.2071053222506123 0.03585404360751454
0.4658278498141044 0.2897433096851074 0.18238626389211277
0.41507694969794784 0.23315810798338532 0.10117395007233654
0.3649455477629715 0.2189442115108875 0.06478231207258034
0.31807213527015676 0.21354326230517984 0.07337983934243653
0.39981284825958596 0.2206802506162262 0.07200570681906981
0.4454985263728872 0.2466385627469947 0.07194061139671248
-0.23612496949317574 -1.6589469444656686 -1.5068806096297465
0.48165168411981085 0.08295579948203624 0.06797889884325059
0.3962799085157087 0.22064067283744748 0.06534318482704293
0.3454013413824555 0.21475424554461142 0.005309180448648476
0.29846862253569384 0.20863934435539022 0.19114245725759815
0.37024465441881205 0.20689593633940717 0.07051099513944337
0.3866620786909891 0.31726105338867683 0.1560038665102752
0.3745758698966597 0.2319108655978397 0.09112459855573718
0.39488785246082614 0.22676274917579065 0.09658702209642911
0.35008118847292735 0.20178219941188047 0.03721104642927742
0.3105443984676697 0.2083715491592386 0.09512520570586958
0.3727154035177449 0.17899890258200912 0.039752266829452765
0.5003831720409835 0.2631711213002461 0.1491918933678562
0.3485445478986122 0.22530380332835875 0.06092622174894302
0.3493654042610075 0.21179186107676173 -0.05417299613125692
0.4086112767664929 0.20711225431327307 0.03530196906376659
0.43865995231158195 0.1763721183226039 0.025247491239696274
0.3109794593942894 0.2056873663147485 0.17486119849442616
0.3648114034411236 0.16599608865823257 0.001641525928036458
0.41044901289026825 0.2080049017457668 0.05911190490743934
0.383131378478879 0.21822161207815327 0.05561994498756917
0.35797374085208844 0.21935080246549887 0.04026474853102968
0.42555532776337657 0.21434680769652914 0.06637054625164751
0.40692252972266374 0.21166219968964128 0.04940231077617341
0.4452607983387935 0.22216550585959283 0.057085635015170055
0.45339086515625127 0.27037168962301905 0.15322213651464267
0.4379416684419084 0.26385177133207094 0.22893777815457383
0.36568571924166804 0.20735207752001372 0.06560445308790008
0.3846793829505941 0.2612353551253648 0.08827454402862145
