# .PCD v0.7 - Point Cloud Data file format
VERSION .7
FIELDS x y z
SIZE 4 4 4 
TYPE F F F 
COUNT 1 1 1 
WIDTH 805
HEIGHT 1 
VIEWPOINT 0 0 0 1 0 0 0 
POINTS 805
DATA ascii 
0.45516913879068 0.26498100014758563 0.12188507707509189
0.43616691729502577 0.22123233233881479 0.07411877608107886
0.381274697045626 0.17575846865227618 0.05051411999389188
0.46790170273777676 0.2734393935046029 0.16106994603524072
0.32967394342388445 0.19677354758769638 0.11416900278197772
0.3652762221407784 0.2404714329491071 0.0713361671413395
0.3893500528735103 0.20358691786435656 0.03706260466280753
0.4205073694912187 0.23870873506635348 0.10169494038413518
0.38992477440956463 0.20059354067963397 0.03583828974598191
0.46286284173794456 0.23412848083165727 0.05966326940409772
0.3130816514361925 0.2158068128753854 0.17164078420691453
0.4814197207683151 0.18587215151755743 0.04039415263628143
0.4240495709487959 0.2894282611394061 0.1318173304760819
0.41891915197908247 0.16335912251335571 -0.005122519224272537
0.3804813138265217 0.2701760009707641 -0.01324656161062876
0.27491111923298206 0.171622633394378 -0.04268727986428189
0.4358318665973684 0.2295805283036998 0.04726264905605149
0.3140877928424004 0.2235680153449664 0.04509621273801656
0.30772289613497605 0.1773702762981344 0.041053190824939634
0.40639945749370554 0.22064375235120792 0.05223404651661667
0.408434118099251 0.19860893445806482 0.04854862018120798
0.31135342085138973 0.2123570279712652 -0.01334106127103496
0.3582451045243147 0.2035313700639847 0.04584369675856692
0.37689467169713 0.3080504261877479 0.11985469224072176
0.3919081489926981 0.21906474729760816 0.04552573327356413
0.37896086435549137 0.22321042360005094 0.06860667966191158
-0.08803599932218731 0.5886775577260437 -0.28559387812187254
0.45950076018479535 0.22112785162748594 0.04716004012968256
0.406205402884666 0.21072589980168743 0.022585322704387067
0.10218477497190293 0.6306890044114937 -0.11849105328676046
0.30631859470803136 0.2009422342811149 -0.007525139392896563
0.34208385165666755 0.18722564928383179 0.04815310854056065
0.40465383292286106 0.2318448780213913 0.06850993308725606
0.5043381834573779 0.1849057299331065 0.015194289810139594
0.27477664514304934 0.09162118896554716 -0.05769290165927998
0.4002577616713836 0.20562692967385487 0.05626859148902952
0.4071342547514689 0.23421740600062435 0.08231327178877734
0.4403512169011492 0.22698565968758544 0.09067852282868216
0.40062395390447136 0.22132813196239454 0.0497305276631721
0.2993752624029611 0.2083388566494193 0.06240415626689355
0.46958506106349773 0.21921067863124222 0.04810705952979788
0.34552563872398423 0.2702385512683918 0.16795186193832023
0.3875234053160739 0.20186334466416156 0.034798184027309276
-0.048012468027465616 0.6027983666265584 -0.1809325703942477
0.308074880429956 0.2180870156168453 0.06191017071752469
0.483461938603881 0.20898595910958306 -0.023137888446285615
0.3973487782195093 0.20486064478234312 0.03975863560685866
0.3759465498594068 0.2277461988399807 0.02197440068076162
0.4196138196523975 0.2089397833333635 0.015739817171606774
0.44082372850263596 0.20300798874950488 0.03831872799085545
0.4172704698824674 0.2688543074559959 0.06481546457695231
0.46140833808377124 0.2287143183649789 0.06808408233860064
0.41581554898385775 0.22474303193644118 0.07501513165793483
0.331553729655397 0.16438350472131447 -0.038297524243830594
0.4192892172987115 0.2127502448815335 0.0628682361875974
0.23215260024205975 0.23905517895019557 0.0849156926593082
0.35792369097225674 0.17385331162778073 0.06110575135298291
0.383586283542769 0.259693017311605 -0.013494239707014799
0.3952398203037575 0.2153707449886184 0.054376016014686
0.32523988233729995 0.2335772079141094 0.09099813942492574
0.34267618190413884 0.2578922861470829 0.09726951724167066
0.45014735656964433 0.2018446308814248 0.023669735016397908
0.445472009806565 0.24121826970983307 0.08610032770138787
0.40212404440218563 0.1671332545230655 0.02912405108634175
0.4677989298429992 0.24214260468373539 0.07241880348286145
0.40750178460599784 0.21275908420859935 0.03062142756377284
0.4103175325268609 0.2282458586822429 0.07677195306587237
0.3799372573478479 0.1941815180314137 0.0033490101342010803
0.11065532972608594 0.14441623506482415 0.17372890566146282
0.386003243328787 0.2744823286144822 0.05278752264771924
0.5085161606208288 0.20365782491901996 -0.012367576941585412
0.3359978788737976 0.169370912383755 0.004701705254504418
0.43032910035634586 0.14145947993037566 0.0036883052380289882
0.455293311938604 0.23360252176647123 -0.02558011802923943
0.5008443210949594 0.27057826857927125 0.03140908092743189
0.4160524626186657 0.21797916082353197 0.017450857088022076
0.36673876806369776 0.14300672727398478 0.014044114943772001
0.44375804671784636 0.23108976317075758 0.11325957862331393
0.39691593445311923 0.3142593276936907 0.08243624526777182
0.2638596311946628 0.25243593661579666 0.16316034201778962
0.3035053103686636 0.1631339212999876 0.07510431538096896
0.38426852480880314 0.20843677974957586 0.055309709010572305
0.3694976854469587 0.21845111563180808 0.05692087535197743
0.33513039548461165 -0.3495462634256654 0.14028049643718532
0.4122837493768827 0.236761257548892 0.026543923705006023
0.4386629836527334 0.2458978774321139 0.06257255043726673
0.3944046712808955 0.21843735601950698 0.048560165559507595
0.5616206209984682 0.19191271654933928 0.07354902969137811
0.3621795014935856 0.15786866127571386 0.007701432872849523
0.5641506133934229 0.18773366675002023 0.05065910477220825
0.4313003056797129 0.16917357264387078 0.03826692355764294
0.4430687148191055 0.1321836255761184 -0.05754901430614723
0.44489921842333047 0.20001760834254867 -0.006636978253482084
0.3884080851918128 0.20853616570668976 0.029420958754698745
0.4302333321665799 0.2258945970519335 0.09378312225106811
0.3067937773022891 0.2258745478750086 -0.010385535232956045
0.15034707679302528 -0.29888016845930565 -0.5727768424677322
0.44606942254145565 0.19982743326097818 -0.02751430651946407
0.37489553388073205 0.2097458195246702 0.01673408958026812
0.517064678882889 0.22725864937180518 -0.010983453849149782
0.38791316793003716 0.22770827545565453 0.037071780824817324
0.40804892442079677 0.2084520970663135 0.004973247441398598
0.4551120142910321 0.2574691513086549 0.01696579971124379
0.4101602616547524 0.24872599676153584 0.05459995163687381
0.44517366346182996 0.19360713878430147 0.0572307955631004
0.34540516227980333 0.07034718614033864 0.0404505568416198
0.4452386631620868 0.2129680963069518 0.04189813090124517
0.46724977605018125 0.19221050800231865 0.08768128052950885
0.4095875685960806 0.21688097220012992 0.097578907148403
0.4476981616730882 0.21597726761942226 0.05676451400671567
0.37374297417699154 0.19673761461301353 0.03417584903979787
0.39104279788048757 0.21172659691308127 0.04555007061138383
0.5000930290297276 0.3350904703874278 0.6175995522923472
0.34208268231091665 0.2509256707068488 0.05272192885368554
0.41482959160090616 0.24926027819739716 0.07590797185956433
0.5751801026130181 0.25607954377710485 0.06378322697740657
0.3301724381782094 0.20205824054966115 0.047143497297213344
0.3275205007217039 0.10911491392243988 0.046602973474080045
0.4447688781143313 0.19977145899503057 -0.001737278678376697
0.3703531762179466 0.2633034052783785 0.09066996571516484
0.37125377040771923 0.05828157597662198 0.34014890486325555
0.4546231239254155 0.23644678058980162 0.06881356549385487
0.2593785337243446 0.20482308176815422 -0.032630427455458744
0.4120059169906938 0.16786882208198506 0.035798983868915
0.42416504790597287 0.22411556159934776 0.06310696352996104
0.43370326848835816 0.2617125012253325 0.10736567338570069
0.507269715424286 0.21424446099928218 0.056335355357703065
0.38247028629878344 0.21843636539335876 0.04031001718234961
0.9516850717252225 0.4509381323729258 -0.08631541696041722
0.37101005451359015 0.19020246533050056 -0.02131757902583331
0.38092325630842083 0.2561496771241707 0.11165829350741774
0.38829555924269243 0.24252826968060504 0.04036330333772753
0.4167933692203718 0.23128604583926915 0.045448292795327916
0.4350636993537478 0.25435616036978104 0.09753328622666402
0.3495652615376912 0.2174945409092004 0.04146574850739171
0.3783277387789781 0.21833627205373318 0.04404079421189522
0.4063109987730371 0.26182029487532077 0.10873711865734492
0.45737701816275944 0.2234255347553642 0.05284329680610256
0.30292433264526153 0.23077478175088117 0.05898781843725942
0.411282138812453 0.2168000176480973 0.059607022818937594
0.3591186931857635 0.22896421061749095 0.025670251576002556
0.4053067885166399 0.1930392652031685 -0.018638803231567636
0.4556936132143221 0.2102781743402744 0.0622667324138888
0.624498468505081 0.2832474931944233 0.058174547509381114
0.45508454387655206 0.1907790829679641 0.028313057863925906
0.2579924290979534 0.450567054316906 -0.06780376579246195
0.3738682931058861 0.20484546593515063 0.02567853408548615
0.43127278752885445 0.12730078639877718 -0.01819988653697635
0.336333960150057 0.25081493391988374 0.04375074347265695
0.31344992400750016 0.2385409106885561 0.0101576980815139
0.407334656314589 0.20395978691554717 0.0689924123027339
0.41061117478747633 0.2974429674457042 0.08434199819637911
0.41791576637680805 0.23977171782985351 0.08704128856291504
0.32741336938613586 0.22827809375480967 -0.023623694710721566
0.3568002038272766 0.19693563328361563 0.0023186020989669487
0.36566745911162 0.22430909827851053 0.03454160813444673
0.3550421443478342 0.19645057081464756 0.06721334494466191
0.31410873330284517 0.18488389875508915 -0.07740461454730507
1.1334265577652616 -2.525846089940302 -1.330763788559807
0.41947132731272063 0.263608834736317 0.1017974752493842
0.5090608603936744 0.21562101833292502 0.06711147968267994
0.4844177732561121 0.17090813993326037 -0.01654701590990726
0.3969506618927312 0.2653934766522781 0.06654888921457314
0.637998286193934 0.18307010895935605 0.24818569185964634
0.38330895807004595 0.21192206883087295 0.045379950892879606
0.4261100558397146 0.23075972823814084 0.08248809808952728
0.4003303507380451 0.21089238989559078 0.033845783816644825
0.3287593025044657 0.22580708642723835 0.030657331759300632
0.3930721806634949 0.2516738075392482 0.11018545754490106
0.4403242295847605 0.2151943872328559 0.022656405669522428
0.3196372348668035 0.22395126232171947 -0.0008257753248699373
0.45462966646306313 0.17249305398274828 -0.030465747983569713
0.36009526649013424 0.19039920466636318 0.04283383821257303
0.47122302989099296 0.14220737806809325 -0.02547749640326913
0.27669373347045223 0.6658280913199519 0.5582349121201986
0.32558117164685996 0.21011848768509367 0.07032053807317595
0.5146781326503174 0.2812389333371499 0.09255972967758908
0.3982429305803947 0.20794954244129826 0.018085736898058258
0.4334044095146936 0.19733380763963737 -0.0818880303464482
0.4385283255271588 0.19039553427148803 0.011447739237851806
0.27856233166946254 0.1961515194232959 -0.023761365758758757
0.5329842905971134 0.3000109351081761 -0.016962064271496047
0.37720759119770264 0.2167075949212034 0.05011469874372665
0.3162046271040566 0.23293172314987487 0.08979300720451988
0.46204601987396643 0.20534995311737703 0.008054237392002506
0.44947839335117123 0.15315556630358174 0.038242997114991795
0.46303628098654315 0.2320541124552733 0.033115483024886316
0.5265572640568621 0.22870689237086594 0.10390795829226818
0.43097522198340243 0.22078989475096478 0.0677729436160206
0.42862698209947325 0.24111515984266418 0.0839263415943492
0.3381921083253445 0.27200904738769793 0.1640631834796551
0.44961605775094426 0.23104740355697118 0.1216622560813505
0.4423721950847863 0.202806144775721 0.04862109058908004
0.3353383115531301 0.27880066043775287 0.04681294438799455
0.9281212349706607 -0.05784679792753877 0.27321285250262406
0.48544105008609506 0.32146895786641494 0.10240032765028673
0.38743603757612277 0.21113972604786113 0.04287511933846133
0.3484562393466888 0.21740948281714623 0.0443402577947154
0.3583880576644418 0.15707501586342687 0.03571054920365668
0.41407355431883275 0.26043291697074267 0.06348797869637224
0.5072704613205019 0.19723076811396822 0.10174774689838273
0.42156449086607495 0.19658590168157275 0.04968294246086202
0.39314397578208116 0.2210568652107412 0.05733078168023553
0.36719072737810166 0.17259068940819589 -0.030850579465550254
0.3964258297429808 0.20570016415527448 0.035665731859097605
0.38877122891861404 0.21150302231677642 0.08682642795676543
0.3552500712029314 0.2152727493756572 0.02597228360090753
0.3851154213353425 0.2283389394832369 0.04780998833828676
0.45258437492410053 0.1875215044444758 -0.05168829258569474
0.4356552682736208 0.18656333667406955 -0.009357744706306903
0.4692703464019701 0.19269808463781146 0.04594182874859598
0.35266610626683814 0.17311824932414765 0.04598179400564106
0.27684026761249925 0.22667488920851042 0.08270536235144732
0.35184821730220506 0.21032833045808275 0.08757324718365567
-0.7015425821036843 1.1252067555325453 0.09831471312824647
0.37988854674074446 0.19517520070044725 0.028535791330526195
0.5593235209996976 0.3697815825153157 0.11195526534024225
0.3966648103677244 0.21899062883214526 0.04513866110437448
0.370503445435304 0.23450824724417885 0.01078887352062452
0.37904775125267065 0.22813821321406635 0.06409738088751737
0.3940813023031353 0.2445722609687806 0.06833010667338613
0.4222096627063934 0.21135414980611245 0.034308187688651515
0.2919960572104827 0.29455480347607477 0.09622224473801566
0.3998733799444949 0.27869542161357685 0.11613284022070047
0.44325951519323326 0.25198985128548657 0.12750554504889067
0.2895418832412133 0.21506534203462024 -0.02183975441982966
0.4994709726487372 0.17673232155321728 -0.04179296358051943
0.4349089992122259 0.24627275542910354 0.05789577292776471
0.36540202907460184 0.24483660357179815 0.03894056892499975
0.35048837935343613 0.24066443090916323 0.014875639028474552
0.4620433167560236 0.1920464596641409 0.047251095173237445
0.3513893349140176 0.23067941365903266 0.012185449624524836
0.4382528438032409 0.16814738941377527 0.005523859223899308
0.5163433768854873 0.2223392383554028 0.06069252593252372
0.3893362092105406 0.18469087941318207 -0.005351754216263771
0.37094114182281146 0.21877062642033707 0.0331565605328592
0.42191205420792244 0.5864603232801926 0.3683624313066787
0.297034732685276 0.21537004275721472 0.023314715446673517
0.4193969600238461 0.2677825472798929 0.08200042582487299
0.29252021304763787 0.27705881518355113 0.0667721203102758
0.37936933407416973 0.2081284364087992 0.029643502173144043
0.5944205062111507 0.17959279312148624 -0.28696117760306095
0.41465910626166647 0.2501371482221799 0.06118101123492181
0.47779780657899096 0.2594137658403497 -0.003022916239501683
-0.04178176730979999 -0.4335049327678888 -0.1431863691285855
0.3514962978262588 -0.5245010802348844 -0.3680524388758215
0.49500399952711405 0.1724751180683768 0.028074687823561817
0.38550613421656976 0.21558832920402438 0.04944429648281812
0.44244097660936177 0.2008177395102848 0.25845027186852576
0.3293664977890671 0.26766315525085815 0.07877339131184158
0.31408806245897836 -0.05980234700956544 0.29514352595106175
0.4971682324784297 0.2598845448496263 0.15287134063157737
0.2718584022230175 0.25824607099619357 0.13717950054424932
0.356537201451431 0.23920040894176964 0.019229463325416418
0.3903198170003037 0.2152441649371326 0.04927010476660598
0.33817289674834683 0.18789338963247815 -0.02902124479118129
0.575770665927763 0.21239551367190757 -0.06926291759913283
0.3772617576159121 0.20028414846206033 0.004318534066328539
0.31060972006920906 0.1662385725874742 -0.004470189796137447
0.4491301537361778 0.17588499159263904 0.08712775348493551
0.45762414644603666 0.2071087312304769 0.08248120133832515
0.4680335786453895 0.17656439236053245 -0.021474595710429867
0.2676181799963331 0.25146085290259634 0.08227726524438594
0.34241997931366086 0.23058945432494227 0.07996609451672043
0.37739214494766316 0.19684013175131554 0.018531310902716314
0.36726249601412064 0.21278941000321083 0.05940023493016611
0.5941956127994672 0.22263087863656494 0.09431756906053579
0.4644781548769288 0.22329763719537254 0.08181166992241629
0.318690512139824 0.20940437606284945 0.08313207887820795
0.32359174239917365 0.24269387136160958 -0.09180949536072092
0.44639751284407225 0.20684534923015008 -0.0073469975569082635
0.35882021379245543 0.19984322483091432 0.006661737029872938
0.48266072883461675 0.1286988820006627 0.1245722434481138
0.4523819500061421 0.20534094063850716 0.019035008533819564
0.3922421151477522 0.20691017395954248 0.018713218948917643
0.49501696289291885 0.19218140134485395 -0.035600662927137705
0.3746431896763909 0.2483585267377464 0.10749974116626504
0.3016990043342389 0.21668159472801563 0.1387866917910685
0.08592459607724834 0.33244141628003376 -0.3596375439454107
0.3836305191068732 0.24834785566449114 0.07797168644957253
0.3546491788354018 0.23461609734903277 0.05425627660400778
0.32632832688481983 0.18955556262591244 -0.022995249560537445
0.3353833553809409 0.2192994499364147 0.047038482000061776
0.5290347009216134 0.29647340596829963 -0.12762222304731097
0.3729801400785391 0.2131827351519604 0.038724162366420956
0.40684276634448224 0.25352747846952184 0.08049499320993903
0.39708551336730125 0.2054666375525187 0.032640177002662085
0.39921230896806037 0.22800018426312363 0.061890541128235554
0.5638871094036091 0.2171870694094764 0.03882330808539791
0.34873775477797153 0.24053700267430145 0.03721683077677085
0.44806972312554194 0.22347747611989632 0.09169942985649016
0.6099686122741588 0.2672311719466478 0.15921545207487497
0.4091754757672845 0.22478510089754877 0.054202094002775425
0.4232354188101226 0.2356368654426575 0.09298814512975184
0.4969170402774381 0.2142840337723868 0.07881001559485412
0.339502659554654 0.22757698009169758 0.09167921853737937
0.2938536910660332 0.2042328603368162 0.02126162412953647
0.43618453589630235 0.2341320839947798 0.08505489576711511
0.3607194011432 0.21763415254292795 -0.05375988188306735
0.39815179999085615 0.1887523924842185 0.046535335887597284
0.4223969083179213 0.246116418091475 0.08756527561672556
0.3821065175157514 0.2442566516336626 0.08495340210626523
0.40784537490392836 0.22661065600487973 0.06368877848365173
0.3041515624217084 0.23593445811437164 0.07135924648703451
0.18061177522534422 0.18356541990667097 -0.036467742551948845
0.30470111968514857 0.22802613586475218 0.05397258776686442
0.5112271653583491 0.2062714933873906 0.007789735082894822
0.5251724427455144 0.19753741502682942 0.07006593859046006
0.2687741800444172 0.2836651083945867 0.06068034007029155
0.3936372030027542 0.23817451759661878 0.05361548317259235
0.34948340946939993 0.24426179027740602 -0.008351703288425938
0.36543906833040296 0.20560765202483822 0.0026540055633859083
0.41017507270683495 0.21469993127693954 0.054864927519489015
0.4149979820338956 0.18501529266437444 0.07000874897637743
0.371344497439253 0.2334055371497925 0.05404115681197652
0.430162208057709 0.24342475996976987 0.08268510607855717
0.48607016272288206 0.24833044822511852 0.07634710206983186
0.3595876578857826 0.2127477445814634 0.033331191874367505
0.39828163858229004 0.21334456308433403 0.03856887375803808
0.36217028246862526 0.22539287611340342 0.023921507432774547
0.3118181635266808 0.2203869909033358 0.06191942407659212
0.252986126796344 0.23873564616269505 0.13932653784348759
0.41898771322374273 0.17959654273218462 0.024433297052752323
0.396281712149289 0.23851405682111704 0.05607043132809508
0.4432566244643681 0.1774266265242943 -0.1200823789825165
0.4365532936948 0.24206561631140744 0.053632240474655646
0.6258435687296924 0.3133640456038762 0.16457635095609646
0.38478930408717815 0.20616014156064466 0.08701418368059421
0.382042980334262 0.2172521025127594 0.04026844336701174
0.33237816966432376 0.2583226905591687 -0.0016455948848488333
0.41344584617233693 0.2211162059353029 0.0570176515909111
0.4084605958694141 0.25729650764876055 0.0253139540848224
0.38480748160750977 0.17188863508195595 0.009990007184796923
0.4133337434695079 0.24024684919656636 0.05413679450282416
0.43698032890011973 0.24171662525216675 0.146467855382042
0.4352355383040418 0.21447300631588462 0.035807897349940276
0.43061844179985087 0.20705289457090714 0.040010894716402845
0.43486215928793115 0.2247305331123357 0.06844494744268559
0.307174675888902 0.1992207373514816 -0.005063939094014813
0.4073993312538562 0.18256314879712932 0.06176191111237017
0.4528959076793342 0.2334404025765764 -0.1725348273205327
0.38585525302789847 0.223890290100357 0.05395620620157615
0.45699935211311526 0.20191399280489009 0.03268921361210175
0.4743176554428885 0.2070472126527818 0.02388338491498132
0.41100842702530827 0.22455873930398695 0.010227456809218438
0.45656664616925013 0.1383145930330727 -0.05764427395925509
0.44666931812693633 0.1690394819270864 0.0377266157181424
0.6205873237853865 0.2996427472347989 0.15282959669124807
0.4506198023194088 0.22262323714760157 0.07860704260627926
0.3264504529832948 0.2429415602713476 0.07526535080181418
0.32402458356763475 0.22479893123144734 0.09745667304136418
0.3527015071530002 0.18032374388425865 -0.03313007053637307
0.26597545315647153 0.15077955563262435 -0.09539833889088811
0.40966949686747967 0.2406365186780306 0.049997488434101456
0.3770189499379626 0.20523992223643006 0.04809639760662776
0.3746566294742024 0.21025079385401568 0.028576453813982994
0.4229010573239975 0.244874097919336 0.07364468297124915
0.3961163787615334 0.22540883536416345 0.030789571739546773
0.41046027235069005 0.22818738133673833 0.05990346873051067
0.37278498790439585 0.20516070031466427 0.017267176312145693
0.3282399449645652 0.23553668978792075 0.0706385366392226
0.42753332055724513 0.18406923280650744 0.06153425756042452
0.4858391675973479 0.2579446522433102 0.1205047289137724
0.45846651142153405 0.24251506162455883 0.08121384519414221
0.30160444355172444 0.238775908112018 0.08194104067580099
0.4376881479187489 0.22823837515750256 0.05568103276695524
0.3647553167802471 0.25913008224625855 0.05935643625116427
0.3834286120873145 0.29962519128277165 0.1458622758234469
0.4734004537888836 0.24770805639062132 0.04472765679633994
0.3971972265521515 0.21838177652716695 0.023697371546987256
0.3370531815965876 0.2616863282629538 0.14531143566568971
0.4773451849245447 0.1867707531656606 -0.03892575961378952
0.4438175610559085 0.2310403359796851 0.044218956767053896
0.4190509074786206 0.23760212013593218 0.08482226085598654
0.37558764601470784 0.1445502709489972 0.040499427206938776
0.23862202730518334 0.16921648949663393 0.01099595757506222
0.39663129069829495 0.1944684454820731 0.03534160084642224
0.37342908395865493 0.18272574122482865 0.01214504125286453
0.5093463261707996 0.19249059693747483 -0.01203714622248242
0.4584813153434766 0.2522501538658588 0.10695058562296822
0.3512939018222596 0.24927987917276084 0.061899609000633404
0.41682524344332705 0.2582683179757339 0.11140017668476787
0.45093840918951855 0.19105343369835737 0.029914473032633282
0.3568935669641178 0.19112898717187932 0.10230163551258897
0.3191613590734619 0.2448814920528264 0.14331712402125163
0.27918629063870526 0.33200931474942763 -0.11256477260249653
-0.10618936217173314 -0.11604152704605042 -0.1535753689574051
0.45241890237420535 0.3702933833147313 0.20270098118707836
0.3570656532778145 0.20617678074128776 0.017575275210560903
0.356158035371692 -0.5079492033732578 -0.3257069834521076
0.4809662440995055 0.11631339132284779 0.11845078985233215
0.3621992287326634 0.1851207472755192 -0.025843588406445406
0.30821038216984675 0.22708050301829985 0.034756543432592935
0.4255751522339466 0.26644711063499926 0.04786619711974538
0.3831172289871745 0.22995877390573582 0.02957986657295919
0.40813568177884463 0.2468380050844985 0.12364317146864323
0.37520040449740577 0.20533173031819274 -0.030775698676734464
0.40856228820265983 0.3731845666560787 0.17889723848514905
0.4360956073297473 0.19716727997411 0.23029111057869045
0.44458037996488997 0.19333214800604992 -0.01569302346092627
0.2367512732896273 0.078912530085816 -0.01829265947853287
0.2947495065560872 0.2593406937344014 0.09902071604084028
0.49699117272508886 0.27664965282045273 -0.06420940060039015
0.3961427751801807 0.18325638514042453 -0.053839794512242634
0.41557007142455404 0.1888379202583792 -0.002911760734264135
0.4392900729389737 0.22205094953318394 0.04484974954019094
0.38584264401248447 0.2221443160677552 0.06738023553884886
0.4428531167012011 0.16070554444813467 0.02712308949976716
0.33844155832939293 0.16621565396707183 0.04542179289376236
0.4282870550014479 0.2495700026923089 0.06912384732572718
0.39376904413772706 0.2436640415928082 0.061579444706438835
0.47347066492076806 0.24606303502544336 0.11083103545261963
0.417573796891773 0.24311239321374956 0.043374010481500136
0.3707915693150028 0.20082119324580106 0.05643951773566869
0.4056805730846804 0.3031420963391014 0.08471318134584749
0.36850073017100726 0.223919141473516 0.07957869844909737
0.41814961335160206 0.2227025316307305 0.1359559399354282
0.32087070304065435 0.2348647573007412 0.11709045413292074
0.33912690868814366 0.21865800484435738 0.08983167567966177
0.3418101125230919 0.2526247566565871 0.09537219797020668
0.39533344182075325 0.245504089790046 0.026458635342166303
0.3699577004364869 0.20738623236175613 0.027170697230843643
0.4185980235445754 0.2443282591654281 0.031407110650320647
0.3721756164410692 0.2475407738089075 0.15647884214180863
0.34962699890132853 0.16676112710902657 -0.058601791711879514
0.34122754241010966 0.17994275215085054 -0.01875236448023543
0.5158309779958756 0.1999353674822828 -0.001862735707859997
0.3950012565205725 0.17797131235417396 0.04610958837120904
0.34730103492771036 0.2597737698188922 0.13623994881970702
0.3713771166980848 0.2104209473411771 0.03477386049966924
0.43362901779028107 0.16482957917831698 0.0243124109915982
0.27552649028916676 0.18098416905795034 0.0261480058578627
0.3906413901255803 0.22055491098780067 0.06039377953300118
0.4040702583452571 0.224391469420965 0.04326007368949547
0.5147419639412192 0.25312809518037227 0.09171070272967086
0.44240337469865665 0.1935972750460877 0.009761343259384603
0.3175056720383651 0.21537750730283278 0.05317270086712256
0.40564244720025044 0.22201331134584734 0.08157703953006035
0.48844103154405616 0.25279744210337185 0.12618093102611283
0.3729700880520852 0.20190258417142104 0.03795482647437609
0.43510508666150827 0.22109419436279154 0.051081792303904194
0.8682635100252298 -0.5518004815470334 0.17435817760619443
0.3593611573705857 0.20720355213617836 0.0462801088940239
0.49232420791241793 0.13463691350233375 -0.005624624535386147
0.3900869879340405 0.2645519722810832 0.06163976046698849
0.4328640880724066 0.13481735005697715 0.06566683442642329
0.4515673621169469 0.19432028199493345 -0.11164835030083964
0.37541186711479213 0.19445733801433107 0.03520633729200995
0.4617992826310484 0.1730095120790338 -0.0645828248171938
0.407542409854571 0.21812120532104018 0.04663663829788334
0.333740055533724 0.13700051773091104 -0.0593156453330721
0.2371165863821716 0.25055138954333245 0.06831182115408296
0.3896096183887039 0.23253223283921898 0.09803768684113834
0.3373120078558145 0.2504982526610604 0.0638466968762259
0.34861566182952686 0.194321393380406 0.013537914003080687
0.5084841578222665 0.20314296998235193 0.03462667095169536
0.5311170560486858 0.15259996881599136 0.1034831338613742
0.3334064775170589 0.23935332551407384 0.11518661519178863
0.46973276113421036 0.2552410860779446 0.07515921781904922
0.27809180524943145 0.2942663051730108 -0.05771358249521086
0.36955744100492893 0.22134505302246055 0.025157370131978496
0.4276094067707845 0.36886509252953203 -0.00010892328471356905
0.49682399300482416 0.17491059489603344 0.08039444028599974
0.3274109067398143 0.2397665286629831 0.07826861886097447
0.4391379378390923 0.22431337079552804 0.05168654646888626
0.3522042125330245 0.2619505278092902 0.06310109092189009
0.407229635699224 0.23333979247266257 0.07737729168255214
0.29336930685227003 0.18073813901671087 0.038199435001843085
0.4442301433513478 0.24163039735560687 0.07776312917565065
0.3135398260814668 0.17904246936365098 -0.011622745046935279
0.323567507115456 0.21871874936141467 0.05390164815725029
0.38001730277835577 0.2177144161137221 0.03444940942617336
0.4143231530555198 0.20978515841582634 0.04417255520033336
0.40353452873955575 0.24397290891977264 0.06376521518308209
0.3060227897690595 0.3731699267402746 -0.014226502783202477
0.32116692337160657 0.23734976572782784 0.015462983321356205
0.4643250197444502 0.20251640288185513 0.032036941003610764
0.4129360272100939 0.21632548680949526 0.04097973500462615
0.3899987283545556 0.2068016974691318 0.03565180800640633
0.38939363620744416 0.21759779342272623 0.03774966459597806
0.34183760849464306 0.2435873164206157 0.10518123511292288
0.5018348243035291 0.19175795477653423 0.06463041142188786
0.3920840727677728 0.2302729898550524 0.10337665350135694
0.4281171877378682 0.20598528633399837 0.06757336676454884
0.41601924160600845 0.30394969004372285 -0.036697895906200984
0.26647282951722673 0.2530796830598092 0.0839243100354281
0.4488824245691774 0.24179522691862587 0.06668657169771564
0.3607014543599689 0.2252238020634536 0.07177465969346031
0.37415983003458564 0.2013011625716672 0.03909407792659181
0.36880182649306903 0.19181651627170027 0.03215176168359335
0.36045755687069914 0.2072853185916017 0.02318907136915982
0.27572469314397097 0.15539099447909166 -0.02750633649242218
0.49752000592113177 0.20043600368845205 -0.007142768790487253
0.3769972780259394 0.2160695504513228 0.0567870066603291
0.36591288278152945 0.2194040034357414 0.06983714772923122
0.33620442187626054 0.2646652495565718 -0.03903846027517943
0.3577882940003718 0.215987944683377 0.08346402767264749
0.4219919968628574 0.17272112656598892 0.05621406563527387
0.45998660789764756 0.1872122861871901 0.07417223013879948
0.32906815482692764 0.2263310457229437 0.03247495814252943
0.3464753257607214 0.25153244074053305 0.06466582111178809
0.2782245026486976 0.283798432775086 0.1490900128848125
0.4474779646639462 0.26362246260188726 0.08428647701047964
0.7694830725828865 0.3381245062027176 0.30751305535714835
0.39990570849877827 0.20457877558953896 0.045752483639546426
0.3582669472751405 0.19119627702318098 0.048331394907592085
0.41460794004385093 0.19355269556061216 0.015994447392415623
0.5092004069079366 0.16790115228326385 0.0798981084678303
0.44945011923061884 0.24738422866292353 0.11574314395812735
0.38914441525633947 0.22464721597621917 0.05050887592378217
0.40593365660637915 0.24479492281325577 0.06592277546786818
0.37919659978467735 0.22573703571731585 0.06021742159560972
0.4092989794892361 0.22227167275192983 0.033993565268673365
0.528323309821559 0.21027955398531617 0.043411409409017665
0.2535587748404282 0.3576927346877312 0.054403022290145486
0.36668378674738733 0.2129586929861489 0.01799859747458754
0.3528651507574807 0.21003731310199214 0.06012347655735084
0.33638829544545956 0.15934928675372362 0.0580715824927438
0.3576676148466049 0.1813144733603309 0.02487048098186051
0.3504142022148642 0.23112705289761948 0.054945174634653426
0.4025386694437998 0.18681334523802207 0.028247705129103906
0.4005575328295379 0.22558884151831649 0.053119074383118914
0.3934182089574563 0.21003860700344035 0.039025691206063584
0.3034211293294504 0.20022481116461677 0.05056054562010104
0.5021552910778126 0.26263126792437674 0.027270680612119236
0.37359218601602606 0.22576341853581994 0.023756531205492593
0.49936638506963504 0.2899581901368151 -0.2676265964815201
0.4036269940504553 0.22823086133874426 0.02074690232009857
0.3825989879265137 0.2013458968119437 0.07244008806068791
0.3389766803153407 0.23630285963122333 0.07934587691805461
0.4070462666972787 0.20940323297594432 0.04519836724365689
0.468985481744852 0.2002921861013789 -0.014887495275260676
0.3292830495049657 0.3717975506526159 0.03144028246296671
0.4769177981696373 0.18865689446050737 0.004671859967274372
0.3537950738803346 0.23828893911149862 0.066096367528516
0.3672060887244868 0.2661499641790783 0.16703665995336792
0.3389645776676673 0.22250782729378216 0.04563771461020849
0.451089867949122 0.18690594512095515 0.043520581837512395
0.34541763056259356 0.1833631087457661 -0.032688571266135114
0.4089904015898753 0.2269402142948138 0.07700381141583534
0.4034666162333167 0.22272765664544636 0.04989167065249944
0.4369195141012483 0.24217888647112318 0.025954407791303424
0.3874807211416993 0.24329085767980985 0.10000348220856381
0.15390434138302567 0.05758405837414671 0.06141233560927617
0.2813526259372736 0.16608685324547423 0.07797246696688376
0.40220547395615824 0.007714107569086082 -0.036176440282588374
0.19974881251070542 0.19687988981200988 0.39402665083321153
0.3275427818005596 0.17189352431844895 0.09111840830172468
0.19220126637992507 0.25740825738890294 0.010136321975494411
0.40445794239190036 0.21414196571124933 0.025227225396349695
0.16628133150197755 0.16293902096006718 -0.06337382959745241
0.407328009013014 0.21554376944763476 0.059820703569315015
0.41615984571032527 0.20181058400547158 0.02627795363478924
0.42642467444650833 0.20947618038587734 0.034922591347196885
0.3686242714880592 0.2307669113451567 0.046326975420328154
0.40745195041871796 0.20764150272850657 0.061894935050219146
0.23541189049728928 0.23813238471115028 -0.05586634386764899
0.38192034947763887 0.2164638124286853 0.05944992669616056
0.3481029872302912 0.21035741866155888 0.08984019989424041
0.43366282232192077 0.17074771490803187 0.013072170281148487
0.18924961620716374 0.25927358078470775 -0.011690408971475108
0.3575203420354285 0.23801463077823826 0.06405858204351489
0.34698268252267894 0.21508710905018802 0.07213530566353654
0.5258438932503111 0.18235349295710535 0.005391446918764586
0.4012945866654434 0.20109516048646014 0.13354216828302867
0.3244811366502205 0.1876656731161006 -0.029283091004217
0.24918735201032405 0.23989409023943153 0.033743260412435916
0.36636919590389994 0.1952111145932065 0.044296306840720945
0.5006223555332667 0.2494456373622711 0.10158199720616778
0.49097869070791944 0.2233330917847809 -0.014247614122325558
0.23938640552259471 0.21385463089100654 0.05622257334560743
0.41447958363751525 0.23959723740064476 0.11067930697250006
0.41447568814521674 0.28884583580232004 0.04712668602522285
0.4772878958849418 0.1472140140909346 0.08150270523722725
0.33518581643301104 0.14245663263315578 0.172848435302285
0.4212020346930956 0.21198272668168272 0.0633539183281755
0.23932756534043165 0.23405600797968873 0.06505125569671577
0.31928133264963776 0.2531609919264497 0.11243858122357153
0.40829074036699353 0.18356391091704438 -0.012433633648555542
0.4246977969225725 0.23818545673458402 -0.0028701579306300573
0.41831683178202184 0.24205788103760995 0.06211648959337879
0.43151071371417515 0.1984645154317093 0.10158282321619083
0.39166451597694163 0.21429269047840194 0.03234766297890701
0.35369280380538726 0.18061506088199053 0.06625873734132881
0.5283725777519521 0.2324201472403047 -0.01426351195904374
0.44960438863756735 0.17984286766967728 0.040702986919669115
0.38699465004583544 0.2812020186390214 0.0782443309873031
0.3348879502860598 0.23827083581335273 0.1233636514307932
0.48925556052114416 0.1966897442514295 0.03833336663323905
0.46574733826122383 0.24021078238227744 0.06281764728662154
0.44483263904484716 0.21093871851823565 0.036335412693603075
0.4117318952730358 0.20424567767111057 0.03193777573901002
0.43646580836266935 0.2564000557298698 0.040798507914658444
0.32930305451253616 0.22304597766687095 0.01636612250318592
0.38506875215111336 0.25555630134479657 0.199318788126007
0.5076363906916441 0.21213771682531046 0.05513435574835057
0.3961651151347212 0.20473874666376446 0.04057184586392282
0.40307307708748397 0.2081678069026225 0.04249467987867206
0.2136669157596316 0.4203646503987386 -0.17219849301915247
0.560495485676455 0.11511106688189443 0.1470321727775854
0.3716162601388646 0.21797662279945484 0.06076262469264293
0.3701839965793283 0.22170323849081797 0.037597899123511525
0.43873968010385056 0.3048451439171629 0.05433868027122912
0.3282823220440605 0.17028111670404655 0.11709301936036809
0.2534306467723013 0.2908225152819881 0.03782306563597615
0.3569125091058538 0.19107525323678942 0.05143918667045
0.44992663139470324 0.28738882559486 0.09405499590002364
0.48509081007213695 0.2523577539779751 0.10347265157355423
0.4180403826463106 0.21062819940459576 0.0498831990487929
0.4188339615775476 0.20954961763055735 0.003838877050867495
0.3673426531412076 0.20855634638834886 0.05935339918339366
0.3602429211700695 0.21318077392842838 0.03960596818322415
0.3140250324676117 0.21346114780817516 0.06191789174405926
0.393400112172543 0.2362358887617262 0.08149899326514287
0.4178652977485626 0.2290382927292285 0.08649453577561417
0.43151867813620015 0.21624048817709252 0.008505136230439803
0.3958504714879325 0.13992581114013092 0.014572791640858895
0.384716545760142 0.1924927761146762 0.061392534327168846
0.4370176435240012 0.2848184860981178 0.1343100180932595
0.34233438878140987 0.25661225262507514 0.11016317269705667
0.46215056675383437 0.20060456140754468 -0.024166921936355834
0.34435161842087325 0.16408829679770065 -0.010886524090722105
0.42946425411209077 0.20770918997249055 0.05192440247876107
0.33693097481673817 0.22678672128732558 0.026408672979073344
0.40669548127323196 0.2526212988797738 0.11490196969756994
0.38946037336208406 0.19448499773483263 -0.003980342782341495
0.06277422252011888 0.2879436251980394 -0.0925558299353213
0.4803127232999742 0.20864133910470173 0.040475551796646414
0.40909356057883883 0.24788721334218167 0.07817316513416017
0.40247548135724287 0.21211312098665758 0.04702687355255364
0.3321519892966194 0.27760159095174686 0.16147676364116137
0.5089185467474522 0.2115326695420663 -0.12095849065460129
0.4087082631557166 0.24776300628670356 0.10006744605527729
0.2961565918742508 0.19947748096828377 0.05663346187000684
0.4243189209676359 0.22409627043447244 0.08314324575000853
0.43940760430774617 0.26435987814514306 0.07087236030608324
0.3516408439538026 0.2115393145947735 0.062424410653392215
0.4011449589571754 0.2236612461850882 0.05895225089406608
0.43308529662209594 0.19517646313992998 0.015448802355336966
0.2890295859048564 0.20486838587052603 0.08292788349577052
0.3527116951717062 0.20275448118324846 0.04210531577007259
0.7300272866015973 0.38741571871639735 0.17629640254153855
0.36372198475672235 0.21226053909151688 0.0037291592082056013
0.4179185640220311 0.22388659871566574 0.02734225744339369
0.4004128400971183 0.2267555879459735 0.12002146059953134
0.45601168493095656 0.20906636657505828 0.01070764552096648
0.3853539872103511 0.20919346665522198 0.04104434420156622
0.3529000574709471 0.19440177786168533 0.02758893585793487
0.4882674842783956 0.18592110552182817 -0.06720983905765365
0.4122786273003669 0.20405555410339105 0.08263028713665221
0.4958021741625629 0.17605738624695277 -0.00853075248411983
0.3901677470465188 0.21926600882395064 0.06751169601389506
0.2605528007282061 0.1688771315492943 -0.05474600566128629
0.3921843692228606 0.18897427411772583 0.040707439505268894
0.4079116507225251 0.20118049534940496 0.01837274727984095
0.3937927438642248 0.21427111117503728 0.04821896412980209
0.3742085053885944 0.21579028962999303 0.012179630671042219
0.25676996776415706 0.20272512156279276 0.022461975495218667
0.4223725605723132 0.3293974961951136 -0.017713834883807067
0.39176516408892326 0.24628135925988204 0.10041266005771377
0.46993877146903174 0.19518716912466516 0.1318825183818717
0.3531998329310966 0.2525935246782467 0.051201394588161975
0.29187317189010287 0.22649573742215523 0.08713583822449777
0.4034104066883799 0.24093931535767865 0.05210691810184187
0.3391269342252201 0.19272241534272894 0.011247953980827674
0.39938682997895114 0.2005462847941999 0.029284689073378445
0.5129556724863846 0.19372306009640283 0.047630020301212994
0.38471065367286883 0.19069686024418786 0.048697027699375894
0.43660479658376516 0.2537023967841776 0.09311577504293211
0.512871964828534 0.23785893058513352 -0.005478779505693865
0.255307363640938 0.22539812179748253 0.03254480913560087
0.3878374687994608 0.23338485690864275 0.030466211599673443
0.37208260013774463 0.20820723068047187 0.05626994011845454
0.37331924925950943 0.21866536316890972 0.06331065010384407
0.4261099817476577 0.27428349094668647 0.06579520578293341
0.5565418880984225 0.23401539945069771 0.06183618839455107
0.40323009158734635 0.2523326985538574 0.08735975121408046
0.44522624529878385 0.20881286190413562 0.035432987406991856
0.3186942619352351 0.2023112617192453 0.005494359801389237
0.3741019963244696 0.15142954215238547 0.04434938480503092
0.4108332311100469 0.23161328692921757 0.0897114510987933
0.41917582687668187 0.2341936537536924 0.08675849131977031
0.39139957163033046 0.21613993646747076 0.059366906958160826
0.4114579166233341 0.1872834187729211 0.01570873690030794
0.3821482860920469 0.22203424294856688 0.05053037565190266
0.8907369936099485 -0.09907917318696491 0.08536674114127152
0.40938894884101273 0.1712592540055482 0.034752558724648
0.3473051651793213 0.18544334837901033 0.013847624143110693
0.3991004724415603 0.14687795400026005 0.06868708864740825
0.9268429814859331 -0.36910905689319407 0.37358443082106874
0.26830845454865937 0.18516447816848824 0.012085792747740243
0.34090821248315706 0.2068435734522467 0.09318028074513052
0.2776966942609249 0.30017093039118947 -0.06361834908020114
0.497581849980989 0.24237780275265663 0.0741709311648151
0.58316644433242 0.21043203734429028 0.00039542908881173844
0.3670300696691129 0.20393789530740492 0.042814992707263855
0.2647439273620762 0.18033738750649775 0.1104833187603873
0.42433170133634235 0.231312068400797 0.0635107299276001
0.30276929603002145 0.22970404466377659 0.05748660707652675
0.4728657732394481 0.19716088591744096 0.08053215679099424
0.3977493499246947 0.20427440191181745 0.07160294575719206
0.3954578991026665 0.150716438711072 0.012784953782329467
0.38316111116367324 0.22125492217622877 0.0640145510974719
0.54449064488972 0.03332397983363933 0.25392016013066154
0.4673046858591192 0.218916766719218 0.051648386062282725
0.5275516638807858 0.202049102332154 0.03084326205643606
0.4042016493414451 0.22956625866513036 0.05298052405146336
0.3944546165370042 0.1718410436560589 -0.014316050762914756
0.323325834242695 0.23463792936982486 0.05018171011964512
0.9069928885951981 -0.04256126491159762 0.3908207024551871
0.4367639268892276 0.23758974839361713 0.013956710987955034
0.37516492135505075 0.22560634857444484 0.09621301062185239
0.24844777237136384 0.24421287417249005 0.11148690906590275
0.36559822718695045 0.1925264617329674 0.032598678616878374
0.3643374981322012 0.24324189126645024 0.11981593414333247
0.4401866247650901 0.2685140342233012 0.15103599476259433
0.3568491206684712 0.2377180873660052 0.05024282696382443
0.4192519702916968 0.16310904401568393 0.026113477490156356
0.42279081497105153 0.21561156518512803 0.06432539460891462
0.4106238904775239 0.23157344326234863 0.04396870924728091
0.36041619713833484 0.22323722666858714 0.04230243767206332
0.3539622946949237 0.22150141479710328 -0.009355413456290762
0.5677066905359993 0.2032675301839646 -0.0037787749358102474
0.3607470972503677 0.21881378896753745 0.0243114107601059
0.4802038764416636 0.17170290443907277 -0.038469094084945255
0.3769089396021599 0.2350619714206914 -0.03605748180027035
0.38382840026341114 0.22412389643034203 0.06735718975610894
0.45467494257269436 0.2062042046284489 0.03231116348166552
0.42957532010024124 0.2819639606099713 0.17948027400092315
0.370784721607194 0.20159310636528005 0.053207914984142235
0.35526221817269743 0.24962058871841464 0.058013131717530086
0.2843227002255446 0.2509980100613234 0.04714286418681013
0.48297623607106743 0.240220495828936 0.07639611524547263
0.5482735584202771 0.2620221942889458 0.09888404465077372
0.29071365934542825 0.29448494821939164 0.07210977763847382
0.44444941108370983 0.15821143733418808 0.0269205187060777
0.39227255447829634 0.2211986347561492 0.04138796156038893
0.4080132936798293 0.22347924072272463 0.04395364317738881
0.4815707199127246 0.19676900172282785 0.014226681490029591
0.34605846492883074 0.19173761389745891 0.13726980449041548
0.3818366690573356 0.2134473382740225 0.032504862541486546
0.40253204099481366 0.23462558628622787 0.08042821534596101
0.34404314299379735 0.21615694555740106 0.15059601571610415
0.4460847720806811 0.26309373291842064 0.14565156506631638
0.4137069948191652 0.21518423872410608 0.026622868920895826
0.37308354797326615 0.206959759301526 0.045416049319371155
-0.24562444110330262 0.040109345849742795 -0.25800784319220327
0.4375004995818017 0.25850701399988907 0.1349050099452711
0.37233016166186417 0.20437009159080333 0.031038374739097208
0.40633862193496384 0.22089573477634872 0.06900464964776631
0.46443641083676823 0.22041098720589503 0.06143242422031392
0.40814715088365006 0.23757784401288973 0.06340528707042381
0.45450177321836804 0.19250965204462034 0.05292407346315997
0.36507650387305546 0.1780942333606106 0.02976371123642707
0.4866034842782483 0.17960551081998233 0.0246513582592911
0.4690913737429412 0.21568685290367284 0.035797799239631445
0.42360050468397503 0.22094059224862406 0.09640472287563284
1.1154157497385313 0.6036057774551011 0.025018839487344735
0.39816769790247974 0.21140996910862953 0.03709300984229458
0.5687142772936511 0.19251460550171373 -0.022802651261656592
0.4482222902610431 0.21717610119131336 0.0330745432631403
0.39703418075119146 0.22224617364037158 0.03973209385053167
0.4323055076153821 0.2562922680295401 0.11291753631118695
0.36267996751379883 0.21791017288896342 0.06460545013712249
0.3751389022582856 0.2251781582284451 0.06006583753182326
0.3772565140051256 0.17903528035732563 -0.06921150448265223
0.36598901097639214 0.21450912728934668 0.08095411190876689
0.44636813656943275 0.07084016546234295 0.19267601901849218
0.3791268407257746 0.22567726487864093 0.0525075189026154
0.507674053419521 0.21085689128500462 -0.02196142675902024
0.3151371157181728 0.2741015857992437 0.16190341687087084
0.34830467337339144 0.24829882154881489 0.0804500249088278
0.40824997573174926 0.233311148079963 0.055553624594949724
-0.005444264130304077 0.12077737998711768 0.1346819446084453
0.3822531929498041 0.2189336216155624 0.047378927372051294
0.40178767430624873 0.21257643865820341 0.04164358703405924
0.27833515161329103 0.23691519137923933 0.11731140705853704
0.4712028824843344 0.2055785369890657 0.1689647144804809
0.39132646746935507 0.22350847221264303 0.045624131628599685
0.4307955518085578 0.22506141135977487 0.0412146907387978
0.46583768383372615 0.23545811758910418 0.057069044490674514
0.2351891937628352 0.1383754314393002 -0.053336533222449134
0.22917147721516073 0.25024754653483683 -0.007292637618604658
0.44656191472100204 0.2884426049035511 0.14258645921933066
0.2611396273685074 0.18864119355230002 0.004213839366826733
0.5168933467753618 0.21972875613752763 0.01836180245260266
0.4358376429996582 0.25781294951096356 0.03780267666198256
0.3762531986670581 0.19912785156806478 0.04780180591627925
0.3594338111572597 0.25057223745005786 0.07728467980282971
0.3317778763232013 0.23458758404622415 0.09637286702555059
0.3712924508095199 0.18529726573240168 0.03664797423897426
0.38374726865313846 0.22762304502771258 0.06990856028721737
0.37906772399128386 0.23819432610366675 0.044969197472966016
0.41018715890223234 0.11933972347443955 0.005119914677095494
0.3302308910066927 0.198521625080744 0.01644080308381035
0.32743046849813595 0.24520710352797437 0.02547861674725027
0.4676407761475616 0.2985823914209931 0.14956716637337308
0.36491764928021553 0.526085142634372 0.30569745858005604
0.32661388882428355 0.3065575655934225 0.05580941615986035
0.3685608307222026 0.21046980787721736 0.05315003224937698
0.7244038656934606 0.1849625022769601 0.07778567429595284
0.3358257064155339 0.26293243937038824 0.07301571058386003
0.38648489911658146 0.2267321816083694 0.0499058264926191
0.28459812765396464 0.2287299172137125 0.010380182592697906
0.6196610509318248 0.42414869375497233 -0.15034199013540217
