# .PCD v0.7 - Point Cloud Data file format
VERSION .7
FIELDS x y z
SIZE 4 4 4 
TYPE F F F 
COUNT 1 1 1 
WIDTH 805
HEIGHT 1 
VIEWPOINT 0 0 0 1 0 0 0 
POINTS 805
DATA ascii 
0.32940838916107396 0.22331983624944485 0.15174663067418237
0.35174235273339605 0.22339976267537054 0.05064422933628521
0.46699370353320546 0.15161957021933858 -0.06926662243201065
0.3463152068740101 0.1484442183401029 -0.10415002237215276
0.36266354076911966 0.2286858229510358 0.042861829702616205
0.36754427774226883 0.20784230106932 0.04125679862309539
0.37760360585437525 0.22967366418609458 0.038693531570174855
0.38283211208690204 0.24287480220108648 0.08716649514607866
0.6088017308159692 0.14237562222817246 0.2623477176579456
0.49458672749790367 0.23818979990520006 0.06777517577681635
0.3449459648094262 0.21636064306856895 0.0170046742404395
0.36654629830258045 0.19755079410853682 0.032125403653651574
0.4439386733444053 0.18483333994169016 -0.026242303155697755
0.3661052276665657 0.23265205672583988 0.0113992244124006
0.4039206707314804 0.22496959301267339 0.05438895236576968
0.4240417010914115 0.24770103640723562 0.06953017278951279
0.44037534173007487 0.20974208216668444 0.045949096908429965
0.41360676258844364 0.2855981985006224 0.07100469808713683
0.43532836840931566 0.18709986471668572 0.04990126371677661
0.44843597905838806 0.1752041597330276 -0.020196799890783268
0.46438862707235273 0.15891242334942035 -0.006645923055813796
0.4915106630948287 0.26041638192714345 0.034160866100648946
0.36150243545007754 0.19310828495304122 -0.03400894579652913
0.382594496158589 0.1835899704344115 0.004697731711928554
0.3660916887023973 0.2630327537759456 0.06173435434246244
0.3672181183796681 0.22129154858750155 0.0425249388135569
0.377979415231124 0.18823253646247906 0.0562040265358803
0.8316932474991461 -1.0022942888251833 0.5611563488070885
0.48577035231696186 0.2766615915866453 -0.06299905058241961
0.43916414358034217 0.28418946663248335 0.04612750038350555
0.2022137321401658 0.2701669181853674 -0.027572150436583343
0.5133184748300295 0.25731372791503304 0.11265795535760503
0.3570471145775258 0.244086926114079 0.08409013976469737
0.3895424800672913 0.18607534860882424 -0.001479627163718078
0.42387286255848267 0.16594321368435772 -0.013964022328877945
0.4079817802207515 0.22129657144449766 0.03790243952070682
0.38574193338226337 0.2249739332521301 0.049614171189915623
0.35284234446906737 0.22422922035949 0.04047084701099379
0.4206344001225659 0.18936878256747036 -0.01976567859982481
0.2980017311882648 0.16197877997794308 0.016081864760167264
0.38720124217685736 0.21597885014782037 0.053458862062015555
0.33480193553836557 0.18138221459344095 0.040728569164372175
0.2848336784844605 0.23728406401947666 0.07306623525229838
0.40845375318610877 0.22173863684312778 0.04485200986067639
0.4333444365618675 0.23066011713393664 0.07127884557533548
0.34747814216535744 0.21599762115229737 0.06014926450689018
0.38983828256122877 0.218077433369686 0.026956324704030976
0.42526782277114705 0.16841236262786197 0.06121986279484304
0.4272885314495909 0.30419642715453676 0.028553601122382588
0.4390621994465391 0.21082566196390928 0.07773253881236997
0.45164928532383897 0.19147073943403825 0.016709480682749245
0.3343223764947254 0.23223883355488795 -0.004651218240638855
0.4397906533545495 0.16281445017631313 0.012574838295535073
0.36614440856861563 0.2315966782801695 0.0866967838073549
0.26990290211745105 0.2933249023968756 0.15991678207720383
0.6076104686288488 0.29514521253445025 -0.07356606174973024
0.4598046845477768 0.23302498640788372 0.11683912476863156
0.43328264724601695 0.21418131279317265 0.03641768207454277
0.40256332762353964 0.2014524500158359 0.020203386599334294
0.31467321805675397 0.22756286104096546 0.03300493667302362
0.4721121183738859 0.25989770172564874 0.07225730516135798
0.4463318340354476 0.16680749558899777 -0.0029185988989013367
0.44333672639963595 0.18195253662730693 0.041935444531034705
0.4921428052581973 0.2250095028623491 -0.00521172471042064
0.358484621607829 0.17854381450808887 -0.13485698808361235
0.4634709179355667 0.22752292320561196 0.013025746397943294
0.4175318446705205 0.226789646401528 0.033927506914693595
0.371284772554759 0.21357602679339038 0.025199085354898898
0.5552491129983821 0.2078174616545425 0.1260600767258495
0.513985971556167 0.247428873558448 0.06490065869292039
1.002895976076715 -0.09466227306353403 -0.10978731019721977
0.4955817480616247 0.20567413443814075 0.060725299079052775
0.21960883586061186 0.26264720400575925 -0.04669026670867993
0.44887840706495297 0.20018855894220167 0.0828739630304085
0.34789070041604475 0.34371878470905415 0.11281783344648488
0.22233016440242181 0.14243166898531 -0.08447737623464491
0.3305329627895901 0.2365815504909392 0.1321441774306038
0.44134185294075223 0.19203880237240867 0.012847291526185245
0.4447886119186535 0.1943843797826048 -0.01380818018969876
0.39853090993985063 0.2300584984221672 0.07545278178670856
0.3479911282433221 0.25636961284556037 0.11232906963527967
0.40447102186519146 0.22260354716104302 0.055438260685193086
0.5202227951449601 0.20049391715528486 0.04801896411369455
0.5029654477376084 1.2295366949458781 0.1062668789355996
0.3269383302436779 0.22618864682192452 0.07685651093467527
-0.025459680454758882 0.1915975680476265 -0.19079296178044558
0.39858152745748043 0.2534351302529956 0.09425794155353628
0.4630209256246616 0.2187916151597875 0.04167378198300753
0.460128680920846 0.23897683467164654 0.06906817841023383
0.32065398910543763 0.1997685684410726 0.05481484631725664
0.3999313003977676 0.23070268232950752 0.06166379132508837
0.379442564670768 0.24301218201459562 0.07938406997760694
0.3548262631073271 0.23367317346040295 0.09589193523297013
0.44678359751799235 0.21998206730799552 0.03453803124523347
0.38425665706886036 0.23257433524227622 0.069960749703327
0.3794305860421048 0.230021647084925 0.0253488465248779
0.3702165169802356 0.18723506528760936 0.06709043561338035
0.37068418587988106 0.22482817152433654 0.058686582114290786
0.4061422983844807 0.23298475419281317 0.08105231079966302
0.23658877787356403 0.29263423246695197 -0.03379124576382253
0.39668518937236286 0.1993254654907446 -0.009035116957960554
0.4007767804433513 0.24772701620457838 0.07581928852249575
0.30370829587246817 0.21721424491718722 0.07950034796357386
0.3547129800897153 0.20542738355601387 0.13816277759110562
0.6874419842822022 0.2176627876610553 -0.07250930402184963
0.33899010802588236 0.2058467852289141 0.01354555836344673
0.44494808083912574 0.26777109172381586 0.057957245575749994
0.4014700204135835 0.21910806436349617 0.03883482963806273
0.36176249775250824 0.1940873269626593 -0.043442441073096916
0.3331192252852304 0.18644956300019544 0.0684829821056212
0.3068508082058088 0.20483045732245841 0.025007719793421757
0.45390407080441264 0.2397724777844985 0.08983032710483485
0.4218472676682552 0.23901848885596166 0.03848656097170533
0.43668888300322806 0.16942259999433418 0.02722812991400758
0.4091701767242739 0.19013788097741724 -0.0010353728031020637
0.32649063833331127 0.2859252440171076 0.028704001750725183
0.4252582156895812 0.18712182434954627 -0.05790388533080204
0.38091565239034253 0.20871656049617116 0.05976809609431655
0.33262766434594937 0.2387232920571023 0.0004916425100986999
0.3565116304062599 0.1833675018760914 -0.05888912198787466
0.36894716416483675 0.2063696001605706 0.03174783853708618
0.3543147974856993 0.2465026325399151 0.07943506551902146
0.47446871908964283 0.1917378117271369 0.058524539476536575
0.31693226487246307 0.2650754161758755 0.008737842261311357
0.4409380700395218 0.1841701503812203 -0.061138159299133576
0.4320138847481587 0.15322381233769988 -0.026077005516498275
0.6689570522677286 0.23058495797198475 0.04123517756647743
0.7840380146142394 0.11222799885662482 -0.0428679253212465
0.38048840982973786 0.2240257385054747 0.09296764393502599
0.3723124241567177 0.22290643577842673 0.05040558301887188
0.4059058338401371 0.28902110753722354 -0.0056952639314715725
0.4899480769235538 0.2487584626486523 0.10223665048135899
0.4411850780717117 0.2104340146858874 0.011559565015147655
0.3370412312312112 0.18045798788594425 -0.014185344060777538
0.4052504553608003 0.2048691138328138 0.020351094843306328
0.38842808190167943 0.17318056951577887 0.03653237432035894
0.29727421771806917 0.36575354065433885 0.03474106197961646
0.3717131218596421 0.20133275845148546 0.04632614235742949
0.520076989295049 0.13579244510717103 0.008960910191092353
0.2432300756632486 0.16630740797133114 0.11728326738273154
0.3785897936650571 0.18350669632906147 -0.018871725787363403
0.4576749701565319 0.21108172187636853 0.03968513666549711
0.35447771505036485 0.24815762031327893 0.08078929850643135
0.37714388458425674 0.24971978542397721 0.10649521533449047
0.3941653875101281 0.20473368258656421 0.09058852964281527
0.4062822433119493 0.20304435038615054 -0.06117823022808011
0.246736231463899 0.28390785577340694 -0.016413455042055602
0.3270842402825451 0.20360266441419128 0.032156009574265454
0.3936601463478553 0.3080119545902278 0.2023945511670746
0.4257147920026796 0.29604520121176847 0.09377152401611966
0.37292226311286925 0.14644498274685702 -0.048032069170290015
0.43258994769567494 0.22111105960934196 -0.0173307015314208
0.41765086928003825 0.1566459382461005 0.08942125349244634
0.4185026555016975 0.18225128508143484 0.01605647284651468
0.4562254185545669 0.22169104915849402 0.0919664183151383
0.47504369482760467 0.17785336405083285 -0.0193050520169038
0.38718253106299017 0.21254017695221705 0.05082728041676887
0.2607790811994022 0.22459143574974405 0.07835247599831519
0.28668083230233776 0.2642230294015775 0.06623756493948463
0.5925350310493513 0.1835430434872194 0.13512278850487291
0.4301240197467848 0.2256639279194701 0.04900350069951287
0.40969719103335933 0.20115950397311622 -0.0041985154932717705
0.3737508761352899 0.18072986288780157 -0.0023403813351023928
0.34333456313228794 0.14106896825097692 -0.01376269299370847
0.44829475293136056 0.18563666227171893 0.019525846782727285
0.39499047345040594 0.21657493063844413 0.033712207774442504
0.5547913379107854 0.20807940554971083 0.030560464461558468
0.3385040663720247 0.22806880549811126 0.0532864747120243
0.47740605232500855 0.25068942615023104 0.03653703458340374
0.35584142717731027 0.2602110765089094 0.08254039310065764
0.4036489357217903 0.19780551658722345 -0.02555043768437315
0.34631867326037025 0.16730831295139126 -0.07116408016759124
0.39146714711230857 0.2555154622475868 0.1490245522228122
0.42119355990062957 0.22530857871495868 0.05453206368775909
0.44236389690684064 0.23206294745668288 0.12491079555927342
0.39328222667646173 0.22941679252753033 0.03539786060633787
0.43636501668771643 0.20206833718810913 -0.004540614353402361
0.4293299803698005 0.030094301058625206 0.06979752434077113
0.37873296428637104 0.2282949377175214 0.05901518305370246
0.38086695310150276 0.18337978621009654 -0.04852940217648438
0.41311279164915504 0.2327798539084398 0.09435338578190056
0.42114073193957324 0.21482153328069842 0.026051005172348596
0.2928261958217888 0.21520190659109062 0.07453567284886731
0.38790093569505757 0.2371782688081936 0.0049596278444283826
0.4208530922375644 0.2084814903514598 0.009068013887855386
0.4652337104435844 0.198304271190608 -0.1934980255336285
0.44088258971746086 0.2844987708470228 -0.02800054131338925
0.506770888111447 0.22722950305897882 0.0699685406690378
0.2705040851840579 0.21536659834507077 0.024523362691837747
0.5086840683608642 0.20256515867659175 0.05059956124694054
0.4085433143415429 0.20094413340653716 0.05982213771514466
0.367691839902875 0.2346895718566202 0.047639239543912026
0.2117985493495098 0.1876780473391193 -0.05018036876870724
0.3553641209655609 0.1851410046797639 0.08067931231360603
0.48972624265665843 0.20723150450042738 0.05310711340405305
0.18839445039293423 0.20560201688272173 0.0711200775170795
0.36587858196867273 0.21663133300469894 0.05504524621491669
0.3880369976095892 0.19566459919749946 0.09039801176308515
0.37970503976023906 0.22069058287794974 0.05463926070572711
0.3466477355581503 0.23176682086682376 0.09249593394773115
0.3378871658227922 0.21607740964120126 0.008259421730485883
0.40066901136120237 0.21539318882437897 0.07989524908845169
0.39379059268816263 0.21512068226246583 0.07377887805640171
0.36899705928784954 0.23918181456315324 0.09676589527295221
0.3180017996520519 0.2677528378877554 0.09431568557323544
-0.03753673584147066 0.4057041580092715 -0.28507301120811235
0.3703739727545212 0.22122768826407935 0.072164815893629
0.39255070709768347 0.2150615993692213 0.014838469390326736
0.4203879202698886 0.19843338127856214 0.0135452361118098
0.4101426943965265 0.22340711432207172 0.05567816693067584
0.26045017185492725 0.2456564328975901 0.060849353430839415
0.25478988701817684 0.17136316991141598 -0.03592387802567032
0.34163815957597876 0.22437771741357437 0.009317501784778415
0.3049787965931188 0.18630349759500575 0.0895344483677718
0.606766812766864 0.24858905404053644 0.02162306296216343
-0.10257504463356781 0.4391663584518142 -0.19227212934626436
0.4226680399888494 0.3276902662211114 0.14452412656640945
0.42556120165593825 0.40457379375507685 0.19052593643283444
0.3580644629916492 0.19750950106383414 0.0442262675761782
0.44680234088420434 0.21612162310131566 0.08734894429713336
0.4471019914279708 0.2513329766678396 0.0751556223611658
0.4136424281848008 0.19406322751933658 -0.016951074992547888
0.45735854199998016 0.16235628883733 0.13080060592156428
0.1612941438976918 0.30816085839947505 0.0959033534934548
0.5963865431950666 0.17072741958986626 -0.0011185989108071226
0.264217559135588 0.16201527854116193 0.08346133660741373
0.3493597522920311 0.22097406494947336 0.11515116749129106
0.33762338921400215 0.22282401997486545 0.02150178165712191
0.5675425478230238 0.19390840558324385 0.09575736228151754
0.43897335071326893 0.19546980786552126 -0.016524487130936905
0.39079363643716647 0.23975006028241808 0.08970788693358145
0.4172275103501164 0.20873075758146342 0.019724938868222353
0.3764388388365205 0.16812506276710337 -0.00012823751004020778
0.4498320039968604 0.22019034858081454 0.062255385925794826
0.3758097438250445 0.23669197192691627 0.049918054800656364
0.4143437157087675 0.22467481690324576 0.03271866566171866
0.39792257911113893 0.24138505144981082 0.06944134943964286
0.30819511246437514 0.10577230390593684 -0.13212416744707411
0.3526836955871602 0.20981414468673165 0.04239615660168283
0.4195090143129505 0.21799364784826025 0.0424396736711401
0.3625410912660385 0.24621295664809395 0.05055962073285514
0.32623683949856286 0.2099772834669409 0.11841847803577821
0.2542235517273639 0.22883712524910038 0.12102297606395496
0.4245710016201798 0.2267824094791422 0.04386588891472343
0.2926354845413357 0.34407624892071453 -0.007190042723109968
0.3851457342105249 0.22397052420976138 0.05149380337795151
0.370441885790882 0.2401576703665711 0.09901132412272773
0.44741339319453743 0.225244537445775 0.04077757579827335
0.34965617359898715 0.24617435867898507 0.017985834152725033
0.4674107334594737 0.21457483099663932 0.0845680268460427
0.4072158591850439 0.22713593985642433 0.05545165344189229
0.3674443656633031 0.22737313958376149 0.05686297253201644
0.375680386663376 0.22748568370840871 0.001559328436570695
0.3977245527176194 0.22872925175380487 0.028071155048593255
0.14622149004395624 0.3300012004809929 -0.04433973883297426
0.412386518020071 0.2598849938892016 0.05313580470482293
0.43028945924328355 0.1923339574647116 0.07496998766347929
0.4654036097065273 0.2643635130137909 0.10423711339279862
0.4708651506862509 0.20950784070411999 0.009808861775013611
0.40759976844674384 0.21927345542812304 0.05415852935132648
0.43759521992474504 0.24405179597582105 0.07873077226045666
0.4383949496444757 0.181093273367253 0.021453763108780777
0.4881435800043903 0.23237627784644133 0.007273130286364449
0.4193045078926332 0.26367476062198136 0.08835599267600003
0.3493944065884875 0.17252772348663825 -0.04689505199256416
0.2707083709465792 0.21721739916023353 0.08620316670911166
0.4823500912480796 0.17939479237736577 0.03529045138847664
0.4739022080050006 0.21062996235600906 0.10172349073697262
0.3721120311971333 0.1985502809295383 -0.03716260924890946
0.3929846189392805 0.2008923760070047 0.002160591867195194
0.41462328008803695 0.19014343975325687 -0.10562724173654203
0.31339951329104565 0.2144184245682652 0.043525315150446886
0.4373955393795086 0.2536826361167641 0.08890826680902819
0.3667632651022359 0.16600997177604881 0.07643788746531754
0.35345034630451266 0.1736594406860945 0.07329480910529185
0.4299766068440931 0.1538598610714672 -0.021348532184617852
0.21419782674860244 0.019764437429330428 0.10090454584445752
0.40117063359606675 0.23776030740479825 0.13314314996115684
0.6150188957509783 0.2188638955923352 0.04855606840158089
0.9128330602663652 0.8362871288033489 0.31828596429983236
0.3981496958600701 0.21231427094994615 0.053769010736090195
0.11189709868617115 0.19968614001039953 -0.17936446010205032
0.4310283642585375 0.19316458772706824 -0.00402822235477629
0.4235173627807569 0.19787433864757986 0.05834287996347598
0.4861279297523424 0.1950742743001399 0.018023734830279636
0.2337438144768953 0.2093290348928747 0.04586316678907565
0.3795733044763949 0.22435329646569357 0.016045218542032558
0.4622242420059024 0.24601704651779244 0.19528072075621594
0.38474434277254943 0.22683235674406887 0.06196713947117871
0.3266452379915279 0.1710600106874125 -0.022552969573155224
0.31307933087489914 0.21031704909047733 0.1468491745595628
0.40633247185139965 0.19018480798652604 0.020949570510580884
0.37576735724064747 0.8994381166734371 0.10110006701430052
0.41169824133822885 0.23291480762986794 0.034050249474773864
0.3755236178450332 0.2016731328810124 0.06923004985853254
0.33525457127092295 0.17947784069258432 0.04653961935301254
0.32993783212469907 0.24225877358109926 0.07064037416503766
0.4149712064617006 0.2186120057140073 0.051321754691898036
0.39958411880073186 0.2187432048530411 0.025705106811415135
0.5052677634434986 0.2240371371365626 -0.024447072787353363
0.41597733092457645 0.18853907893075927 -0.011257109444244406
0.39195713491467643 0.2143887714589141 0.04980060378034068
0.3667777782658561 0.2351010487432461 0.037567137563144115
0.3722236675379662 0.21528013888297437 0.029596764226198502
0.33853882341274755 0.295404967746947 0.0891547351227473
0.36636557936694203 0.3154088594537541 0.1782112976346184
0.3919635876236498 0.18355825234618806 -0.04142342140842459
0.35186720274852235 0.2494635611974445 0.11162837022411054
0.5267805470319331 0.26336349896976685 0.030150974527771268
0.39220383755747434 0.2361514629647843 0.06029412099940146
0.3119568302862632 0.17408159890521802 0.21481879158665151
0.3924411967570052 0.19510407150666254 0.021177676492385444
0.42754908178531537 0.22752909757906536 0.05309978184126862
0.3769598838459558 0.24021551162940113 0.05972619959325698
0.32423930633441955 0.21627758399704078 0.1020533089957496
0.39969594020436716 0.274750121821171 0.05253585985195741
0.3879801342289113 0.20569476933353315 0.014793764983167534
0.2813257461899923 0.18079551574535913 0.009716284709668344
0.35654029595553993 0.2717280828735795 0.14717541691274505
0.45389294912590117 0.2458772203224413 0.06576343893287628
0.37983064407447387 0.23601143262222024 0.04365453473494085
0.39623368618980237 0.1769359402645705 0.06496259002943816
0.37390244354384095 0.2318217157539948 0.048843174295058134
0.45132713157553894 0.2580980116744911 0.08823227526156074
0.4174979434677937 0.22782162678899454 0.051494981609721435
0.35946080541235403 0.3042215344931236 0.0703114388555548
0.4082381467818834 0.3138350622976418 0.08653437462709235
0.47425710696093404 0.20990651774317826 0.08784828677508472
0.43314848672577 0.2332071348053546 0.07985965047282662
0.33923768493329476 0.18169992416933667 0.005061526615548928
0.3134947685427676 0.20870740914027408 0.094694928788428
0.4608867486395809 0.23451056628596234 0.045454925086232834
0.427489090824281 0.18849545449310767 0.057224593861775475
0.4957687246142939 0.23615165988172748 0.05039319333482695
0.47028427207537504 0.25136290601128053 0.07904300525366637
0.3430591511074397 0.17338456082677567 -0.02312820863156162
0.22985409619994357 0.23986634212599256 0.06522251189956307
0.3321459636811994 0.20982095589715755 0.006339538967523595
0.428770606533476 0.34302552604140146 0.05893571598228675
0.37747259057839244 0.21859109237024654 0.06061041131468414
0.4936991247904814 0.24794188529261874 0.01234415642018405
0.34380563774253403 0.25731346323220805 0.09682599669676506
0.3838853158182758 0.2201797674977115 0.03906670161225634
0.4306987698819569 0.22785425241518453 0.03415959511156075
0.292148215016681 0.2084222725745093 0.03036375772944666
0.34018727258327885 0.230325047688126 0.13198465517209002
0.3518629887400948 0.23999934283072832 0.027473317471532255
0.36340602290448487 0.23131561683337054 0.06663708814402014
0.45427187659393553 0.23797368961126608 0.06907033966660947
0.3292534774221423 0.2028987166275158 0.025463870477324235
0.28495396439353726 0.15664895847798732 0.1483865660097905
0.5692800842509058 0.33485230917899855 0.1716392339118471
0.37691195456807236 0.25207887431605513 0.02914151131460585
0.41348747618432924 0.18558759467143204 -0.018591645943047297
0.47361842100119134 0.19480678890892023 0.011707642876828572
0.39008927252174885 0.18332644262068243 0.025996560147945047
0.4370177352312794 0.19641440319226433 -0.005195861317304207
0.4114565544326183 0.22132391925143224 0.026826282414873504
0.3650011552524006 0.24766808557187403 0.07541653069722543
0.39468700553078406 0.2142366045172821 0.04025757974089572
0.3405270019486011 0.206176822043858 0.035228280878015994
0.39159469438999395 0.2196848766508026 0.03309486888879576
0.5704109893058842 0.4462183346948052 0.7111097770241628
0.5050535696488367 0.24188016168803017 0.06210840382976812
0.4955933794228997 0.2446348724783718 0.034403922387696184
0.4502449718357866 0.26050825900009045 0.1737462376613479
0.34804084850267714 0.24321084285324446 0.14081532849886003
0.40680351966733497 0.20449520325919934 0.04736876484783181
0.36571015834238096 0.23261617161855952 0.07523332930739457
0.33561034556024083 0.2530213705084634 -0.010883078507362143
0.32197298601474245 0.16115754273869243 0.027524105899615847
0.37348023962428556 0.228308858987873 0.064962676755556
0.37944194443107904 0.23281058783496178 0.038942374520289036
0.4291915803539297 0.20974174056556194 0.02185175652451221
0.4540694724121863 0.20699133482017373 0.029844085267143328
0.2781742351391472 0.5160390083964046 0.0027336305830658603
0.3214593550265903 0.22729876740727661 0.07790939098832439
0.45504270368684274 0.28866262887814287 0.08133087436432618
0.4479223655461624 0.22219331557006683 0.05408878972143327
0.47212305611981265 0.2738145361899029 0.054108526385618916
0.39260831080829917 0.2201938710871616 0.025854456052513797
0.35036429883960807 0.19356483584954276 0.00396692725541925
0.4920573794786378 0.1268583049305505 0.08501619140446337
0.4623082551370743 0.24071357093646384 0.0998259701360098
0.38738238032780714 0.20738066709756708 0.00994353685635474
0.4346112993647182 0.21557062744518873 0.037458393505886534
0.38538873476298363 0.1492364940509674 -0.03340389357491347
0.3649921917318011 0.20351108604448598 0.059450771156321025
0.44632666418752365 0.30988785989777057 0.008208355013749724
0.7614011184656704 0.04461581469186626 0.3838117288666041
0.3733946626450404 0.23107349901903262 0.02943662532408098
0.33272235094179337 0.17875582617521957 0.016475529452378623
0.3978391336942195 0.20527788599102337 0.047853802578941895
0.3865183998206021 0.21555093770075473 0.05623868077046268
0.38882902970972566 0.21399745971199025 0.031090260002230252
0.4946689577803056 0.250740476017171 0.019113547786176355
0.5069358770560086 0.2301043531819289 0.0767974911745597
0.39801770415775195 0.2159525778672844 0.1320401604579331
0.4680636052946312 0.473158701896466 0.062319136865227165
0.369610288607106 0.2324623072542522 0.06025469237420111
0.39244210802999646 0.22566238286202633 0.036059451145519006
0.4498555719605122 0.22377260790943865 0.04422185127864964
0.3886913293136587 0.2221137418382284 0.07686082425431096
0.48154836131450907 0.17844931268578534 -0.07055405261220926
0.4281294017409323 0.18041676629042058 -0.026596493818999534
0.3873437918668401 0.19770106950934974 0.07195663269575903
0.4274550340617509 0.14180166964166574 -0.013627165386708384
0.3867433009497603 0.19372312724959784 0.05306043742686484
0.41814531086438933 0.20060562230585788 0.02733483671838144
0.36009135685068827 0.21691535313905774 0.04216866555181298
0.35802604928261417 0.1552483014778261 -0.05916702470403834
0.4073337257750609 0.2137282850976021 0.033688697047495
0.3461077068249381 0.2774249952350658 0.07836267752074377
0.3982909099446772 0.23931091692608675 0.03886802023893665
0.33288694777883165 0.26708530577896283 0.05779313372813988
0.42106703441463367 0.21887689230243268 0.03219468222494015
0.4881418196785603 0.22789528217307975 0.06985076323044836
0.3864992307614017 0.19908208743902378 0.043303583453763395
0.4369676675184735 0.1805515572722527 -0.032013149197354096
0.20201050199918313 0.2526966793060126 0.003190511915519778
0.4426876495708143 0.2453716809850448 0.07683352117591369
0.3989505364839232 0.22372192380797173 0.04576141451059357
0.6125742804287597 0.2377235753809117 -0.030622130997500108
0.3727001738097613 0.15192772797968246 0.026346579335495335
0.40603411917442145 0.25009757010658973 0.0497804685069525
0.4848418133048824 0.1833160050138929 -0.08064969712998504
0.42774546025638926 0.20103698427624295 0.025217646394139592
0.36777848184516415 0.24369391965345244 0.0986378410748614
0.44618686003266816 0.19044263463524658 0.012777845180991676
0.4027795472514981 0.26052926597958503 0.08847180555548562
0.25602268908825465 0.1647665901382851 -0.010001112652275879
0.4711143465337386 0.18682010737967403 -0.01536198295558222
0.23689768621343887 0.16911607074634105 0.03151660954232227
0.4333276516785247 0.25414222872181824 0.07089147541438479
0.46640619086804236 0.20989079045298809 0.070490885746338
0.35161014170641636 0.273373605562341 0.08221543560796363
0.40251893264189675 0.08239548911359407 0.2058194992207234
0.4355241829879901 0.231536160477674 -0.02144842323730245
0.38589547019337544 0.22042352091428086 0.02190396259635463
0.4849798756571744 0.20748290922699653 0.007960669246060093
0.4295990423466094 0.18170712614528384 0.022627368282428506
0.12613930054234856 -0.21513207413030955 -0.6418526648861445
0.36006431233633407 0.22983964273670665 0.08149341951815359
0.38899421698380365 0.24808916326001906 -0.007708786819861757
0.2844574962910116 0.16769395535904152 0.005605966816801811
0.43564890838672454 0.1823903691565505 0.10205557692364664
0.4724678275403278 0.18595397107776535 -0.0771687542962809
0.2539973451884521 0.23105966743841577 0.1725211211600879
0.4131896647935491 0.22911606013214225 0.061945844988429144
0.42138088461712186 0.2009272176701984 -0.0146248807720184
0.395842056014601 0.25913280037752884 0.011848574264178069
0.3324653098729726 0.20067666738216872 0.039050178674457925
0.3956320070454069 0.20508747506559644 0.03977686240608591
0.3213148655395628 0.23740601565191355 0.06753768925648274
0.4322661901080238 0.18801911668454352 -0.0097745681155601
0.3743839049919302 0.2966866720899475 0.12529482650583645
0.4082531468033608 0.19529350495258768 0.05455222875971799
0.45267529009764473 0.22772652266306181 0.22014496932392547
0.3888152187548144 0.2178877073030634 0.058839730718958094
0.49049545305928177 0.19880457678104335 0.008382532389305197
0.380143047762715 0.22895759786609915 0.08664745468308865
0.39856456694928966 0.2350905402002752 0.053015697134711104
0.4141237248583707 0.27445625446272004 0.020047933097316673
0.3497349658437656 0.2415196888173341 0.093997455406992
0.3658622562825258 0.2587274112300406 0.09519016231433852
0.36946486000267953 0.15788718832442328 0.0002839325436951867
0.3894748369111767 0.14247973024349392 0.18433250271462498
0.3904509544031214 0.2517104570616482 0.05164943120155385
0.32538900611191934 0.21269589246473686 0.06793752065912884
0.6994731342177545 0.260421411845428 0.2581252806883896
0.48622920737301456 0.19848308100544898 0.002136702174908578
0.3482604456520306 0.18567296906184083 0.012656011952202562
0.5649186525557894 0.16022979796522918 0.08846973856707052
0.25736557802292737 0.16026709037573994 0.15780575663447394
0.4206047274636546 0.1542959954145715 -0.039243629530446356
0.35877099224128983 0.1872645595801714 -0.011252352916343966
0.397703761615702 0.17720179782917 -0.02554333330695613
0.4245059294586895 0.21542371343338118 -0.024524979217488863
0.46537033553877905 0.23517071819618707 0.08747320674538628
0.374946717440821 0.23424619257764334 0.10404218221580663
0.4134545857371137 0.17783667365880262 -0.030855155023871816
0.4297360617424175 0.2134565141333269 0.058013150738275954
0.3159932258247977 0.17089895333174354 -0.048333268116834915
0.3625421790884218 0.20797458561466442 0.037483194081232796
0.4288316701906467 0.21770200543110718 0.02838887961976866
0.3306797770847112 0.2679418259685349 0.14320499272648135
0.48333245073801834 0.21693692505395745 -0.010241573528844583
0.3093700942123405 0.24541066410185408 0.11899885662354848
0.383081082746628 0.23384673089921648 0.06944318779451919
0.3777440135626904 0.24745263633437276 0.07854743625850347
0.39133096270224144 0.2157259091292616 0.06384628928674374
0.42222159205326193 0.27132084871726647 0.13491591219937504
0.16481557935199476 0.14580732883911196 -0.20188287100839375
0.38313315053417796 0.27728649671669814 0.13855655816443857
0.3180141038487818 0.18712233990534344 0.035023878077879544
0.40044630206385534 0.2284644943524654 0.04348907282265202
0.426970363026669 0.1901572990869056 -0.06129287202945477
0.4109801543793594 0.21707029954832535 0.04717292898973824
0.4238134568952887 0.1970159998565748 0.023782418791313376
0.47789856867780145 0.20867377418117883 0.01691046664424789
0.34624269205254166 0.2182326840591884 0.05620009976074414
0.4062578729474353 0.2270858450998503 0.06073334411695441
0.352321894054171 0.1839313854239606 -0.054937003539976104
0.30991616559143154 0.23439830960647612 0.06685572749512403
0.45267308603457934 0.19510958560387337 0.00037658966974163377
0.3904996766725901 0.20175070374159532 0.0590013286835358
0.42046405509481133 0.2166279833313638 0.011933624143892985
0.3835365871075851 0.20046273852896945 0.03914890687983075
0.44876180396170184 0.23102344010303 0.028996987010756925
0.28828530458247315 0.24916094302497527 0.1006309393275302
0.30768237915103214 0.2034866030109299 0.0662782291647801
0.3638046603412164 0.22886836276182976 0.0710372410809299
0.31659204883553116 0.2473541280478173 0.07640843622922944
0.39025689302243904 0.20168612634903127 0.04801013860429748
0.3945700867463273 0.22382719937736795 0.06818666532325324
0.39583036071354627 0.2202255579974235 0.04480914105060663
0.24782093219761236 0.2665162559583507 0.06468707427387699
0.33162619685316486 0.24979508444869225 0.058559938511507426
0.3730045571067109 0.13979201639368455 -0.0013042432485974587
0.4302942328835684 0.2560298698294474 0.14104273906788478
0.3778424699263496 0.22837499207045653 0.07016062832062175
0.31485627777865943 0.283433057563343 0.12160390721811609
0.38813273656504066 0.22975279370811563 0.04163983720188469
0.41663006275405223 0.2249605202523952 0.020420583674777504
0.28442433300459413 0.3161463388296255 -0.03950428909482184
0.4585688221722819 0.1631583011630937 0.028750603994694757
0.383121005217788 0.20579009401987491 0.03455752603200324
0.31604399506363734 0.17732909346329961 -0.04700276633960243
0.5896483941214967 0.09329799208376244 0.06754678319035179
0.3251104729794747 0.2471477724908624 0.13517205403667276
0.4583288077053709 0.23779352449494695 0.041297826794760795
0.29850270773209786 0.2444132569194437 0.051532026986564006
0.5610821962694814 0.2912981313822911 -0.007502618328913968
0.3365500271278563 0.24463487379406956 0.01590409051033248
0.48382262910048723 0.2455321668269903 0.13245106020085018
0.4105795383912181 0.22961956712651954 0.10964482133141473
0.5071954537054637 0.21037196436486738 0.08600901531718819
0.2902971803674177 0.23796708849417314 0.07864707363697221
0.5019955885755962 0.1615445394627386 0.1567595072855852
0.3605717303650522 0.22678705399653154 0.0883257886337816
0.4131587535045895 0.19027164627297566 0.04939010748182682
0.37738296492887 0.20875936655220073 0.08630344206001439
0.3941925646899449 0.2429663844920924 0.048716761192537206
0.4868542825808504 0.18783273099168696 0.004065428938844207
0.37842090065646516 0.2326253652842638 0.08113820075382705
0.3195720001896376 0.19625614520688828 0.06863023984121241
0.3815164018321582 0.1730060916258367 -0.06135850940314924
0.3788316672456773 0.251137875116882 -0.024110317042769225
0.45950438201752775 0.22050905111697716 0.0008776080360064498
0.4815952186144159 0.2166172793448311 0.0600239698598557
0.3910397785120949 0.2553500778071651 0.07208054164895827
0.4288937959743748 0.21114916614899926 0.04904949322715879
0.42041189787929056 0.20306392988246103 0.03765007356500405
0.3889250075275186 0.20170407578655158 0.09275714053947581
0.427247712903835 0.21701989206113126 0.04476757631086059
0.4559110074923751 0.2443903442627544 0.09454917824592712
0.48565756590602405 0.21189571078912195 -0.029556722198378793
0.4763225993911817 0.19315291354419628 -0.015510109071954048
0.40589800757223315 0.21208668943796738 0.04410453428435801
0.4169776184934335 0.1971028638463963 0.005051720310873975
0.33575127384024483 0.2362964598670203 0.011410265494362193
0.4096735623819825 0.18784193741910826 0.03898086207556162
0.2974316570230826 0.2096181171866931 0.029379134114975614
0.43066101803998436 0.19944300890601596 0.03869221960412972
0.438516651194675 0.2288815615995503 0.07123938965682441
0.4228338874353881 0.21608836230174688 0.022558179631744224
0.3941318393276987 0.24438455801629289 0.08087253843876852
0.47295252418768996 0.22003071108383665 0.03484203005459108
0.03601650047670546 1.4425995500308915 -0.13249982843728958
0.35801396548589537 0.21038707103983256 7.095525992895091e-05
0.6150701705915083 0.32100433565412345 0.15350108427682585
0.4016269853849792 0.1895357768493966 0.020880679373618705
0.44783812348785546 0.21484073043814078 -0.011493201632191585
0.37015246398141244 0.24663768442397327 0.051116231463510076
0.29990718407117356 0.2632971697123736 0.1319443044352795
0.3990528449113526 0.23743507034291156 0.08890558083892586
0.4099038065395746 0.21838103466429004 0.05562117180082282
0.5117921654029374 0.21517565271850003 0.05399385339035234
0.4800677214125244 0.1926289006661932 0.027935535964147107
0.42323981815820844 0.14928421226316857 -0.06357579765327159
0.25809315733053495 0.2253364100242976 0.034832285884192515
0.35414416928146863 0.19929456945155266 0.038766146466613804
0.48619868269017275 0.2271355197824363 0.07579667170443827
0.5905716164330244 0.16605989062949789 0.09647536997837847
0.3426522206925142 0.26698405356643207 0.09531318149886658
0.4284201243384871 0.23969632178263112 -0.021172864063686347
0.35269267195447185 0.21954235988266646 0.07038317553417528
0.4056503401184983 0.20679915409075988 0.02469866115635
0.4996723126873519 0.3804768804041885 0.15253358732027777
0.4202663910832314 0.22945190081412647 0.060112191006126636
0.131819927427955 0.25228480881628457 0.1281208678420711
0.36048175763097845 0.21866445369344945 0.034233620956456434
0.4031381746853526 0.23606261317743815 0.08814886638643316
0.33007147744049803 0.20540288260696116 -0.01241767962284257
0.4305689966703454 0.18000291969860882 -0.04360074373065004
0.38615777815475383 0.2446260821022861 0.09413035193432506
0.4065134405284141 0.2834800485773883 0.13670586610837177
0.3754907437674433 0.2429571635529726 0.05688759040498326
0.3668447976544087 0.20435944479248747 -0.031183997764102855
0.47590249396724005 0.25776014160366856 0.1241296222352446
0.30777978376886495 0.2401581192782487 0.09998305647209804
0.3585115927754856 0.20021585295032196 0.06026316765380102
0.40867784164879595 0.21887275122557526 0.04904467343936858
0.375140493170278 0.28941356880976343 0.11714617633296598
0.38668322114406806 0.20989140784729443 -0.003090205000191304
0.39832241750825403 0.177919758629983 0.03782665926429729
0.4576630354681299 0.22733586420366692 0.03854684103370687
0.40194380085110026 0.10261395553538932 -0.04090368551791812
0.4018055858040839 0.1984162035281969 0.03203121043745227
0.42225764983419367 0.21061443320651563 0.038766639648997625
0.4021973321411565 0.2108973564122607 0.05897115035463685
0.46439021032685446 0.24724385438635466 0.11665708807109354
0.5223356482471644 0.23548586127330395 0.03683031979019802
0.36722715200045286 0.20535167451164682 0.04545133282158531
0.24658105316623846 0.22682035233553677 0.04728566697301062
0.5013723582464991 0.1978055170655324 -0.005294930700443956
0.228442636946653 0.22377372935427786 0.0507246538299313
0.18485422756234016 0.1756615091310607 -0.06572993571815289
0.45930769359954127 0.2716396977548925 0.00897212057347474
0.0198046572584758 0.3151507586441795 0.23269094088448128
0.42796314662166424 0.20772848377362152 0.023446048513818596
0.40022416943511985 0.31121229942505124 0.16314587169466677
0.5269142012118664 0.31304818954383506 -0.28679974104898065
0.28871666426051945 0.21359191832493707 0.028994346787669656
0.3291817016863092 0.19179692769060352 -0.0019717717126468415
0.39571081170606703 0.16836256117284165 -0.06891696049424922
0.40050184688301727 0.2504622471840321 0.034856211131284454
0.32805316834969744 0.23780554522743103 0.08970486937568012
0.31222507095264973 0.23346151510023105 0.07112513488567629
0.39795112702910274 0.2250892408895595 0.04456132994943118
0.35044378855178593 0.2351911684436061 0.0729341776196577
0.4391393545543565 0.22014373341055204 0.03410085041670641
0.377645158214051 0.22296810972605385 0.0571969474677303
0.39288999468203656 0.24120311903197944 0.0032246876033639182
0.47049664642469224 0.18320975648708782 0.005725043098351534
0.642289770226057 0.10762094730783645 -0.05728367421176017
0.32830042140832916 0.1887360037035819 -0.04899388750659739
0.4495680093868657 0.2334530196280724 0.02747265881548344
0.44272057185494873 0.20061980721391137 -0.02813030974208175
0.3880594144601446 0.211341406499713 0.022162507258485675
0.23834904753076103 0.11663306293496589 -0.013299078565040645
0.315079087813686 0.2421852705266616 0.13020734206037332
0.34899137955969195 0.20220348563670143 0.09105023008356739
0.442699334869161 0.20081730637255646 0.015143675281535707
0.4261042139166449 0.19167823177059518 0.06433905346122515
0.32423815576871107 0.22107296607202898 0.005651104660614692
0.46436136924401694 0.2596337273900815 0.020707040716956726
0.39801978676860017 0.22579596034393035 0.10623155534598538
0.4149545007554565 0.22921745555868256 0.05418784392250586
0.24520404626215964 0.21487075202210804 0.01910818023708316
0.4657184311824665 0.1829404141382014 0.12926837800426938
0.34363496832384044 0.1664589102706202 0.012542291253623716
0.45826222105469583 0.21540496694527178 0.024648852391209175
0.26007778211356936 0.15458782473673693 0.012394435865047626
0.4470884314342385 0.2518127248339965 0.08440525855780834
0.3351992441317009 0.22467136111536945 0.022433861735194682
0.41277676336213176 0.23036840297353933 0.04933668884551423
0.34577478432365183 0.19221544209685248 0.02536281126478457
0.5749530029194716 0.2596483600359534 0.054677902693555325
0.3525656638778969 0.20006630275943849 0.0027826604467406924
0.4393905502514599 0.17316952789684592 -0.00680726297775891
0.292564723765679 0.30828676834383373 0.041457623774817876
0.6761561923442088 0.29026233061699713 -0.006982922452863249
0.39078801180636447 0.3210393571047234 0.027790717087441408
0.3456156607533245 0.22241019511957916 0.04192041820715531
0.38844143516743657 0.17896476074980683 0.055639028553500225
0.417773381089944 0.2313675558212367 0.022113357482936635
0.420416863579959 0.2144158152850224 0.05001874774609405
0.22556622861750952 0.05007329788702464 -0.06895113564186772
0.42982809799281085 0.20479064978732708 0.026316908430715102
0.16740956389551798 0.23774797228105626 0.09334928977554569
0.4187744462213061 0.18946652727956348 -0.01357468320847488
0.4977681266853011 0.21649204534749344 0.0320673395185338
0.3684799318398291 0.2655448522359052 0.13179859299107477
0.4369509276064605 0.26873252564648453 -0.006106033115770515
0.43025274169355043 0.06808141496739495 -0.12874102575167967
0.3711752100598602 0.2188172235418051 0.0366586964550919
0.34673755574451093 0.2166717838671275 0.031141989111347357
0.4558866071073453 0.1807551809973802 0.07922859345359257
0.340065218367954 0.21920345304964428 0.09011340304790849
0.45076885615247875 0.21157009725030207 0.0517527159527873
0.24749408711660692 0.2633254616791305 0.04295804454366703
0.359618431206286 0.18766778009290874 0.016526844683482977
0.4489335855079162 0.23313722266996706 0.0697142114942153
0.4122531152561635 0.2462755341014713 0.05222399330413907
0.3056854586045006 0.2364581999218558 -3.76533816393021e-05
0.524237823890445 0.07517881703074636 -0.1227767685882526
0.3267732290389205 0.17825288370065095 -0.05450170666495069
0.26506670567533774 0.20578938030183735 0.05309125274916937
0.3360174428951268 0.24057414925171372 -0.0382665885315987
0.37620104642451224 0.25496570667738183 0.06539132195720754
0.44860771531268995 0.22223224237984596 -0.01185084996897956
1.7669088051500808 -1.5447744690734169 -0.9317637440221347
0.4008817077122586 0.2142641184680656 0.0381058842357902
0.20043688342408927 0.13455453030512388 0.08823320466834161
0.34444584936650813 0.2169028818381662 -0.02257898789423507
0.44684242243033623 0.1869842263654249 -0.10264690694710055
0.398555198668447 0.24867433684104867 0.0883053622176817
0.4281416556316344 0.1532348206828118 0.07259604439911982
0.3030751834962899 0.256422057338213 0.040697286127254984
0.8029476734504613 0.1070106288794932 0.4298613927174557
0.42641676430730513 0.20360301748704046 -0.003397414633951712
0.3176145393295542 0.15085593356306504 -0.006567351594583215
0.40469755377414174 0.22508602499330266 0.05337672775456781
0.3377230827230022 0.23700077663352204 0.0032546886931186236
0.27743233429703196 0.0775896342515523 -0.1562460955272229
0.44094121592215174 0.23468632560957303 0.03252578042224741
0.3946379477963404 0.1766222379380622 0.1620037199403157
0.48312018933728496 0.13141269326142435 -0.0038554824058678605
0.35252373680994253 0.29325888770540587 -0.022865920222685077
0.3866984847115873 0.21609956225415772 0.08798203388261072
0.41018262608831435 0.19802845501511968 -0.012230418586142378
0.2747427204177768 0.17827565071928575 0.024410215112979472
0.39319812066959514 0.22545609357118224 0.06283344049309392
0.3696709555858888 0.2247925549319234 0.051825937222247376
0.4622421643743877 0.24405330652236046 -0.021140472808951927
0.3668434011993611 0.2639927496886969 0.13267891632651185
0.4430198494700335 0.20509112173812127 0.0321866845494867
0.3751649135248982 0.28888732010112506 0.19981129070930592
0.368855683567233 0.2179300514138447 0.03747253862709954
0.4709940701406623 0.16456903109678933 0.05271914270645084
0.4629164675278048 0.23141150132651944 -0.027062743738866857
0.38323013590115806 0.2521333282738851 0.11152289712043739
0.09047583005522597 0.1935969859360398 0.03984513634785003
0.36936263321948104 0.1908690368881878 0.0880075734521597
0.5340284563110345 0.3368734264814748 -0.12068659689089145
0.45892782473637794 0.2973447136496361 -0.1604004964768535
0.4634852215527445 0.17114970590836265 -0.26364949427113515
0.4059138664643598 0.2412356503531612 0.031541111575990044
0.32839082728835933 0.2902604432939029 -0.022055901982170667
0.35326341179938936 0.22906744331683626 0.10514599669252789
0.3710051583094014 0.22651126570235647 0.06748743065071494
0.39815951917083225 0.22534073308870006 0.02964580824904317
0.4643957034249979 0.2077146886645096 0.04039216095581821
0.721352869023633 0.28132780871453633 0.06059640404032507
0.4138800271204701 0.24576044494232008 0.062323559564532616
0.5598036728625289 0.1736510898256256 -0.0039442641419924485
0.2835769186167596 -1.3584894879256808 -1.0697007001287915
0.3438480820678933 0.20486908100917844 0.05528203089090766
0.3882875415987712 0.18217964962343558 0.07408213004094932
0.31430251193512504 0.23928340537268866 0.14437995830428463
0.4191710958331356 0.21494693146313182 0.054407305698248365
0.38384996483520695 0.21519707324159754 0.03148560106397724
0.2769423517943892 0.2246861935274893 0.047555852386494735
0.41045304874521094 0.22645050865921235 0.055971698459586605
0.2083652642531888 0.16296467211502375 -0.5179798824435977
0.4714377197168744 0.17148544202655103 0.011933002008447602
0.388626080407505 0.20546315072652988 0.03928651241017178
0.3938291221769674 0.20856631095203682 0.05208736809123593
0.346626527733477 0.18393262711602176 -0.056835056331379974
0.3892504230816485 0.1867165820990806 0.05932138114819452
0.38270151126594953 0.11914698140672897 -0.13763026821823132
0.2524227535516701 0.18933803187861997 0.09156407483992268
0.3975867756730622 0.22881727688141495 0.03625498822522388
0.4045050887331598 0.23375970971611082 0.022464425692135137
0.3875443149812696 0.22407526070708172 0.02240376753785256
0.41759480337699983 0.22615408549535232 0.0408966327185567
0.48742905594639296 0.2356778004774469 0.057081462534881666
0.3430367532101428 0.2140432556881393 0.05582685447743074
0.36689378070678913 0.154067128576429 0.02650323878577865
0.3246617027427732 0.203579286839755 0.018520037009423618
0.2769064136855661 0.21099917361117093 0.07940850666105348
0.3861687114150243 0.2085880760720613 0.11000505638625668
0.3679742653954037 0.2519572761346467 0.048910249762371905
0.41628015110590866 0.224408573549141 0.047841680826081756
0.368078341449376 0.17785556200168173 0.0811360558480203
0.3139181997524787 0.3518600185279013 0.15633713018418405
0.3725002623547482 0.2023836888324695 0.02509078640493101
0.44080957306435664 0.18713187332124903 0.04965650350247586
0.4290211204943404 0.2826011147731009 0.049668749966770065
0.39071901038300894 0.21080582422065675 0.024403634659307727
0.4063934704280996 0.23458125661596796 0.11691271414008497
0.3467258704766891 0.22156055502132688 0.04621932650064764
0.4720441452609805 0.21498157632025539 0.04187425324924732
0.44842723799364137 0.19472576349366477 0.0011666697970724726
0.3789157414036026 0.2582984412453868 0.07092554423090291
0.4199425463665136 0.2300899678280217 0.05455010497439616
0.3222639414682078 0.19390543059429888 -0.11302712970839934
0.2157563294874194 0.2957292518010348 0.04592472870507436
0.5007387174396172 0.22225290066711523 0.03162458133186874
0.29061671053594296 0.22040614282333593 0.07293799500972398
0.3800793806893523 0.2334861234145933 0.0323002739335152
0.3241180896155811 0.2506014598598938 0.012001067863025128
0.3685195717852423 0.20549080055612023 0.05216219187383331
0.3795607813829065 0.18618501162848133 0.03873343953523545
0.4316957386727438 0.21772149906084337 0.04671679832060249
0.2930375660865252 0.23905662469826439 0.13140885606227926
0.37401249343423615 0.235640279984338 0.10697190491165998
0.4103624902806047 0.22736702437870804 0.04500677411391507
0.4496794844244363 0.2874119014584835 0.08291022602325882
0.3694664567146049 0.3073057651957214 0.14383215347874057
0.46549102976246104 0.18431392743246988 0.1172916024446522
0.3355447384911372 0.17153407073038807 0.23600672064912942
0.1834199613251144 0.2656619824303732 -0.02557075579522916
0.3080392111218089 0.19895748329182084 0.013821440873456936
0.38911130072750666 0.2221758821677895 0.05001002425413503
0.37428330489527184 0.0893696067130918 0.08877653569194877
0.3874054395610216 0.20337139068627152 0.04787361386703992
0.36138917014056915 0.19618739068150148 0.027807915615611023
0.48129825606955023 0.2109088165797175 0.02065685993477473
0.45026915598944584 0.15972415455735245 -0.008462227951653745
0.3847014188000628 0.248297701956659 0.022851167025635277
0.39304519735409826 0.2080965037337137 0.008021647237058005
0.40960080842798163 0.2656979425147341 0.08080049175221404
0.381398136661673 0.2340658324895628 0.010030040695454545
