# .PCD v0.7 - Point Cloud Data file format
VERSION .7
FIELDS x y z
SIZE 4 4 4 
TYPE F F F 
COUNT 1 1 1 
WIDTH 805
HEIGHT 1 
VIEWPOINT 0 0 0 1 0 0 0 
POINTS 805
DATA ascii 
0.3600305696740804 0.13487719055277125 -0.07168411321994483
0.4264324411728637 0.22359330179779136 0.021392867375226388
0.425338979117015 0.1834143579636418 -0.05969111646768965
0.3876845405980873 0.2508933578960466 0.08666682711745466
0.3777869363253217 0.20920801740462025 0.07560868900051787
0.5770160396223503 0.22048544373508605 0.02792779539826995
0.4639432951888125 0.397069750161819 0.17247267034157687
0.3808545816154094 0.24263510124259824 0.07105079058575825
0.3834785460645378 0.2212483411840651 0.053792182654063936
0.42196113551700876 0.18939634807546213 -0.004399739008391634
0.34695378581344016 0.1561616976515552 -0.11097805034538055
0.4355420685098892 0.23552412529198818 0.035762647629582034
0.4001455354238175 0.20749845713839932 -0.0710403959178052
0.4482202354882361 0.23149598294315865 0.041117161201924546
0.48342268053539783 0.19295336568310972 0.02454040297766369
0.42002916372251775 0.2302933445651263 0.047264231374356314
2.802999253666343 -0.39543856578151804 1.785176440021857
0.4516436670604236 0.25049167666331584 0.04116612459996816
0.35693795359014757 0.22179561872864895 0.03586514145882802
0.2709035937416786 0.21126647081133854 0.0794087657625937
0.33540519882001263 0.21261121934544747 0.040795589336696025
0.4403417228924411 0.22233784477799645 0.08961557967364797
0.38299683806967266 0.21797238896738236 0.08808271184484795
0.5378344776015354 0.2541228148824928 0.099128264299992
0.3507999788389782 0.20573921724260913 0.048346077987545755
0.048697295099429994 0.29110461397752374 0.2877897197755317
0.33901130129135026 0.1884619874333282 -0.014319647690598458
0.3106871267297606 0.27932096217365654 0.13958651078610274
0.36014881435338 0.21526538428076947 0.09484243391278824
0.3900901586083023 0.23858941634921393 0.021904118313329946
0.4061727977681642 0.2561014544942424 -0.02656915853094688
0.2735646804122496 0.23350543636493626 0.03355650984858016
0.4424403851156882 0.20084657370000514 0.09640637267563079
0.27998255730423693 0.24597158613944714 0.05456749064165933
0.44614699620433385 0.21958239461383755 0.028433800701364476
0.38409358381792913 0.21771414131578126 0.007091776024651608
0.395981479555104 0.20897907367957202 0.08025332168384125
0.47846153438570127 0.2165337213105829 -0.023710471826348112
0.36733943802911995 0.0932211251458881 -0.001431356024767183
0.3445396685223443 0.2814412305987162 0.02927396190537479
0.39617997903295077 0.21793117512405047 0.06230387299568463
0.4367497032343124 0.26331061008623635 0.13951285499726396
0.35107183760933935 0.2333992564382612 0.06656459231230372
0.2862365830875433 0.2481688309343042 0.07080023750862097
0.459546414184544 0.32386047606378554 0.07403919577265583
0.4170128641370354 0.1803129959618559 0.04423101526759865
0.3777562139213728 0.23086288320962467 0.03893184846307918
0.5262127732554234 0.22039639907241337 0.04651905384727684
0.40537509921212234 0.20497706779170244 0.04779803721555709
0.49287174627983177 0.4267805952557069 -0.15877212262194007
0.40976026859399894 0.2897125934575939 0.06210939357235645
0.3268816099891154 0.203441937992622 0.03689381282299564
0.44476033883361765 0.1654095277742016 -0.013226796885177805
0.39656345288665307 0.2112127924701781 -0.11409768717845736
-3.1255578731355627 -0.8795360219741042 7.195718002561108
0.42599036231651155 0.23436329483578788 -0.0010837449873264404
0.338768224308609 0.23276549804441515 0.004810063747129334
1.584933257010647 -0.47276783866176686 -0.012155699888893423
0.4144762950718359 0.17498957017348005 -0.07310810315995298
0.3659816695258371 0.2384962159723898 0.019699888857260817
0.401831089421421 0.2429914514995346 0.052946471606688306
0.3503263067569975 0.2321601685152075 0.10479602679714617
0.4301890712414149 0.21568953994855633 0.04531706964510818
0.4522488844944519 0.21468941272516417 0.03094586670746935
0.6004512044402759 0.17190663943867435 -0.0452046990572228
0.5119897312380601 0.23938828098970077 0.016984938760373325
0.43631224353502773 0.18440625420649326 -0.03331243115827931
0.4989463080061398 0.2734439840817089 0.06431283528871745
0.37666407206049257 0.2066221864881186 0.05562450851465428
-0.041204456956165814 0.23445976099597488 0.11365452510233354
0.42738713473997336 0.20314239700334724 0.06242733531621525
0.39824495066133636 0.20761880694792012 -0.005214805666170719
0.3901323024774541 0.20340875218499832 0.047372029274058036
0.43267168408388557 0.22537316619066416 0.05313066516382037
0.38483077006442556 0.23013825384475695 0.04764295943303409
0.4069266127579567 0.21199432389241224 0.002438031058318302
0.5265610182206046 0.25626521867835095 0.06827461994200235
0.46986793081441647 0.23407906565267922 0.03229109904467009
0.3387316397558493 0.24414986495277446 0.1318464569954756
0.3877919965955101 0.21935109131840136 0.025383124020521564
0.3730480243891634 0.23328174945115165 0.040391705980994175
0.3340906668198045 0.25112053221266706 0.1435728740047466
-1.4311765835871313 2.146922506829128 4.390608857461416
0.4039635010363867 0.26070348047485936 0.05182819639564684
0.3672330121937506 0.21629030672002614 0.04538268517184463
0.5308406274708659 0.2632988541870702 0.05832546680255746
0.3525747372748924 0.17275153440164104 -0.038307859675029476
0.4530334408507315 0.19978488981907105 -0.019270447537763857
0.355995837693996 0.20190603949680508 0.03572812734279296
0.30685787677347776 0.1966377760140432 0.1399363258050954
0.33507967349686396 0.24151828828610178 0.0917956109759075
0.3526596937549584 0.21708157675226403 0.02104227416548099
0.4187765729183184 0.18154954240284837 -0.002626986073750004
0.4796721579448189 0.20269558489817996 0.02563549995565495
0.3863380080037757 0.22928245973690764 0.030421296594482783
0.43851087083604057 0.2089828839370398 0.015530162013803306
0.3742589897464228 0.2617936298489383 0.03772235442070837
0.4244223781959562 0.23032046879947643 0.04810790380277297
0.397281060115489 0.2261174528529466 0.01839288451664345
0.05817121700248151 0.20403761724614355 0.029572234067188674
0.3984068295853831 0.2341980527133103 0.07453202099479483
0.4415261368202721 0.17796075842548476 0.02118907391250957
0.4919143470342249 -0.13482046211575494 -0.1667052444732633
0.4706927429702432 0.23418744513827505 0.052724108451869256
0.3944369162835528 0.2127847734406032 -0.01871170348468354
0.41926026405303674 0.19270845181259233 0.052071234944207845
0.35334443224238044 0.15047745829529902 0.06577609214684799
0.32348532162717447 0.3751827469077682 -0.06474097914090748
0.4019820582484783 0.19980162326351092 -0.015075548683711304
0.34737162051536075 0.21891422572787178 0.1110688887241622
0.3758365386425311 0.06058563796406702 0.1464580991209914
0.28414877312076214 0.24048118143204533 0.11039422850173253
0.4014920328675373 0.23784119384559688 0.06293295051055736
0.4658835686637701 0.23833543485162068 0.04769752721696818
0.16767005935494694 0.4768319361486988 -0.007376329059994191
0.37888444731606796 0.25411806077084975 0.09939283357962836
0.39931810354794095 0.21488721845830128 0.02081138260390958
0.3525955292646614 0.23279969515846233 0.05025909969511133
0.34558084902721475 0.24606024387477987 0.042433708768811584
0.42964911339552714 0.25467420853999556 0.19534507158130054
-0.0035213891140699616 0.2675631577492368 0.0653894303412983
0.4033080274959673 0.2140870476881105 0.05735304082806181
0.3891465948715904 0.2230341425642166 0.03085741155395283
0.4558677229888417 0.2058492266102121 0.0292369134388224
0.45958833488053585 0.3227517732972842 -0.045867244814076
0.40434279073505763 0.22412985817683762 0.035539119750751524
0.28912106340369803 0.2038964421116276 0.08161905464052666
0.5951270894838245 0.25822767903115107 0.10554499790357852
0.36275459996267045 0.2115145675673773 0.06083216120410384
0.5056821503544313 0.18060605292362197 0.09915452369565969
0.4918979578011573 0.1922510168229934 0.037943535658200744
0.4850583812745981 0.17645473177202575 -0.0353189203860893
0.41635310466020314 0.22288149617546082 0.11233899618650867
0.3958040512645198 0.23855031521705428 0.05016010325687148
0.2628927348214347 0.26616978191268004 -0.002063653955957534
0.024853036759253655 0.19474268937096895 -0.13974926682496402
0.3203561467439897 0.1997876911536025 -0.08417932076955026
0.3461469266486006 0.25060276157738315 0.01827603410593781
0.364879543809721 0.23886058040611147 0.07276810461526395
0.28702834755995354 0.20413945879934658 0.0422379230406591
0.384792192906076 0.24325652259283004 0.11695257645047263
0.48156366984744636 -0.05564363241717274 -0.074855665932958
0.40937199519675005 0.22079767652968485 0.045730427650511274
0.48023435366872036 0.22331456363419022 0.030841619101892093
0.43624788738796383 0.22910168045716262 0.04900288063556957
0.29017453081803524 0.20762810604099968 0.04129586774337213
0.4273262739855568 0.18784570826429103 0.015280908482367295
0.4563026485364787 0.23909248145577067 0.050041890810646805
0.4241745064127542 0.2330934916079741 0.03875528575551357
0.42540734049298123 0.2502260379318102 0.046523263724012054
0.48651847137597315 0.23709820726888609 0.041811403429335314
0.3028853875910329 0.2131710350481626 0.01910836081327716
0.2941868589107912 0.2008088065808522 0.0176606736113456
0.35985074724530364 0.20595861566184226 0.05334163298164185
0.34668190043521463 0.2406686762323602 0.059284784107745736
0.43686420485641975 0.2065061374886028 0.05278267260231928
0.5557807488393678 0.236174669329273 0.09540466669963621
0.34902664561715824 0.22202677555392825 -0.19156317209144902
0.4088962003013563 0.2084316858667421 -0.051382446426899264
0.4087899124931198 0.1619256302900851 -0.04154969910482009
0.32261483876661146 0.22988091398232768 0.05112453354094271
0.316113994111376 0.18725252161054584 0.007884588183287633
0.496099785968255 0.2709798276636519 -0.09697236429269651
0.4258735980121173 0.2261055349594585 0.043032368319373404
0.3602714923437986 0.07081459753760555 0.002641863839613734
0.36173038292312754 0.16942147055965506 -0.01821343878253856
0.45311811293285587 0.2487077490856393 0.050870031083803724
0.2695871391719322 0.30359558286477295 -0.0599804485564448
0.4248414684573163 0.24576536810883454 0.14859327388482768
0.41190614440293416 0.2163930615243288 0.03404867185699345
0.3804170124381301 0.1855497850399246 0.036395446513353136
0.4227533991838186 0.27681372793540504 0.09427770326185225
0.3532485899391986 0.12513870119116177 -0.09611173426300468
0.42127060815550976 0.16994302876076972 -0.0628396969721905
0.2750038909240402 0.1675508417456797 0.0002791457947211029
0.5054872409710356 0.2055110057097096 -0.0020118604676326868
0.41747803525778693 0.22583313751947287 0.028144527202357494
0.32074014781056803 0.21995723199279382 0.1339437299153019
0.5071570077096936 0.2025667441986343 0.03586319868719556
0.39830839713962973 0.2285175749906898 0.0651196117380266
0.431666934358816 0.2404745971054183 0.02937281121188562
0.29903019448006773 0.20756643940057984 0.007412916724035767
0.4078405990017586 0.2165275408803211 0.020381853188951027
0.4012592329121958 0.2349123957329482 0.07103707868472497
0.48725593447156257 0.22910985243952098 0.060494290417111074
0.2135120054634143 0.33069191290965705 -0.24300201075143946
0.588408400684699 0.150084659906895 0.07684399177490775
0.3303689641120968 0.140380128613657 0.10737947399999825
0.3416800127935744 0.23574871387506846 0.0817519946791947
0.2517539093714447 0.22785739084224588 0.05559333546779044
0.32239976438907547 0.23632213849278116 0.07030675500428174
0.3903139402252691 0.21321600460910872 0.019120988630760394
0.43948111653566 0.15004122409114018 -0.019256401906417864
0.7132011038766279 0.3073863873462841 0.5759613071253682
0.36829524255074375 0.22845146581110498 0.06167421567117515
0.35085405734818664 0.19993167727102445 0.050235409662860775
0.40402619723650446 0.21886434355670303 0.10016693124194376
0.3695373505076418 0.2453803053318211 0.10453946332378905
0.34799818834298435 0.26243291367583765 0.11499425437006039
0.43534523500008504 0.18821887121163172 -0.06518267678100642
0.4544987637443114 0.22621583953039703 0.04976477519352329
0.42349637918782435 0.26991474687268635 0.02199754308216484
0.4173650874698751 0.23080951159271024 0.008899796653309977
0.3507006227559941 0.2236460656983752 0.02776101495416583
0.258482689035219 0.2933364192733592 -0.23376062649242613
0.2893594603759766 0.2064931402688046 -0.017515853087516575
0.4026002449229793 0.2178368761009608 0.026889126432294574
0.3734534230153912 0.23444004509056526 0.011484057861167685
0.3940411451731052 0.27026192900291335 0.11730903643679369
0.19893686345875494 0.04241434658962362 0.037671305352645845
0.4243534202460353 0.23010235400644774 0.0675155783495427
0.3861813113446573 0.18978897402845973 -0.016208714864745843
0.40713402790628095 0.28483621984932483 0.0498526816839302
0.4309641989016484 0.20033581010395096 0.02393237745997112
0.48075571262964445 0.13149763386518032 -0.012748578765268803
0.20069154990849825 0.19488771284468953 -0.0660313310443712
0.33864473165496634 0.16264450027068733 -0.053173784400783575
0.48908319805165945 0.2591419438247584 0.08790339923467627
0.29165530813881446 0.2201482000487971 -0.004025030488179482
0.4262271834699618 0.2099872061929915 0.00979912912907821
0.39532513060927954 0.2294033987951849 0.06724111478008865
0.41314214344238565 0.23454953216577223 0.046335772103020645
0.4497297273417189 0.33964817088167365 0.0902283191570632
0.40281952344858496 0.22494829551278883 0.03129491262562567
0.27912863263387067 0.11780258824677503 0.07932596764521804
0.4506928971548234 0.19664175606314416 0.008378863388713853
0.4568655564756199 0.1516318273274635 0.05196149418868856
0.33628094242973816 0.2641578582072839 0.08615909881189054
0.45278357909953115 0.27763217163150955 0.09121814497170533
0.35198380208044 0.28129426750234643 -0.012043337888812289
0.6424182956339735 0.3590528874490815 0.1877546882911787
0.38512936972807665 0.2121649835373205 0.0571215350399541
0.3742408798624979 0.21968224350311516 0.05456164889477577
0.40754401051252387 0.2060471121089904 0.032695113197831915
0.2997005104340076 0.17349634705345807 -0.0058999160417556595
0.38871403954469486 0.182515603832627 -0.002954565186342961
0.3929549316836187 0.22482689117668997 0.03618350271695192
0.35443120772808356 0.24052628058339565 0.062426523325996186
0.021831762005490418 0.2917874759101551 -0.27795896371824824
0.3986894170761843 0.21710204667166977 0.03855155245651076
0.48280302894832516 0.2720859084841294 0.10385380982563674
0.3306817883391915 0.24351626888329747 0.06504774228872634
0.4577388693494413 0.25924404964462155 0.024291460134762133
0.22540239167324216 0.23866568379122555 0.01248500394976304
0.4547568597582341 0.2380834438330055 0.1779639685753125
0.1801295204319615 0.02609409147282804 0.12012540817796946
0.3708866379648441 0.24233121721661632 0.02863920133225406
0.40331053132702266 0.2258593007047125 -0.018818574899952978
0.5853261638109473 0.24824581661977163 -0.0002578600206106785
0.4183868631096175 0.199437145566435 0.04101622809577066
0.3837334805557475 0.21427465758000608 0.0406270316375128
0.38449839291664034 0.22101789120503668 0.05655745391806022
0.3765146580751235 0.20574716503983836 0.05374534368445438
0.3955387572930249 0.22336385053765184 0.06423586286200589
0.2634209990283978 0.23392525347813375 0.006675442967974732
0.3783813460066199 0.2031291238600943 0.0297350631646367
0.42841801363195486 0.20138450755372617 0.09519753292065047
0.43899621678244216 0.2663553809488235 0.0974344194461878
0.4190619358871288 0.2173219327186473 -0.09830793536502824
0.36491633671214174 0.20453768522247628 0.044147970226021016
0.39641084008677296 0.21743298313897697 0.047661548347946336
0.4480861600276569 0.20326899535422172 0.10566084254881503
0.3983310838690812 0.2100653326087638 0.051609112806545454
0.47220589200308893 -0.0060335145392969025 0.06401469539105165
0.5006929951107253 0.18412286388321775 -0.024117084646391618
0.7333897530965885 0.3834778664354985 0.5273623606606037
0.42219196267399184 0.23717427699656923 0.12000189469432598
0.390843257767429 0.25219385355657664 0.07288232916165782
0.254173726703641 0.2381756691057717 0.0829676331456426
0.686765356557558 0.24352122226039796 0.18980123162722862
0.3734723077027695 0.2256536226400101 0.05864480113044124
0.2663806564911795 0.25080797106747355 0.07414357523150272
0.381935923368971 0.25430512939459504 0.06354692427173347
0.3556078143103605 0.20801545232578178 0.035976227246450776
0.47211990593686437 0.20622616885636091 0.010218097332455045
0.35501778001253115 0.16121884375856155 -0.03480275361366125
0.3989739003722832 0.16242505366632543 -0.0339051603898497
0.48661954679286623 0.23052610331316714 0.0514943882651977
0.20772482667769054 0.22318941001284998 0.24379866128697358
0.39910087771502845 0.21391554781367006 0.02097134839034709
0.35808107308409376 0.24374175223540817 0.08104482324063156
0.38663123989977066 0.22724251784200078 0.07760979208106278
0.29476318146349456 0.20543913599087205 0.17021189610929355
0.4702385299140701 0.18277555375368593 -0.030065544082148676
0.4099374105505831 0.1925987281247501 -0.03785853972371456
0.38434448532728993 0.20339996340672428 0.05026386641975478
0.4970962227955198 0.28650066238368765 0.05326073417282373
0.3159474320750917 0.17943011637817108 0.0645870041361718
0.33218267740303986 0.21598922246772645 0.03977411112430218
0.2730887088224847 0.22930663289255904 0.10650497151137017
0.4463926567143943 0.23778946338271112 0.0028476987934595854
0.386561691345392 0.2105256714156667 0.07564619181130183
0.42170651208795107 0.2502457286279025 0.019437205357874632
0.41200863911456054 0.26659484138107814 0.06363071373303342
0.5018097682808502 0.2008011007291941 -0.11963661781504698
0.3147140988876771 0.20872694626234534 0.06383364011760762
0.4642743220694001 0.17786141952026924 -0.01759421906884029
0.5635131339198267 0.16785714621306624 -0.020608893856419286
0.35851723472151775 0.2008018388022208 0.07909169428948815
0.4267619153273472 0.21255576199646953 0.03905041789795405
0.5239429998423191 0.23127131170335247 0.04061916463246007
0.38819753253642375 0.3017162808507834 0.14277912721895802
0.364572275592721 0.22399085793861673 0.05461768460946814
0.47025857120229375 0.24736098251798921 0.03496181757786587
0.42950383222559196 0.22393033481046132 0.04046720609889576
0.43837384242087296 0.1878768872500416 -0.014635636133164098
0.4132301326317531 0.27135958561945017 0.10139381032476535
0.38992810721856586 0.19706647844058978 0.038426636892410215
0.4903105847664335 0.24834545778787742 0.10466886921625473
0.4434041209075019 0.18898434045181034 -0.01148611946513256
0.48121510314840066 0.17001403666125725 -0.05337989034940449
0.3605457761988191 0.2116652457069108 -0.004459095674661739
0.5014848298259551 0.2586671462407253 0.02700712268782013
0.43312477109145675 0.24041104521479895 0.04623622659815396
0.5416427799642918 0.2438413565122346 0.09454774311751635
0.31208434772887017 0.17735254281947732 0.11847398660682984
0.3888144479921323 0.21096833661506764 0.03866923711136394
0.3921006176343127 0.2189267438857314 0.03954436884899337
0.389296191744549 0.2523368322366224 0.05536738584852685
0.31224553565780866 0.16456852012231593 0.020668363886215957
0.40672675269172487 0.2215253403506665 0.05086972504616938
0.43767054438603736 0.2734304074257068 -0.0004890157925387939
0.36125788634922174 0.06967573366767965 0.03002523531884549
0.416888327850387 0.2099017092947406 0.015449726208771608
0.43946330107675635 0.2042067102877354 0.013594330700158253
0.3855159458655919 0.2257839436490201 0.08061483633278499
0.35956275152244643 0.20612731074810142 0.008495173262019762
0.3969026843362258 0.19307646377987453 0.0891453964827349
0.4615250187851814 0.2128117075713476 0.03135692064816453
-0.07137797509886923 0.4126689786362192 0.21992677275392225
0.3061979767898606 0.2518769595124155 0.07636507624167166
0.4887511525721777 0.13463969470095094 0.06318790313741829
0.3747809660404329 0.1907000119670954 -0.047629342381696915
0.44514653125362713 0.1933042864255441 -0.00897987562832725
0.3734161164987313 0.1876795004249061 -0.013483925551312836
0.5593692572190321 0.2299411453996072 0.11090447041767959
0.38523524049179514 0.15539599638695734 0.04756670473678071
0.3773100511727421 0.17117029409868678 0.033154176834358395
0.4634013502340508 0.3802821620503778 0.08286809905612813
0.43340184520403113 0.20749746694858118 0.021293602279641277
0.3707805129931927 0.20458312078397967 0.02457639280225976
0.31036077808282414 0.22229683045082993 0.10435892960715876
0.5027460603902796 0.25544306079288503 -0.002109498453549463
0.4506488478379538 0.23398654402593877 0.07835853647544866
0.3727265648070244 0.23333439354244945 0.1460488061625682
0.5386451498039406 0.15718347664716248 -0.0003739525254218279
0.412765584757949 0.22592408120186747 0.03483054822297049
0.40359137662625244 0.18801472348502557 -0.01657268832985892
0.42485947757434417 0.20954137247349536 0.008292567000012241
0.3968423265181116 0.21561277705163207 0.03814711784298197
0.3920746505001915 0.229343166753452 0.047368075146195565
0.3430841042063548 0.19655950836505554 0.03505057445865134
0.33155043727791167 0.10897232140617064 -0.07101007402485493
0.6437769061544429 0.5736348107311784 -0.3992646997734255
0.3788196625185094 0.22915084208605663 0.06035039746808479
0.41238381680631164 0.267219876192641 0.1936474805804096
0.31171427226813364 0.22074136437963432 0.06553056582303896
0.3908434551969435 0.2240306745561753 0.09317677429137916
0.6653401860535411 0.369154690507969 0.3120584745906001
0.4508544141571491 0.22961239921784227 0.008491774584001632
0.4040998247120484 0.23050532777968158 0.050852266279477476
0.4423775718653076 0.19770973757565002 0.04078506873821652
0.40813256077822757 0.22331250844052875 0.07248905562718733
0.3834730923904317 0.2227149301030522 0.015838860102149965
0.26701296818258413 0.2906695722328436 0.1252679580624374
0.31224720270472517 0.19636868177721567 0.04226705365405792
0.42929895551540653 0.16966996017757197 -0.03730389172329751
0.39132716542874846 0.19498097142169968 -0.03432271637257145
0.41141668826615785 0.20432010799262912 0.03492438877611903
0.4290849388731317 0.23521089745872814 0.043824881154307604
0.38528353743996036 0.23100192162252142 0.051814889064274894
0.4173596435998945 0.19786267253289225 0.009869448044753426
0.455308535490758 0.2518378729877071 0.0895712940714759
0.5083317268793337 0.285271672463125 0.04352324286720943
0.5218201352316214 0.24823722331431952 0.046231476611310995
0.35926526018479876 0.22780376895718746 0.058062833958757665
0.48603838708442026 0.23787621143361548 -0.0017866146453116016
0.4164584171581822 0.1534861473466691 0.08551215303609183
0.30559288470612955 0.2262789409849688 0.0423952042644089
0.3215462649047822 0.3445592893498599 0.1103470340430448
0.453623634599154 0.2855265528344262 0.13173007422892624
0.35186252091872916 0.25050498659194886 0.0702064011950938
0.26300624711137743 0.27390800565825657 0.09891385487463822
0.39210280242096474 0.20514730691476757 0.036341417577716584
0.3699086169712018 0.19842030405131084 0.03792873031440536
0.4268971552373273 0.23502473347471664 0.07552662437521462
0.42479752459115616 0.2429705037199028 0.02514578370437448
0.3334240905294905 0.2614249955249761 0.1347888608892731
0.39546499444371364 0.2024291090308452 0.035301300944723835
0.5065305019884363 0.1699508679052002 -0.02383823286986342
0.4244208453146001 0.26945018774043206 0.01314269053375483
0.4899543279883005 0.32725975939754903 -0.12114073600753272
0.4222614782025005 0.24409780050379482 0.053140107633097955
0.4019225846844847 0.2269334278818178 0.07164109244726546
0.37891733629493274 0.2203057048590722 0.03687226846454905
0.3969213589685694 0.2466840201548024 0.06504824190179193
0.4808224705220283 0.22215360886131919 0.10044547268780946
0.42333591974261253 0.19199683721254246 0.021105130921768023
0.5257893602223191 0.19922245803165595 -0.005715187459145454
0.39377148150543917 0.2334946223809169 -0.016640429150683644
0.32724377204280586 0.22509867043936538 0.05662856163357333
0.44974190076010245 0.2362815752919687 0.02413129014971105
0.48915851299221913 0.24271834163022277 0.07663873416838385
0.4031159431557114 0.2331650320932681 0.04857183104209639
0.41554910283028335 0.20042610806478933 0.011986685141138764
0.38023329147080176 0.23275061354625848 0.06377971190374865
0.3168746379166407 0.168165723073173 -0.027206821107725432
0.3365827318738184 0.203082791332875 0.02745128465021196
0.3848583480695851 0.261958371446525 0.04936217951239996
0.345090957056442 0.24186496230200305 0.12049547066169453
0.29489104635027275 0.23237218420592853 0.04361574607581531
0.3160972724618887 0.19894137370283715 0.07030249168265357
0.39643979543845376 0.23174316693977914 0.09898729826969088
0.40752915374605436 0.26823590388502794 0.08576830159518067
0.391234293159485 0.24988945169158683 0.08707604993622908
0.4661946386213742 0.15829451203698852 0.014390544166801078
0.4332755936458881 0.20818204252580585 0.09187082544380587
0.41983704729858573 0.1758304135061053 -0.02842501835490907
0.3198144458663563 0.13548915049737786 -0.08575719357378375
0.5046957540505446 0.2753867673415016 0.14641317830357536
0.3487554792813512 0.24687746452067927 0.07853456899027833
0.39124771489119325 0.18483224379244234 0.006093966068306145
0.40123527280275084 0.18917694539027252 -0.004316796032782122
0.39805166730582187 0.23431681600683874 0.06632935172638099
0.48739780103659314 0.23375705126170487 0.043549212407796745
0.4081323327527002 0.2311813300488268 0.021161084843924982
0.4055052852027927 0.23215563307735465 0.03453280840830075
0.3992134545025863 0.20334597791779174 0.009586269439893158
0.5045959717840418 0.1776005330116277 0.09023883880090011
0.3927386355381657 0.20847500788991624 0.02454920524964166
0.5611621096029467 0.212285938262454 0.0608881043495586
0.2305319993591297 0.1243650300279171 -0.09160690432072727
0.5011628336017679 0.23237612515897865 0.059412113659945476
0.373080637756118 0.21682394211768496 0.036642112092295065
0.46280463597439336 0.1959915543616546 0.02651546887211964
0.5070457693159938 0.1635370720423026 -0.032379740297955095
0.40105229624393246 0.1931776161743386 -0.030304935100645025
0.39842427090435706 0.2266485687310933 0.08325380038384367
0.4081763909258882 0.24752590707886668 0.109176284372694
0.37678404079960615 0.22458748630336345 0.04169356482135811
0.16916376799193245 0.18626641231230678 0.039644429467315945
0.41112946020015784 0.22850240018723866 0.022174063114107412
0.2800280717064254 0.19429432984198058 0.004616166352960249
0.38538207936980484 0.18793992031811513 0.013928513429718237
0.41367354791908895 0.23899019644265707 0.03810515487897703
0.3798945023946203 0.22107020167202052 0.04402290878573467
0.4166530353651581 0.2172848277183448 0.031284859968394585
0.4213947897485042 0.21154042224839031 0.03359412577944454
0.3826930258020127 0.21659351536624172 0.0027728129009148006
0.3914554144798217 0.20311288024115015 0.03743098141291057
0.45821724268324715 0.1402534910211699 -0.02196596687306851
0.44377396801954205 0.20923795846853466 0.04576186171601648
0.7650672626049584 0.3356278938560422 0.6736665307495997
0.4712811525868119 0.19546370139113378 0.006179093490075616
0.27950463957539284 0.22404267363754116 0.12384594617329014
0.4823156125495984 0.19586798111139103 0.04305020594405562
0.3912385835326688 0.20146947184701958 0.02304168437248677
0.43912538032209625 0.21184821992795833 0.06979718705116511
0.3972746272481231 0.26983688251405624 0.04826887915463374
0.4353360051579216 0.22896682024544646 0.0380367062740703
0.39624463004822985 0.20177847412716687 0.026951239807345928
0.42700541791386115 0.24972040915307048 0.05926767137009392
0.3612161311152988 0.2155090633671648 0.021179848613769536
0.33459300814106996 0.23993979130247567 0.02790622625064998
0.5321134891350425 0.16370154329729303 0.058121429138537906
0.4027057600081605 0.21595914413659045 0.03329200531349841
0.39499987849512763 0.21918151110091344 0.04029634159434181
0.49676935787179843 0.04684851763491338 0.04571859793233557
0.37908342105184545 0.20017795676815808 -0.03094594934231054
0.43224777652048374 0.23670265196822982 0.05078882163516596
0.334274073397296 0.07472887069073408 0.10202965717269308
0.35145673905228136 0.16701636624227945 -0.02548280598946917
0.2049534168732805 0.1950217041976714 -0.09288040774953288
0.3422036565289943 0.279589180703141 0.12244588983435278
0.4061580918313723 0.23455475314037244 0.07349482036264021
0.3807534276306086 0.23022709739822744 0.07709032380955705
0.5333505745959997 0.25614898258118046 0.14182722406360426
0.3271990210164404 0.187005912174385 0.04999161123315332
0.602270391609153 0.20243113302019822 0.05682764517705152
0.3196259114693589 0.2552757400375185 0.12669942242777665
0.4106257750762836 0.22263374043427575 0.024145398057356715
0.4108945047231032 0.22648429697613892 0.023613950744007184
0.24081113181233604 0.18291168210851083 0.029417306671106758
0.33316727381708233 0.21159311088669597 0.005634013245071401
0.415665749838098 0.2524858231494136 0.043486781851726164
0.4601304733524074 0.2727491741179904 -0.009070451091844234
0.36298760032519795 0.21175989126697914 0.11036713975309453
0.44990790369186584 0.26826390229234676 0.09799694283043436
0.3968930760628382 0.2085263836462019 0.03899970519867679
0.3575459304824449 0.22489755256012245 0.03894253559261074
0.6123251795202975 0.31478967589802664 0.07121497669800192
0.41264773341102057 0.22062588510698333 0.07081989582144388
0.3931493584185546 0.234242323623846 0.062036832771184436
0.3684998262557144 0.20887867827653395 0.13956040431912697
0.36394135932687277 0.22506070065081474 0.06040000157612724
0.45135824852968653 0.24524966639407353 0.048273443419873274
0.4039912938891064 0.23396530704499696 0.07013122936689342
0.4378485773574141 0.256761636794991 0.11119440389845181
0.3881376691282128 0.2685224358730238 0.10206534414454893
0.4452401990485271 0.25104457451809026 0.09854120586265935
0.3125266177344628 0.24191930779696236 -0.04844883974377012
0.4915200516026914 0.23899537061350884 -0.040880150745863375
0.44753563091242654 0.23509305108649414 -0.02154137512539478
0.32964843467048865 0.2273009348781727 0.038265784797374636
0.49278768085865465 0.31410532027560123 0.044573595702942725
0.31995309936155536 0.29499635992115714 -0.08133634665442457
0.411515413957261 0.2231872733949274 0.03883373660403322
0.4345582227608986 0.21183482878575433 0.057711473437649374
-0.01481979565119218 -0.1617528407811335 -0.46332697640720255
0.4740573903697225 0.1762265909035392 -0.01872526808918451
0.39604509134639443 0.21107500263161683 0.05750413435347923
0.3515858099517857 0.20775446310784673 0.026224600216892213
0.30795538363756236 0.2503594527381665 0.1002177000266613
0.4945471710876035 0.17504756411641154 -0.07355136956999786
1.2546548523286134 -0.20253785290947235 0.022056935960662827
0.44639471882916837 0.19156917560042075 0.08343281579526263
0.4020602313314754 0.1762991348097387 -0.04726302731106102
0.4849767524442541 0.22955687074626496 -0.0163810608592172
0.3572093624111403 0.23361811498597262 0.09600825090981857
0.34798683749957604 0.23735289992926312 0.04162557706186476
0.37290561211420936 0.20367262756514037 0.037898111280014746
0.32508030503109353 0.1708007832477847 0.07525259814624974
0.3620148256559901 0.23176902604784289 0.07604503702454224
0.31017148132198713 0.12073231578750665 0.04888337297731482
0.33364938119717635 0.26973745496181323 0.09885394862691044
0.43252310550428774 0.21563651925355032 0.1000884268112685
0.19990820601556436 0.1317406747778591 -0.13975887600240355
0.3687666089242896 0.20472766755879945 -0.004360802441198075
0.3692510755485898 0.18745442437182191 -0.02778791452880114
0.388575574780063 0.23235065320577064 0.062327171937425874
0.3744903146618981 0.22411263110612367 0.06122707403628169
0.49381857568917553 0.24628751541885663 0.1007924690212576
0.3323714860054423 0.25575269423640634 0.10933927219693373
0.41684686907099433 0.26562826510243553 0.1100630427384317
0.30998540974434263 0.2720324775650482 0.03690795200546404
0.4531745667835594 0.15898475596318917 -0.11930272244177331
0.4357772127289934 0.2575834203484533 0.07382583874718307
0.4121560609461028 0.24273194069075998 0.07079261302359896
0.4530632834904793 0.16616577884423123 -0.013991514938211935
0.46878980323785413 0.16522121172769744 0.006760742896858574
0.11616889265268071 0.21143983070990657 -0.023056321829102444
0.29261785802499674 0.22056344632486002 0.014816687723225641
0.4424304185819068 0.2243293186672588 0.10293374112097808
0.3860296423899001 0.27552112451795097 0.18285214830240193
0.33361667227762837 0.23782006373258469 0.07916551109846637
0.38326153813532926 0.24212784920891295 0.05090441402967372
0.3135881400316123 0.1647329131457127 0.09193895728125767
0.4016129400116313 0.21500358042831635 0.045668179834819966
0.21051379348295995 0.1772177108539097 0.062044710847104056
0.39619884551839846 0.14655732432238722 -0.0015888279394289384
0.4643091074614176 0.2848514570752343 0.09052857055807806
0.33017600543061576 0.3343551824193014 0.10176872628639444
0.44665514736206546 0.21855737739448955 -0.019292082214548145
0.3248569433241073 0.24733583534052173 0.12058744066871441
0.14444981984600247 0.11881369050034607 0.020985184341157037
0.42333590365518603 0.218155889483171 0.03402135349531932
0.4125757691498251 0.19028589220063452 0.027412929077115678
0.3124500292987591 0.21385397025591146 -0.04966904601923261
0.3954081847628572 0.19850259536303838 0.13701256584369048
0.3934944018597548 0.2974156448124887 0.037300205590966584
0.3996464169862577 0.2359368426291013 0.0015942844567007342
0.3944818823282503 0.19881503065586514 0.13371012778370073
0.44377573627616584 0.19774969062289927 0.008169965149321001
0.32096237558948815 0.2426284090846309 0.08293613825600232
0.40154175499291966 0.19274741593318367 0.0314530055850355
0.5171713569620522 0.29324263637732884 0.05368120295851497
0.35109874692787457 0.25962955722158654 0.07295494527828339
0.37957069850699554 0.13455381721642823 0.2461064607634853
0.49237971077764087 0.2211884452313484 0.04481024949612333
0.31899938646989767 0.30696568776632205 0.06275964240705889
0.36947389429258237 0.1938099499622865 0.08773752280569624
0.29786132674949783 0.10923733627970478 -0.12841789367720935
0.4205211100049553 0.3087837370306943 -0.01287021551436851
0.4425854427479834 0.31418724582107416 0.16283747275150517
0.4858461256377211 0.2520285635265651 0.09499267462804539
0.38830682315543186 0.21179548816274973 0.04173480613718539
0.3064355341089424 0.16888533288691576 -0.0024154934908011683
0.4085354791957201 0.1945482045434801 -0.03520428836864653
0.43391911511562853 0.22853078200338928 0.03867862566085023
0.4275480806142582 0.21122729027534604 0.0511575215462301
0.39699889125468246 0.25660979114172733 0.08000299313349046
0.3367339992871905 0.2593168408511701 0.10024843472672273
0.41438254730755375 0.2308904197795698 0.021896789935510697
0.3916771728212325 0.22151289694787124 0.016870772734463912
0.4797515037356277 0.18539109194460934 -0.07744730909038822
0.3749525871806725 0.17882968286306777 0.0044197169138442405
0.38762807037241487 0.22149233260316237 0.03929421038121461
0.3723261702039622 0.2176941391413436 0.04066496362318617
0.3803356238708204 0.20869177118609628 0.04120704842559064
0.38745009409004183 0.20209767843495285 0.042446031858673905
0.39927296001448553 0.21016577197690367 0.03243158022402781
0.36176416143754864 0.22893034556562952 0.006721876331539534
0.3559008966006161 0.19506204593608345 0.017252656396465227
0.3806870609992927 0.13997632504518265 -0.06647183028037773
0.41785079379383205 0.19077189110251425 -0.005387589432643836
0.4527674868972156 0.227195948834634 0.072422597005243
0.41652044646561137 0.2556749341028137 0.12700715732115953
0.41158169371456665 0.30424324672323166 0.05955512323129142
0.3238237581410317 0.2641481003545323 0.09851401464413811
0.36618058237482387 0.24531564411768159 0.07114719122567692
0.4655976779001776 0.20736995813268777 -0.042502228842323575
0.48292956688624145 0.24651332601220588 0.10291629706020444
0.41094348051375107 0.24150569529403754 0.060642880476365235
-0.1369758781937236 0.3203123433068811 -0.03597366359295506
0.39811915872979853 0.23047272157668885 0.013283468324402747
0.4256932137144531 0.2520202520308459 0.09445348851100732
0.28948461564661443 0.19159132236652 0.026744224943215045
0.3967014068355468 0.2421422281511667 0.11003148514291183
0.39510512333660586 0.21964297296824498 0.04729552145039406
0.37959711722722034 0.2150145145560316 0.055954064616059895
0.3746540153042446 0.2463091191411877 0.07430807357053482
0.3810385909840761 0.26899235372459884 0.12145869053757963
0.35153848447420444 0.16827148334570552 0.04770042949880349
0.5028552641475414 0.2212213375167238 -0.031185766309477003
0.4356875065932968 0.24468749551058977 0.04594319493557464
0.3586992704379668 0.2121441463444711 0.013053204143204766
0.6854135719160723 0.5222789180031384 -0.2536082769361485
0.4927782558264937 0.20722308437450465 0.02889891034740799
0.34504342126592746 0.1926214803981594 -0.023868285915256138
0.3961982400500972 0.2231524560501157 0.042759212656918066
0.3797583836323071 0.1992589948950183 0.017303943273816458
0.16598478016808826 0.19201416401941174 0.09416730356014114
0.20951220130163506 0.3150427241673128 0.14882042670240025
0.3418827450298636 0.2869441240288211 0.09798077104247227
0.4839617662978526 0.27151163894494346 0.13343341168723555
0.42915348479229465 0.2081938027312873 0.0340826689757705
0.3993460390408785 0.24645280412181592 0.05123439509358718
0.36501210039600096 0.2930630863433237 0.14866839700903256
0.3928340460122115 0.24128078039403533 0.025232267306293465
0.4151420733947333 0.25266487357794176 0.08703265172226793
0.4165244201992806 0.21315802513753113 0.0046437976932054426
0.5214522707043869 0.2764288291114525 0.06703296377992274
0.4587971108579154 0.2175367252136482 0.05277153961043268
0.42257741456573683 0.25957233030280236 0.05026667028732845
0.421670276444857 0.21868278622208948 0.07167311296198875
0.3175297753113284 0.1869419547363549 0.014306095349937209
0.3452697997797003 0.22520693991071994 0.0869356423672798
0.4029061781343728 0.2803215291030483 0.11713404984919862
0.41386954027066736 0.2055225603731401 0.02985289292595894
0.29807694881299085 0.3285792654519639 0.2906009523373143
0.3910278131982068 0.27468063011284016 0.054137360877604124
0.18792732025761438 0.1267484698763326 0.026748239924785366
0.39707107680087006 0.21664024748575628 -0.002377520219198459
0.3682592826995972 0.21322895506645523 -0.03236084169142828
0.38232929923172776 0.21517806166944808 0.07565246345231458
0.36194433797298586 0.16671980755558025 -0.0383233638693099
0.4353073738891169 0.23624412646290693 0.022804337217195325
0.42427425596326884 0.1999782698310213 0.03044403961922626
0.5257565708983094 0.24816895910009862 -0.0020713600954138656
0.543623401914914 0.2411200436015264 0.048697773137149625
0.5129504261238793 0.22420076289947133 0.06690969328761298
0.37789546226541404 0.26535042629004124 0.07308650299215458
0.4152397932499099 0.22688780426898347 0.035688859123638395
0.36420290401673583 0.2209621029763582 0.02891881132910612
0.45676133823934606 0.25461661714119543 0.07933968957755155
0.33605026405815863 0.27602503982899407 0.06484306060289668
1.51919070330635 0.04486686262933404 0.5374024513752289
0.4517507668587939 0.22214525371401805 0.0635366741215222
0.4643770888499148 0.17392212746742075 -0.0024070750602049884
0.2661624489835077 0.2086289278400386 -0.003236808252637502
0.401623611220117 0.23455801213566474 0.04311275228153022
0.3522178608461104 0.08793681155788136 -0.1617272207885776
0.4198192980046258 0.2736710357272045 0.03300310436114273
0.40582519118970595 0.20603670394963558 0.024562533517496377
0.4300509063704965 0.21371257775825825 0.03567976258958083
0.22325052048844896 0.3101881382941656 0.003120396122866964
0.31607436466327954 0.22612256373608375 0.0685302841933435
0.441755075913008 0.2341377484875693 0.0332867736749165
0.4519423379583145 0.2464913456745137 0.022558669620480032
0.3707776054025942 0.29374028605948865 0.17955264163970241
0.43608089524690286 0.2520714038906249 0.07366333621752119
0.46131668651887026 0.25043578256480714 0.06665684381690085
0.4271503526360618 0.1803279627022789 -0.006311634975219249
0.4001015230483489 0.22611901367486098 0.03252801121732318
0.41147738782676413 0.25896632283608767 0.09836737861266442
0.46393123837296457 0.26113217146816226 0.04995455633664392
0.57415560562184 0.16459869749128586 -0.010002712653204071
1.2383117810024658 0.04751874389938848 0.42381879282078216
0.48104438641149727 0.22579346348575768 0.03331314816753661
0.4585059557660571 0.08329620015578598 -0.09951271251011917
0.4810359050274826 0.3219202328461961 0.09164543010311377
0.40070984062002424 -0.1595635873417791 -0.1101977002598602
0.3334463212741525 0.3092660606880884 0.0196603491074967
0.436212894097892 0.2172363104190964 0.13287115777717418
0.3072044708601709 0.22149045555889302 0.040262011003193265
0.41233219463425996 0.2401381093276882 0.07378117120836691
0.45291879091288934 0.2408101758743726 0.0460908050447415
0.339883433844534 0.237691980753155 -0.06701232642849675
0.387276538563043 0.23628812893352347 0.044771739127455135
0.4116980647412305 0.24061722569639699 0.053122968168196394
0.3730131084603272 0.24773973575099717 0.03835762095872042
0.3808398953315475 0.2322222654524353 0.06488064186896736
0.3357017985123605 0.429882194985467 -0.04920026837396563
0.34318360390253133 0.1810347146309823 0.046545306285509014
0.781330166293003 0.06751651199638786 0.01689178842904937
0.40850645579648415 0.22395169904734757 0.0662619688318955
0.4435801694532131 0.19341936192526532 0.018235362423183687
0.35412755285310027 0.16626750924348244 0.02908424916513752
0.2918883242908521 0.18180161754995083 -0.06929613643862353
0.41621970218918136 0.17554374698792685 -0.02967372062875029
0.3267441436305063 0.22968189509794001 0.13987051028647102
0.4098764277613043 0.22551547882531509 0.037529368290549314
0.3083300388995269 0.4250404603282334 -0.0578513880352034
0.41062798244183796 0.21006996128248545 0.03231195055303715
0.5177585392431752 0.22691888150602324 0.0896551192201116
0.4119277249094324 0.24053617548754858 0.05582891228146991
0.5270562308025717 0.2438592294145394 0.0944721623331759
0.24060090817656032 0.12492414817914721 -0.021610611784268485
0.4158315212978323 0.18406839813002307 0.01888070660146468
0.3833903752040868 0.2343670060103591 0.0626004472755568
0.39342033565880286 0.27670378504240034 0.10400380076099225
0.37449183774086237 0.21228340734447215 0.037625137958983146
0.3824042891116193 0.16891260025121824 0.037670591333991865
0.39886562218374877 0.17957365326846286 0.07967988668004011
0.41403969539140917 0.19588679191365088 0.038339272718758366
0.428289902802959 0.23105397619428913 -0.0010665453471716546
0.43956353154263184 0.22707683175249826 0.05440502227118316
0.3219110179909421 0.21474188620162238 0.0021135912694631998
0.41227056562570397 0.275595028954541 0.1729954195926382
0.17027328966027255 -0.27591875303170355 -0.14898654194058736
0.3980098893074455 0.28925116759039327 0.1546502098717184
0.41582091596461623 0.24750409108884242 0.04030204172485696
0.41822834225426675 0.2463383584397576 0.07777975480283317
0.32793051866084966 0.2599964449009491 0.08704484639801535
0.4129592161800275 0.21326297938122707 0.0474563061455342
0.37970293686537104 0.23447477427731656 0.06038265261805975
0.4244160931642398 0.1663800414909815 -0.0580056208942068
0.3908751334733438 0.28105843698952526 0.12866641602295203
0.48880520883264467 0.25102732183368914 0.16435515132451428
0.4211807513473502 0.23988986186839156 0.04346919896225643
0.4415313473830338 0.19647766965448454 0.019540566934097114
0.3846007982207027 0.21134767855389214 0.06279860522690228
0.37654326550821793 0.2412187599022957 0.10042847722667148
0.27535191856671304 0.20160287868024795 0.02767438717879145
0.328278592994792 0.18973449326747982 0.032263557709853785
0.31565238733887213 0.2347996323770758 0.06992374858489825
0.37300252416197566 0.22918015297807415 0.07334040014481502
0.2979682695361845 0.2966548629331953 0.046105301677755506
1.7243390650754407 1.019763517053235 -1.4116294885854188
0.49457886553872754 0.27705391994024353 0.0641044896190408
0.46013412267875253 0.2103342334424667 0.12390672467472541
0.34343020007739256 0.2269528612503109 0.016529757366669173
0.37392296859502494 0.22128801048424407 0.06386298461177375
0.32816821775625726 0.23110619935036425 0.06980511480382745
0.4461651424885247 0.19773034945191625 0.024950998567419447
0.45376317369837693 0.22397354864864383 0.07401563410846279
0.32321648047627605 0.19015939275678306 0.11243357162945244
0.404631232368331 0.19209673526435722 0.05919805119364696
0.3871063418966969 0.21308882094317028 0.01729251357798489
0.4873875812496067 0.22512467280498072 0.057693552943646864
0.41466174569691816 0.24185493458973895 0.0975539135236545
0.34674929521140996 0.22632138387160694 0.036243362713690885
0.5724536820036832 0.2379801238547543 -0.03906997699988324
1.3298428942570268 1.215922016237414 0.6535797944451645
0.41253590012101427 0.22074710601829395 0.045125685766322476
0.4073301932523492 0.20394457636045615 0.02976931779774361
0.4022329703546461 0.22171267611415146 0.04469544194924424
0.43287491573333625 0.2401054901964983 0.09922681187691751
0.4748137176606946 0.24647814150030456 0.10445031403807548
0.4060113740212046 0.22063817887755022 -0.03531962907092634
0.37630353119591575 0.253074124502092 0.04747008155631249
0.36543512476342244 0.14421797609264786 -0.0532787446220766
0.6544293388324718 0.2310981193716657 0.06080107837601645
0.5363128846204148 0.17981230962391237 0.17298540123638873
0.4353158926026026 0.30734436243770347 0.04074805273394588
0.4002371258309836 0.16733712334766437 -0.018819065088820253
0.3645292771699644 0.20125599365465519 0.00609956516311172
0.39003346156789576 0.20763301739411588 0.06601169618377867
0.3592011898296903 0.22634904079500018 0.03277438041284597
0.40028703512186325 0.22433183771272525 0.05461486058976561
0.3492722245047446 0.28254248012325434 0.0563790907267645
0.3973381528136315 0.24197563282990586 0.07901050393999753
0.4168316870045885 0.21378439243969183 0.06508115068933762
0.47199062225608657 0.19748904880421492 0.019649902426507992
0.4035399117832128 0.20331731505643802 0.04145893171275361
0.615467119328784 0.3900606881189219 0.11998763006536706
0.4028657073254607 0.22120635848870052 0.03297429184206635
0.5052944079729969 0.2210745422107152 0.06856179083553116
0.43593837901792654 0.20459454709245506 0.03662947810842354
0.40391186817359426 0.21055443160807386 0.012444143441200595
0.36380768664241714 0.20641197319631033 0.05616793751254079
0.4562865763982984 0.25661195107420554 0.01773946452416908
0.37899082573349574 0.20125040249274662 0.026369138679427806
0.34490587773140646 0.22507309318207547 0.04677712369388587
0.36780073545175185 0.1986894640778587 0.058956928288722565
0.4089901175440076 0.24280110670108002 0.05189184496521193
0.4346712211363979 0.195625759641473 0.03019423347478778
0.41471446126877254 0.2369012381289508 0.05257683331028318
0.2960366055638133 0.22488405625549035 0.07716262459875622
0.4068322427619506 0.22673503267355954 0.03095536113485764
0.40343352345672656 0.2165423019987145 0.022681767323945223
0.41393562830450037 0.2228257499006645 0.06285002681573815
0.4727189985743223 0.21721556376394346 0.02169125189867316
0.46113815657773216 0.22114456504679936 0.055617312364631744
0.5430637491936352 0.18784171755638113 0.01594625744863265
0.3753235355202378 0.3207102512786548 0.029773524150471076
0.37532714932959266 0.2101931449287946 0.011152438460698022
0.4280619998630186 0.17156839898485998 -0.012087162774534477
0.4338989831195903 0.29265685001695374 0.10461473730696014
0.3735013901441846 0.2216535494172831 0.05572091501153409
0.4480561829056029 0.16261531998065948 -0.02431908204670208
0.3730250204322658 0.24124762837303138 0.07987059197304802
0.5283418709135788 0.2679806835737395 0.07213279183261534
0.45900482954010613 0.21604254076476082 0.012223493656392748
0.41356543251259836 0.23410218456723442 0.041967271673769346
