# .PCD v0.7 - Point Cloud Data file format
VERSION .7
FIELDS x y z
SIZE 4 4 4 
TYPE F F F 
COUNT 1 1 1 
WIDTH 802
HEIGHT 1 
VIEWPOINT 0 0 0 1 0 0 0 
POINTS 802
DATA ascii 
0.9812373622596908 0.18816593039348106 0.2173019114739816
-0.054489517638870666 0.23801197383471617 0.29084882801792844
0.09197801042523679 0.3923689885937165 0.4140088726133513
-0.011218635985528636 0.1663645728314691 0.2618509690518067
-0.05825236972560788 0.2304558510811887 0.27593368414247266
0.17082966203824412 0.6937001077574081 0.5585511389347317
-0.11893469987920469 0.3301548107618828 0.2857192965291375
-0.09269801834673785 0.2105181302151493 0.2445323886761912
-0.19100682592146256 0.14335961536963282 0.17686385959177642
0.033989706247098184 0.21572932822810742 0.30333017914290394
-0.16805889585057798 0.5960593851923193 0.2716535084148859
-0.032894397598170144 0.2694610810306699 0.28851566398455475
0.8965586395655407 0.2530658949693816 0.22655437277875023
-0.09911956081772644 0.2079372882993482 0.2509141718310559
-0.09567163511090371 0.15143732574946966 0.2508234274183252
0.07631540029620965 0.35485106644983944 0.38413641258765097
-0.08348120599444542 0.2513081028223212 0.2783773230791553
-0.10287413180566318 0.1437547464539648 0.3649617745636533
-0.04222252227411616 0.2665631578860257 0.32785468041439003
-0.10580155543144087 0.284463244540234 0.3959256930916979
-0.004028129004041148 0.08363694337322158 0.23855035737415164
-0.12517792755093637 0.28827184103059267 0.32024104537143216
-0.12416669466202279 0.23110226019447566 0.25649038767159027
-0.12691350234182153 0.14629472153208667 0.17428653807252203
0.0991648136476897 0.15826288502336183 0.35385082873546025
-0.18205964846418965 0.35714765532009096 0.2890545182834501
-0.0900094147715862 0.20832944340358495 0.28933310262139855
-0.35649865014275406 0.5574969945728725 -0.15311377176817587
1.0328103423725565 0.2306865694446003 0.19079982028077325
-0.13237863757271384 0.17194134478852163 0.22344579827955613
-0.13551365234243917 0.2167205230433069 0.3286037891349025
-0.06388421340852801 0.9472556406387866 0.0933271849065136
-0.018190267434235352 0.24202765165301798 0.3015335143057598
-0.020673324479972166 0.1599035024610771 0.28082327495016557
-0.07183213566830204 0.23238573246186434 0.28152354534870483
0.03489038440278591 0.18890406429393636 0.30577326387452786
-0.10615248592196735 0.2341972412416311 0.28500714649456427
-0.0678898497494913 0.03189485123942859 0.17679144041898098
0.09045140098500326 0.22976374807527122 0.2949995481411918
0.9976620042359912 0.2790939637620937 0.21871760885244385
-0.0755531616916727 0.24767113308884348 0.26784051446685453
1.0491915814414199 0.27756558016621113 0.12496025646548503
0.0054672650815206225 0.24305086481579963 0.369840672787916
0.02608355353453362 0.20777435976441438 0.290443039408558
-0.16019549300480662 0.238974734293663 0.32647764578899796
-0.045010059406649816 0.32348906093668006 0.28219703671703655
-0.11774926727193247 0.21394667472497986 0.2598107655110482
-0.07779037681592627 0.25706707488913594 0.28587821550794956
0.15278621954675486 0.3366041407867044 0.43946860201280913
-0.012979726635592215 0.3558553962243991 0.32634940933021994
-0.05177524207960005 0.24795853091525544 0.2970618900427553
-0.13551621191707852 0.3519726420429947 0.30059484435827244
0.778935753746083 -0.18259616495160458 -0.021453721652420654
-0.13228857868372756 0.24562613704804903 0.2281508800893306
-0.0798922065219756 0.19371659562432342 0.27884801591230257
0.9588119122567633 0.2622543896086711 0.15138139156195507
-0.05944576207619434 0.22974840176823363 0.2979296912424445
-0.09593628445632874 0.29254387792872194 0.30333201438894264
0.8891025255033895 0.3141707808462968 0.20739019864194574
-0.08034377344135635 0.24589491015927933 0.2917810902193878
-0.01274245006945307 0.23200202583302598 0.290171424344976
-0.011960987507109166 0.6874518492354298 0.5137738153106284
0.23802109989597398 0.03104254914046578 0.2803257739544449
0.18731090049030286 -0.7280220202306964 0.42699089954322744
0.8808951075188816 0.29116830753078204 0.18859567878575945
0.009879246791456353 0.3473123940558054 0.3742934862391678
-0.12789430698383342 0.33427758517200346 0.18885598316259689
-0.06862647582389059 0.23729816954877947 0.2712014638250366
-0.03117522384177107 0.3156516301887393 0.3468627571417784
-0.24483169321108278 -0.15607914471405593 0.06172351635160567
-0.07994175616720156 0.1749284675915419 0.24770484737032916
0.05375887022287884 0.3004881300774116 0.33390497164066346
-0.07627547982750116 0.1453378847858744 0.2590518549166063
-0.06926601433637813 0.27882341512787434 0.2335068716013069
-0.10550393505553757 0.24837636559971088 0.26234047354986956
-0.0591143389999047 0.18587270189378557 0.17013627180054414
-0.021145674456533925 0.04415652144324156 0.10687754745661948
0.9525404464421285 0.21919355280205366 0.1489339697976675
0.9223231044611282 0.2779259374923697 0.16998248596181043
-0.3638805519777719 0.5691986804495173 -0.1250989378002032
0.06565509652590151 0.3017537824274541 0.37000501117276485
-0.08695833520788199 0.23926295787134677 0.2958713714886301
-0.09942553304536261 0.2087781108670015 0.3412142011287642
-0.09576888635534431 0.23223220426967828 0.2783991657323668
0.9382005926088652 0.2461058562289793 0.2171023556667393
0.9492556803215564 0.23454067551801927 0.20899118255036342
-0.08364826911582668 0.2540520435866256 0.29097868581844466
-0.07949572461413368 0.22517094582434538 0.30966871785261674
-0.08388510622953049 0.2603100614441871 0.28206239789837184
-0.07529921641736337 0.2505484575148955 0.27901213346990517
0.9326224559632976 0.2512350074175913 0.2294651558829912
-0.08709262484957492 0.27762669540339857 0.31401212803638145
-0.19516529530672244 0.21764572456251585 0.33866347054288326
0.03944775577922144 0.1687894115760571 0.2682830657445834
0.6469896711053025 -0.15605201190396656 0.2788516947384778
0.051893213072816025 0.34062440002331584 0.4093019557660966
-0.10062899969057071 0.24777449362946413 0.2995678854631194
-0.06771022290379847 0.2602544404907974 0.2729353326203636
0.9193305601199313 0.23700365372553733 0.23255643406447746
-0.10467343983773958 0.23996908619213286 0.3093240028782134
-0.06663192022608655 0.3129560982434043 0.33330686134638654
1.0793197606324014 0.28710067911669057 0.01262296679411179
0.12731027593139288 0.13177692290861387 0.3142664246032325
0.05221472470711319 0.3542074083254789 0.05678892421107662
-0.12184943053566144 0.20266322928821978 0.27960219881545356
-0.04591933006062732 0.15584628273902013 0.26546893062730703
0.07267008817896681 0.1817317492396171 0.33634902874854333
0.9595657139255565 0.20886970051921594 0.2264319874779943
-0.06899111566542615 0.24089695374007647 0.2815444596172654
-0.2109181639124671 0.4047329423237329 0.16570732295900825
-0.1108110948677421 0.21668903769480607 0.2853871760208051
-0.08619150137580789 0.22624385132101565 0.2880901885139622
0.005989194981651735 0.16880257699259005 0.20525643354727663
0.9461504509276892 0.26131037391152745 0.18919152460736655
-0.008647193117013785 0.21868250793116317 0.7837130475139418
0.0707003405676403 0.24730878541677725 0.36113375572396933
-0.006171211088201289 0.20123446842964654 0.40162761210474685
-0.014881826357338923 0.2472923118626511 0.3139040442145813
0.9487308288046421 0.1416458745809166 0.34993840986177815
-0.1591780114655279 0.19460721484571764 0.23200236808685304
-0.08827818876785898 0.32781486416484995 0.3321705917764035
-0.06697184726996852 0.19951933403012845 0.28536474489135344
-0.10213003098448326 0.28590503953003576 0.31775331507614624
-0.06796311449924985 0.19974368362298378 0.2859563446509128
-0.06294558195918398 0.22433642523631647 0.27817136192264513
-0.02740651044567244 0.18789525177038513 0.34941727333460904
0.02490561244418643 0.26916917746891045 0.07349465809744515
-0.08904415984711989 0.23832604913505406 0.2717225093378772
-0.18425649467457106 0.39612286696504384 0.30619542395123744
-0.07800774530181798 0.236285078869102 0.28146785797991924
0.0376198225125961 0.10934947212098223 0.33665990800534473
-0.06179658230990981 0.1619905462357707 0.25209477323602414
0.9443264331878112 0.2295401949939162 0.21365624782512782
-0.08527037770502943 0.23800136508315006 0.26109553847069833
-0.33081986176406986 0.6491512039962117 0.37944311816826826
-0.13301451354570304 0.1361599324047944 0.2079181983341698
0.9286212081592424 0.2939985860592458 0.19799425094859657
1.0141749833034055 0.16727145380130537 0.28081386329859015
0.9336610737889686 0.24488085147896754 0.23578504020363766
0.953666875404096 0.30619357000395553 0.260185251438088
-0.15919727951728646 0.2756900545103349 0.24032211747190502
-0.08330645987336993 0.09538376331121867 0.2085751113594938
-0.058733213849137655 0.29966432020120237 0.26110685424285407
-0.11865295486623495 0.2786665558357697 0.2800000220796619
-0.11601004323321717 0.20578160416400237 0.34064308221658735
0.10386065958078916 0.1514272115461779 0.2684316091742289
0.7832479214449535 -0.3435701052599285 0.4261317503757027
0.9348131550780892 0.22465745235560064 0.22945973279139764
-0.032076747839255404 0.24666078032039707 0.3241161047781276
-0.12012259722818897 0.25953016829927833 0.29357220155610264
0.9147107104305832 0.25663974716351845 0.23693209495900192
-0.17169486267729894 0.28095310960810593 0.2630487342822505
-0.03522530182138439 0.3836447700476242 0.18392463549584193
-0.06919859929286076 0.2364475144925393 0.3281259186766192
-0.11753369861054352 0.21776029591316615 0.2627913276573821
0.8997563570587488 0.2586256517917178 0.21143883019615828
-0.06219889683947599 0.24409061699219592 0.2727149100815893
0.9309752636316091 0.24755886756122436 0.20216679237678647
-0.08072082091817379 0.21420727331496892 0.23166081641124947
0.05868372589360149 -0.41079883775398685 -0.0015793544463207354
-0.017930175688107397 0.30440190242455856 0.33957170262294767
0.06190450509650702 0.1424062183823338 0.16941233910010567
0.041616403392140455 0.0883036946989364 0.25371685861628634
0.4174347160982279 0.18626348766457568 0.46629640427221375
-0.015813160748578525 0.2433537854370229 0.24095423312758157
-0.14825419483709368 0.347585610479868 0.31969908886841836
-0.12508309348243074 0.2701054142290076 0.19960074939933747
-0.33947188355929825 0.48788269726750855 -0.12632616031825705
-0.07598312377361083 0.25250053750660584 0.28192626138616106
-0.05140716782766219 0.02945448993304467 0.18469047570823705
0.011952003959521562 0.1465147562096547 0.23543066091380638
0.9230047129897798 0.17741649073974486 0.328358791101806
-0.09302617751141895 0.19719337465804188 0.2729850369513258
0.9490414209990945 0.20670420060579886 0.25826204896760885
0.8881132397272324 0.2551614861303477 0.3033745303884814
0.9530489603489087 0.2543990312700686 0.2157977417122936
-0.0787933631683444 0.247749863380065 0.2871068340664067
0.9541731671125291 0.13244384934712627 0.15352192988432023
-0.4206131901325705 -0.10576947002265058 0.13074034194491446
-0.20713630826541873 0.23698669825287766 0.3127565768139533
-0.09466946971625134 0.2432788859310051 0.29416321168369564
-0.05876813638553813 0.2297197221151066 0.2687486452232406
0.03188439353129979 0.12755922052198798 0.37623876890113195
1.0505717207060457 0.2310266290226508 0.27482314829597954
-0.02176112104083927 0.22356496463264364 0.24677035998095675
1.0455222534889401 0.2235038539712093 0.1588925037028872
0.9023679166953968 0.2460278040572348 0.24266736640704778
-0.1408031662347753 0.24497337179815304 0.26079529065407314
-0.07792052952942186 0.2476959586466876 0.29333274323330727
-0.11131465852582778 0.20163117111184192 0.2414541978797331
-0.3836507916277867 0.32536885323506226 0.19802352393237754
-0.09176876156880098 0.3102364109874429 0.31664109962480325
1.0004037581732348 0.25688051884817753 0.21234084015833332
0.9177296099358045 0.19574151720368604 0.26679724101600755
-0.045437716516332216 0.1913204894249816 0.23321879111909993
0.037789447701442214 0.21286779132962863 0.3827543278938492
-0.06892842809702415 0.21058715212345192 0.322989791892212
0.20422534611567755 0.3800532037089539 0.19372680918398544
-0.1092952750498597 0.2073695542569709 0.2501633747851315
0.9004900723519711 0.19623696953460978 0.19841494341658006
0.10803198669921699 0.1580100150217163 0.32343939123956034
-0.06194566782858146 0.25648692700593756 0.31845569812696795
-0.10343307886427056 0.16513957702716198 0.26679968368961227
0.8955126319220597 0.27037517844678405 0.21055429220581345
0.004264823529112505 0.292147858509324 0.16026953218670315
-0.06373023030818104 0.2588385517849332 0.26788448220915484
-0.06993215252855123 0.22306386657922417 0.3666058731581643
0.026212320013783597 0.13571445604944188 0.28263051838756326
0.06432150484511112 0.29408955767365796 0.3496484250482297
-0.07937081457828299 0.2069494670431027 0.2815852500540075
-0.13615361283106608 0.2004223042067963 0.43048953415481606
0.8860936241838289 0.30019653267157764 0.16774823341644662
0.9488550868453274 0.21061095766143012 0.2280326033691722
-0.10980209576689504 0.2845056201772991 0.4668742767220806
-0.3087167383650353 0.16573008946167533 0.14420189217480583
0.9340154062061004 0.24817949573167652 0.222003629339099
-0.03903571850304388 0.23721608436791541 0.3075155826202831
0.8999448037542379 0.3157917667691521 0.3527050314758071
1.0047629953155166 0.24398523197541522 0.16016489976591686
-0.15662467231435073 0.3460715634963094 0.3051009745272779
-0.07207422919793771 0.2404711419912502 0.29105735988107995
-0.08457025248107186 0.22343959207870512 0.2849437612291865
-0.04837075326905449 0.2410042972976214 0.28860010414406645
-0.0810902352282028 0.23897062914619482 0.29356077694799865
0.009148912635936313 0.22729655398069326 0.5370606756478651
0.07267657798803384 0.08911418518204073 0.2913199583517212
0.9241463822563674 0.2697598969683668 0.1545465816623448
0.8683570567788763 0.17254188278505467 0.31846883706863593
0.061256709218852734 0.26412266694637765 0.38835841467826526
-0.1153770083529082 0.5391059717106543 0.4046499603111613
-0.2425242551437634 0.3622425904893589 0.2891240155393291
-0.063674084115803 0.21624111221933617 0.2839408423376426
-0.16457170732975612 0.322558523139179 0.4309198946289712
-0.043805591473713434 0.2457171419818991 0.29184281768009157
-0.07678764820212791 0.2533392342438958 0.2759408099675795
-0.059197633963805174 0.26592912920094136 0.29904501053923127
-0.07947406417088132 -0.3010159713425651 -0.016313377870233126
-0.10222453565839373 0.24451677380766057 0.2554764674508476
0.049904914512410414 0.2877356224204277 0.32862845070371804
-0.08777730455123844 0.21698046773650503 0.20113153598117606
-0.02513855644610885 0.2431484319672137 0.2639739034549251
-0.1747316042136049 0.43693457466500263 0.3374279658582964
-0.07211514339599034 0.4585593999816524 0.3351667362940418
0.9119377788642424 0.2245931511376824 0.20598004554807403
-0.11997694768062672 0.554620758220068 0.41566752971567666
-0.03266925842656576 0.4056772730716034 0.2939584418579386
-0.07505531633805163 0.27022809484085997 0.279809094494766
-0.0641629284498606 0.3213138595459668 0.2841667198606217
0.052025507831118034 0.2905540630698624 0.30384550835854895
-0.08870141643777174 0.24861427831721983 0.28775512115655033
0.9499390542857782 0.23508555414711907 0.24167602823973766
-0.07788478299136159 0.2858927475545272 0.2530458672742668
0.9125087574267923 0.2592660095675683 0.16437890150645273
-0.24194353265204427 0.5577124841572783 0.11632847954011538
0.06364462911344049 0.492202043791508 0.4275550400736563
-0.19053699933097334 0.35580933570327034 0.28841429909925864
0.9301225544772365 0.2300827194738133 0.14425821222909008
-0.08369773476648845 0.21909994772352093 0.32681943015774095
0.9503254348422558 0.2298099459378733 0.2282184191489307
-0.009893831616054172 0.24179712182311164 0.3158502789370061
-0.033203111370085026 0.23317265424651623 0.23992476789774742
1.0595546727146967 0.1892029049815136 0.22592914288307497
-0.09045897384987711 0.22410998950817884 0.251156643700881
0.910934101642539 0.23139291321513156 0.23159539535646445
-0.08692859258462704 0.20577563829918688 0.26497926162052465
-0.06399335130706163 0.19108136809002474 0.25740936797390646
-0.025332942245739787 0.2594167086806749 0.3354865751606724
-0.03599160461781992 0.2284887589645166 0.28428625840876975
0.9369427187014026 0.23357267252862357 0.18717661933894192
-0.10047503406551073 0.3609685717347304 0.33287264463322686
-0.07370400075481598 0.21965195357836365 0.2844138888241048
-0.06934800883166758 0.24161903114537608 0.2881609352035781
1.052984278901576 0.12239577345954444 0.3387412904475582
-0.06411521557660649 0.2374852935121936 0.28744406100818765
-0.0748868027185523 0.1313925227888717 0.5230029222493613
-0.0744789842444078 0.24324306231258674 0.282482257571985
-0.011995690937993686 0.2335012747171561 0.11023781168640312
-0.06143430973909858 0.12473133648626344 0.2657286387719182
0.943082222311304 0.24653985409341317 0.22572483004503852
-0.11443931960315012 0.28536009409675955 0.30876389219150724
0.41953867674115486 0.676083200747172 0.38206361548607504
-0.08791025027935007 0.22497938977605259 0.36784751092324086
1.0150285635235434 0.1748917507893708 0.2702819012495894
-0.16612266030365674 0.25753047571407706 0.23590822912210285
-0.10998372758109554 0.30983278156023175 0.3110683801099583
0.8701639984166718 0.2883357066155128 0.2228207164511673
-0.04041835215284095 0.24869686915718603 0.27265793136390926
-0.1411812320615411 0.03527372453703492 0.41949695499388895
-0.39545019799808756 0.5349606105312432 -0.0770096995414633
0.008718036814684638 0.23335316618769752 0.3235009689995252
0.014132566715403527 0.28686362872259963 0.12510061514458926
-0.10071286666763513 0.2417241024423049 0.2628126369148447
-0.11977687974936657 0.25248011811419246 0.2731691184115732
-0.3450893487878943 0.5673066270309164 -0.18038292748484253
0.9198649141597457 0.17072599404488642 0.3680148645980239
-0.31482923474490576 0.4315463785889051 0.3017891529017618
0.012234304717168243 0.41759146032484296 0.3972016126753317
0.9569327264283913 0.2529110356568509 0.2378972428398356
-0.07318978777584562 0.23897826488288842 0.31669563412918933
-0.08425679258184005 0.23427530777354377 0.27828397512575975
-0.07420133980480159 0.21999403776908366 0.24820079927626182
-0.06787965898789139 0.21715101907713574 0.27137790737876344
0.9392636865889301 0.17979887318711008 0.2172768268832499
-0.06711526075916652 0.23012294863116267 0.2945982967694647
0.8508537927978637 0.240407298155489 0.29004130699320285
-0.045261905145025594 0.26843327429126873 0.23780327065814788
-0.15654244649076077 0.3784233462082227 0.3206618335778444
-0.06476384796427226 0.24029061687068065 0.275305248824651
0.04284551879305809 0.19113879980943693 0.2900145708486548
-0.0923924533068714 0.24797926565619832 0.267165248970926
0.1713806497536723 0.260438743132255 0.4161933970202085
-0.1465573694878799 0.25439240845214783 0.29376552105853193
0.8827835776342283 0.22034335178477704 0.25910252657962474
-0.03344117888386222 0.16629864704401598 0.4742243954251819
-0.050755256956591666 0.21689960539934816 0.28945954023343745
-0.10418758654381577 0.23271792930211177 0.2649873422259219
-0.0666102913463078 0.25535837930146954 0.2810450585365345
-0.11530950751748037 0.15583303243828084 0.2127945756288625
0.9107249670713315 0.2521575324787193 0.20898012223742057
-0.09880323190709817 0.29074108412672217 0.19491596495211638
-0.17000541989187923 0.11595570909111075 0.19696269154822232
-0.052367541655030436 0.27877293384179325 0.27146684432130996
-0.15194887664351597 0.2277976887880584 0.3453032374049485
-0.034019356757369223 0.3263019544829717 0.3429307339126524
-0.1498959485410012 0.244638541869989 0.2687814174709189
0.39412532064963557 0.2749374755644851 0.26337351067773795
-0.07914990026155522 0.23762121816038473 0.2484759095208915
-0.36084521070191045 0.525611239367251 -0.10725915292107402
-0.0452033046386191 0.2463941958003204 0.2704929507519296
0.9150074117602571 0.24392576276804334 0.21061831000325526
-0.08860056613740142 0.27316646235286157 0.2928339038770673
-0.054039181114234225 0.22955277035413246 0.3005774676006894
-0.06935419080845406 0.28025690657560176 0.2851759755773031
0.8487855840984082 0.21506569894756922 0.23182085039245237
-0.08698893110529582 0.24138696357725564 0.24265484623117572
-0.09913379917895782 0.24326142231697645 0.271513839673986
-0.09489067303113075 0.23298548646545214 0.13542706743835708
0.8921709369426623 0.24083170950115118 0.21575424561197565
0.91406246390315 0.21912439340181322 0.2392826932531591
-0.22970719826862762 0.19532989265528045 0.25996364904383995
0.05954425973737898 0.23129640076416536 0.3372420521498327
-0.24659217432513003 0.1677125814534861 0.32262090412902467
-0.0598360667782174 0.24440618607236786 0.2849593137245847
-0.06856854449920036 0.42234069903251736 0.38888544450944096
-0.002537798817826342 0.31378483223844 0.3897252050029181
-0.06726397322753996 0.25288281940922275 0.29566448193278916
-0.07130929423726684 0.2602322329502442 0.33443447323843145
-0.08053280581145827 0.2228430620379811 0.27001763198998674
-0.3480640367089194 0.45698465732508 0.2789547309586453
-0.013062962819788027 0.23404907209065584 0.2464000121914296
0.8820330830459682 0.20502281892851215 0.26959698387670983
0.927673605935837 0.239874959559927 0.1922634499851199
-0.06442877596941798 0.297931256914552 0.31009175606942563
0.9596792142322244 0.2606527889836343 0.20822978231556988
0.9414117817736241 0.2493838843639935 0.21935701130290397
-0.2120996837083453 0.15134837733725703 0.3399702632182908
-0.08044729152256025 0.24318558253085598 0.2921034007321168
-0.023284541846607 0.24622386121683348 0.2761988744403254
-0.06429204177044312 0.250495741767196 0.276291007495999
-0.15516389440060152 0.33852439828896763 0.24865719791043261
-0.08426645086439066 0.25114328444388434 0.26804977071444114
-0.3898246071215823 0.5809947331881347 0.2988007643420758
-0.0699205959374467 0.23811904023492048 0.2826231976997491
0.9474994919986841 0.2231507808504034 0.22426404818529022
0.07275118778032663 0.19436725599665294 0.31749661083223657
0.013892371433939843 0.383903877167981 0.404739251362102
-0.02813973867449704 0.23463252279225344 0.28299731312553433
0.8454155328444983 0.24689152918077184 0.25264545093389756
-0.017282274637622663 0.46711871092651336 0.34151360049341406
-0.15104419998789353 0.11714218527262688 0.2016471933436037
-0.11546220039136301 0.5498800903928043 0.30799907904021495
-0.06834193184685944 0.23275176812377651 0.26831887850632086
1.013573043454329 0.19787350276017435 0.23711264751958083
-0.05812887634353103 0.20433346023800425 0.2771615699862764
0.885203168636366 0.2290276133175979 0.2567282800448112
-0.5412486286392948 0.3655366218600875 0.13737115272817846
-0.1301251536041832 0.21444529961385683 0.26356304866273206
-0.023299440013232697 0.2848246645332466 0.31452478644807513
-0.04908900533618521 0.2315971314257439 0.34985270501732657
-0.1201693603555043 0.19364204649504302 0.3701899271465834
-0.050715878851974594 0.19730087496594706 0.2532700068532705
-0.06423400776890276 0.25698964810283087 0.28744809548283
-0.0662460712666757 0.24240703779260286 0.2911618619821752
0.9427844156042227 0.2665755155623799 0.15541649397690094
-0.05945699748647826 0.21729805881410869 0.259533685923401
0.9628988664387066 0.30648587660931526 0.21992970584724958
0.9625357257812794 0.34829247296514154 0.37354003947933734
0.24806299681618782 0.4958256874693632 0.5411545214509488
-0.10397052849589272 0.29575434499174946 0.26731504564945396
-0.07589767545076143 0.2578450116285751 0.27294852440701334
0.9238318333115956 0.25721725827435193 0.20700697633107268
-0.011792016707204311 0.18954251923963739 0.2547634042105358
-0.39935836300912797 0.5152995523868213 -0.0873187623737266
2.196862869260542 1.2756526825659193 0.5775068463520938
-0.041170986728715775 0.19830903081150097 0.24397669189175986
-0.1312951993402578 0.14790586372782855 0.33384991543167075
-0.10497152638322405 0.2333448332486654 0.27145930947946795
-0.08054656148564732 0.27763426656125034 0.262301110059866
-0.28667297495911725 0.41772574556904374 0.24417347017306668
-0.08573566145611267 0.22599221793852564 0.27323830472701616
-0.10883002981469758 0.19432378348734858 0.25725471882201134
-0.09127629788245883 0.22988186986175663 0.20287750650645364
0.9434265574300298 0.22785281643564304 0.20806723419624973
1.0046077015252024 0.19193373858119855 0.2615737852194684
-0.24186239599221437 0.07974531864340406 0.35940248663504804
0.9362889119354634 0.24540523288655436 0.20181292041472432
-0.032353539285225 0.21900734907188735 0.3203041493737686
-0.17656158999731986 0.20482738712250637 0.28555567673072346
0.011809367274807414 0.17194894092230584 0.2772113594576098
-0.10665869398231109 0.25204410595399906 0.3580552894218556
-0.12357707056975187 0.29137084045927963 0.2827075028862822
-0.09074453016285133 0.6961993099314157 0.4965497065499136
-0.0529978948567873 0.24286446561157504 0.29997583680045636
0.7831195356574199 0.20010595709482004 0.2794236739784992
0.08164717942834443 0.028881780464047324 0.6316824927727112
-0.06218376069486453 0.23118196114617717 0.25263262415492704
-0.51812756557527 0.9180875272011519 0.4491400975330748
0.975658962482413 0.32947498790083785 0.20125529636328565
-0.08059009352498947 0.25739314962025617 0.2991482202901352
-0.05335215714691799 0.20953165883423708 0.28585326780216747
-0.31619939112164275 0.33908059633473897 0.24596952075310696
-0.13748506521656623 0.4911306314702415 0.38863349663898816
-0.08627974710323372 0.2982281681752994 0.3016647482415351
0.07860212496424879 -0.0480963071409235 0.5922192412320868
-0.05179751066199856 0.1755335275446157 0.36798358139728293
-0.08417215870944972 0.22966810462091303 0.2878963672974777
-0.08318345342941313 0.2500164432201615 0.2744579591022358
-0.061589224214444016 0.27541319276369336 0.22821790320641355
-0.1840702818170996 0.2768282412133374 0.257243493890428
-0.06490844102670223 0.19501854446477296 0.27428754956757473
0.9508765580921477 0.24118119705512697 0.22092732679047344
1.0391459538357424 0.20946039879109435 0.25603351540300423
-0.3209239221133373 0.24067750722835513 0.16522091807993888
-0.0473142817121186 0.2717965112975236 0.1755896951168836
-0.0378789282711125 0.3051751491081802 0.3302153553571259
0.9274201184157391 0.3161883644409613 0.19751288353680252
-0.08928722949428902 0.19341692679066114 0.266508818369374
-0.11434133660536361 0.2600973841305887 0.28296112773230675
-0.11481956564590234 0.18456860812290188 0.2694730901463771
-0.15489160689594428 0.2543912557847392 0.3354406025563321
-0.028576740984249227 0.5297151875844293 0.4401957762923274
-0.047241567910987214 0.30484061330642476 0.36284587460406215
0.8972975130544967 0.11257721828199863 0.4500485110205119
-0.051009304480203355 0.2540991450584329 0.28391066544790533
-0.1342455573976622 0.25113813331185497 0.36393254574892353
-0.07410243845305331 0.19427288963169076 0.27167166923581476
-0.11293707036486467 0.27277642577672623 0.2622977388938068
-0.04715684028013811 0.3358983617996216 0.261618748089802
-0.09407266025550598 0.17736112289391315 0.21918986545105668
-0.1962115597890488 0.28907815817345295 0.2482856057658296
0.24331950620197063 0.061122456118567925 0.2659099734674726
-0.06963166772696638 0.23883560127728742 0.2841080171471617
-0.05171429709315589 0.30853152904023773 0.2964656270614796
-0.07398558206054417 0.21095585513383242 0.2576074833576172
-0.06575346706239316 0.27541208608661805 0.37226437517458066
-0.22474784093230937 0.28510388649627316 0.2505751184911844
-0.09090299414341985 0.2522367319959642 0.27575175752718906
0.9726099440387372 0.24248205000696998 0.19143131799069124
-0.06107363546280453 0.3142714660376953 0.43713988454820196
-0.08278859314347642 0.2437026634415247 0.2815661790580606
-0.04334206347296288 0.2502208789486531 0.3045155885149029
-0.07613050985003156 0.2663299997682316 0.29071914877027893
-0.10285117791102039 0.2962721480373318 0.23597998788324048
0.9525522706651088 0.2155301863193415 0.22204807551882766
-0.15075696901332947 0.24908669747463819 0.34280948894681273
-0.07550592479674378 0.25753652066543964 0.32015203645539714
-0.09648381430139352 0.22989974481205877 0.28720755026100164
-0.10147666864187954 0.2663078450321166 0.2954141175152074
-0.03897898994803484 0.15956475106358425 0.29085763667080755
0.9188153081343842 0.23244995934908275 0.20844540523405897
-0.050415199005101385 0.2524766518379806 0.27430086167414913
-0.1698004712461625 0.35709400495234433 0.2679538035045681
-0.07555802200607786 0.23363596899855565 0.28986747699593707
-0.06578411719522137 0.2303023542827134 0.26136134496418606
-0.09733878349820202 0.14881236072405102 0.44612812394720436
1.4834952489802333 -0.26612046137609013 -0.14143245319802134
-0.03907170448525221 0.3074742353530553 0.3317801366431752
-0.0271385657605947 0.16131444051106314 0.2475687377883844
-0.09963435912629848 0.17923823113653725 0.16294030803916826
-0.05811900813768034 0.19601227866397153 0.2555399088847139
-0.08627637634990037 0.23164807517119357 0.29640112111388817
-0.05102510494040757 0.1868702756219136 0.24838049649886784
-0.15083817953053824 0.2691972205585671 0.3297519903103705
-0.10998323356733408 0.4532023866089503 0.369097864669925
-0.07540751057732109 0.24441840052637076 0.26972657670229694
0.06644136845841331 0.339875548856412 0.38036656936009194
0.26224853305805595 0.4027214254209923 0.45044275927493516
0.061975764356262175 0.2670232987199199 0.3587331448668465
-0.013196793906899984 0.2419789978394533 0.23050293741408723
0.15788620156888555 0.01829202967836352 0.26660179958105346
-0.06677629149237418 0.2698283245597253 0.3094569713838098
0.02180165749501839 0.13773046963279967 0.2942292352382765
-0.15150682003145732 0.25467890162106244 0.2583221004202869
-0.07388523823848914 0.23808278621193324 0.2870587489294252
-0.10773934960070619 0.23971982837772998 0.39701825736972296
-0.011359211571317473 0.21520423155551782 0.3289292973972522
-0.3928422175517028 0.5511779325606909 -0.12541396303234364
-0.0915134546967522 0.2259243641341584 0.28807849845529176
-0.37011270150867404 0.5388922009855435 -0.12861324638197402
0.9021277969386716 0.18260726365753044 0.34726702228108763
-0.10609458385056314 0.2479692533814699 0.26376340733651205
0.10074391430909202 0.1507550945938192 0.3193050213093329
0.1596264602736568 0.4259224685218328 0.46913906934898364
-0.08843252970214621 0.3000610638314356 0.29890563512981316
-0.06966499326270537 0.22840112653855726 0.25546483406469633
0.8987828283370902 0.1793612806063578 0.3191366283994057
-0.05718332636008938 0.30941830202476694 0.33029087534549717
-0.012716047595716873 0.07071302109486055 0.5392878506421823
-0.12816156953795144 0.12118187997869256 0.4104830921725835
0.9630811445239544 0.1766449126372578 0.240833510343208
-0.09684314498238678 0.16605131808680085 0.18084074121601645
0.9313311957847503 0.2328074477548796 0.2303025495148745
-0.1043189937107627 0.24315469074787188 0.2730496682614785
-0.0883746781042305 0.24668338961809866 0.24519790632953686
-0.25244312491324195 0.3241175610597935 0.2642925455955947
-0.06923359365995907 0.2252209345030849 0.2879724851885328
-0.2827093507562495 0.2551270752653636 0.2232096168627038
-0.0005924067990861204 0.21735140336636505 0.31981374279708064
1.007752508295198 0.2293489261714683 0.18027752049354717
-0.10559926615727022 0.24568383541279104 0.2696947210554299
-0.002938198065976394 0.23323407722001832 0.31849028228356246
-0.09713123865816442 0.2768405492140573 0.29554176241342134
-0.06365305318880132 0.24158867244764792 0.29625083463881197
-0.17367913878710795 0.33521788215114157 0.4372424441331475
-0.0922173068041161 0.19349936480907104 0.27309437696992234
0.22911771334131004 -0.24461456473858334 0.28158667166755436
-0.22985288919079494 0.34705959215622784 0.28436538131956013
-0.07014049119140964 0.23883320044200218 0.3178378220852949
-0.257082749218597 0.23517891922564615 0.1838178445801475
-0.1125945988306114 0.18197818044184544 0.22813998457736773
-0.0704713379078612 0.24278570963610946 0.2854819730175109
-0.1760022557353551 0.2406605223673921 0.24123903729713447
-0.11678679476102616 0.14761843302113675 0.33456400990837665
-0.5423017034222255 0.2977360215521685 0.15662923676927676
0.1145915667069346 0.23635057898545142 0.38086795269043705
0.9314827432898909 0.16848580066762509 0.27149702265224107
-0.06304727130853394 0.25752569180532703 0.27496281229520037
0.0038241938243714912 0.17098274739400665 0.30867992328377625
0.1684487323866506 0.2938254314463222 0.456810006887892
0.8315759677157359 0.18361711550332416 0.3334404274638132
-0.07476892510416633 0.23765701603511502 0.2887126989053428
-0.017925071119464064 0.24713643577419475 0.20112506292309718
-0.005456234423476758 0.2683845659243218 0.3327162389296916
0.0017586109166529695 0.283118691731147 0.28650510545922714
0.9228494866273991 0.23382552475788998 0.22171124593872094
-0.08210079707154705 0.2322853452803315 0.2682050275649317
-0.18996711815708522 0.1161979026624067 0.19483597472101621
-0.15281634456516713 0.20793103740643915 0.47934045513657964
0.962826793896113 0.20628452872514913 0.23728586914096184
0.12762038236851936 0.32824432645301727 0.405814474477296
0.9158699899971339 0.17118237602139175 0.26972906380302675
-0.05388602425689726 0.26150353744040444 0.2909722570183675
-0.0860390176514727 0.16905506925490954 0.2720181891075413
-0.04945357980192 0.21713439284476976 0.3837060170234281
-0.006345491202878861 0.212617564584491 0.31246452755979703
-0.09349024755022128 0.38714555948507723 0.3753142837935002
-0.06284132636261575 0.24362802121783034 0.2872484118410341
1.0319815633039013 0.22943769985792528 0.12803238956705343
-0.19546977865475412 0.1728914057328268 0.23538188543099636
-0.09005577192037606 0.0701459049961386 0.1791293355327639
-0.049308275270206536 0.23494495463447151 0.30261763214893733
-0.05824388092241861 0.19469789331563447 0.27692161483506084
-0.06708921061574813 0.26542668567847727 0.3285126012111306
-0.07755024359309459 0.033240142068450496 0.17187338049450318
-0.17632466703054206 0.24173778966104464 0.24837286111186074
-0.08869145906413678 0.2214877449616779 0.2806230746142262
0.1554944553562052 0.5415964910950919 0.5327422225934555
0.02635460192399819 0.348150984980407 0.4353189703444258
-0.07517893643878892 0.26776709536115106 0.29718993975362196
-0.06974379666479535 0.24150698776129786 0.2628579077149169
0.08932994172164399 0.3150227002876136 0.33012699605049534
0.006819317631254762 0.06129320242740732 0.23224859935272946
-0.02166212796997513 0.1976003374095967 0.3283399368112043
-0.36838541164178196 0.5334960192726044 -0.13528795666400129
-0.22796830202230467 0.23871487179272322 0.2186303566211052
0.07358883552302586 0.24774036540355837 0.3800016596152034
0.9560108152911369 0.24206556794126755 0.19481955323885813
-0.06460831147951751 0.30748566352288265 0.31182392686329763
-0.07076346356589625 0.22873257190670415 0.2655427558451322
0.8679021849014532 0.2826736173307154 0.16943318387976092
0.1183311123085673 -0.07592250739223516 0.1864023823282821
-0.14942966124351642 0.28814157909538096 0.2874139938483182
0.9499593425408079 0.2874637531665769 0.10921153443210585
-0.05186611591655321 0.2437111196868642 0.28616273047514085
-0.362147049323454 0.5803266119768296 -0.14975503556715353
-0.07767316581296768 0.24348448842003734 0.2844227301279716
0.9514502592068794 0.27561568460387775 0.17954419388281906
-0.1485258661213038 0.19908334794413918 0.24614494016623212
-0.05425286486607206 0.18239024479879618 0.3067809930081751
0.9555267426195257 0.24334837263668874 0.21076451960325926
-0.05015961630937227 0.1273962079298343 0.2823044379427415
-0.137881833073493 0.23458697492354474 0.33961646926087496
0.15117372829200804 0.18481665135841752 0.3795070465686763
-0.03889248466595063 0.25063635223952474 0.29686480332185283
-0.05318173590802644 0.18370343954657642 0.36511973610659254
-0.06147429384282077 0.2521229180729563 0.3474448599153277
-0.13312773518993026 0.20501909445428623 0.23925925804783787
0.9045713306852861 0.25801706436220684 0.13970465228661055
0.015758490170071582 0.33101151096612114 0.339053152974202
-0.039335348796385006 0.24174310948605182 0.24545374020244992
0.9911268693851127 0.17567949665755123 0.2676563999816892
-0.06718866083423336 0.2662250218441784 0.3238408019366261
-0.0924785289593899 0.23773177094639664 0.26787861410647906
0.08635441393985843 0.3195895382366558 0.41431823204695206
0.43641503384863256 -0.004752258662819031 0.08529197172174463
0.035191984660315256 0.2504991612000964 0.28214247134226866
-0.05281833500424682 0.2515755598788587 0.2972250811333623
-0.09378547756263345 0.24404368051982317 0.2615460310024531
-0.1318582118291971 0.18539417654605472 0.256883096912361
-0.09270889247031278 0.20022699054180748 0.23597688713212506
0.07756398817170407 0.2144283153024844 0.24794737362211094
-0.08641486306069623 0.235038026962485 0.26969461404333117
-0.13548401538633925 0.2455077808134405 0.28455300534103856
-0.07031537490721007 0.22722253053120767 0.3206041078330486
-0.06352448573130687 0.23468928617367624 0.2839262143218093
0.9434126910401801 0.2782073900196451 0.3016810201513067
0.897834103782202 0.25101753187323084 0.21859612823141106
-0.06065285032984491 0.2181701235778064 0.2676755355098237
-0.09113914519468835 0.25262790038479466 0.2984777610018625
0.8242567007772266 0.21375027972288763 0.23709911887016233
-0.09873183874529445 0.27431110989834906 0.31165888498600225
-0.086298696616808 0.2785815818634205 0.35333834320607593
-0.02004960901209074 0.22840066862360686 0.3259327074544842
0.09955638277060075 0.10787054972260535 0.26160052845668247
-0.08471279843172397 0.2339420738921234 0.27135991773599244
-0.07739671984887764 0.277720164902135 0.29385204666237996
-0.031185434479027663 0.3669183726510141 0.37372356408675955
-0.10877262032263957 0.21829731417598452 0.27161896474868286
-0.28971542626013047 0.6677955610426096 0.16338172473879808
-0.40871922517249004 -0.03656921757655596 0.028280785300395905
-0.0045584705142971416 0.2855013757923075 0.34352020448000076
-0.0924950126240418 0.2505051584755904 0.3000896462474003
-0.07428253258350992 0.1980563700471123 0.26301459013532735
-0.01656011762989351 0.2719915569528837 0.3251349929713001
0.8587781909641024 0.20732728550621005 0.33789363499565184
-0.05503955994709031 0.2753522034647915 0.27406201412138387
0.9342007758066586 0.23673076412957528 0.2199458987294065
-0.06518718082730857 0.2409313749760713 0.31040274891080344
-0.17445459781798434 0.2867063269582957 0.2660860344233811
0.026405716046639327 0.2608460276954929 0.34278048421703033
-0.0930307993992443 0.2390909416510567 0.28680620316004024
-0.19993376232920923 0.17093956776477626 0.20335135301124296
0.9156004132588293 0.25943584918942975 0.19742445264378716
-0.06194148460406268 0.3078240086774997 0.32511101880061233
-0.05223195519118917 0.24214749212728748 0.2615610858357229
-0.10201018701764042 0.2922783451034263 0.2587461289500368
-0.11852577169548795 0.2400559137680034 0.26146414741401713
-0.0553542963072573 0.2190499569740325 0.27132770961017627
-0.03706071823341972 0.25365767538997375 0.27036519569526263
-0.20935462035933483 0.22194972607779562 0.22966642650777658
0.9359683144676723 0.23112255451215447 0.24491631771940092
-0.07414063194113396 0.2582219131047907 0.2716951944350683
-0.12092479493971098 0.26369088460916146 0.2712990777461499
-0.07269403159386911 0.09499055909742538 0.21657805741294567
0.014088920224651247 0.25078743208825927 0.2890288761389428
-0.078642937768862 0.22473572890606874 0.32725274742301735
-0.1269661468742811 0.19080559743031245 0.27393225110353114
-0.09904991547432473 0.328521379521618 0.30420551874891544
-0.1723175956941816 0.17448617323222493 0.24004398175226527
-0.014935616574831556 0.24286539235799864 0.2987127546680597
-0.09589850882207429 0.28941089485229554 0.4290633364626899
-0.11141996059492953 0.2582018355551128 0.25862297544084356
0.042708121360149676 0.271114537401985 0.34544673176809226
0.8524569022136745 0.263578384083587 0.1785493550473518
0.3282054591211647 -0.06140379766486603 0.2587504909873104
-0.06866637912438023 0.1768508965475064 0.20853832724236554
-0.21854292697418032 0.4113622295871977 0.3089389381245553
-0.0826928252538437 0.2191105600652321 0.29270562277113754
-0.05729464661618522 0.2467779815600295 0.2926488090613475
0.10961768199734934 0.3997567077069277 0.4559484026802636
-0.0582061946236081 0.2977602816175988 0.3108709244116028
-0.059084213003785635 0.21217771444926825 0.3194631012627127
0.8982323854184102 0.26195629994367664 0.24714234675445823
0.07477774695405515 0.2178037278122673 0.37105611178887443
0.8642381877465652 0.22393340944543638 0.3080132048832809
-0.07445604784125237 0.4289760125962232 -0.034316817189818494
-0.20140880025951446 0.186145522919702 0.24030514505184897
0.057010910965829 0.026919011209002974 0.25402621446473006
-0.2188195329739102 0.40320453897567177 0.4424199179554762
-0.05606673103474691 0.22486435509219405 0.24704987855943727
-0.08569784705559869 0.22235723146093278 0.28817291053238137
0.017494201985925883 0.1352222836991217 0.28217861217811446
-0.0708600442034566 0.21810488066142852 0.4104585108123757
0.8884906420937568 0.22003671568865002 0.2476935701677121
-0.3888255312195241 0.5442128172912248 -0.11141233711343546
0.9227970248027475 0.24843204189299684 0.2355435064532969
-0.039882413462152044 0.23905520274985292 0.26697164252993844
-0.09575094933761363 0.22352733914968326 0.245797929007864
-0.05440713398436969 0.2750566604929361 0.32039397848740236
0.06395095992164102 0.3850018994899642 0.3402392663413707
-0.17748570156514631 0.19217303637550742 0.22670710234464764
0.9624817872555695 0.21480094370230063 0.2204703380676989
-0.03513402247195074 0.39230313858959676 0.37834769938531565
-0.06814137707196721 0.2168619044297202 0.2977425697480953
0.006559170777592271 0.13598643501742913 0.21688331932256233
-0.08488890915239722 0.2518883214893748 0.29902725330481417
-0.09429547799729221 0.31303913883752443 0.31771090716696904
-0.033110902446907176 0.17857290055985686 0.27040800491892014
0.9121289600859086 0.17383668115729733 0.24968886675880242
0.9537007407297011 0.23259387930548314 0.21190547037420515
-0.07094705090236175 0.20424311894133496 0.3409646237959123
0.9055394254096427 0.27229586728313393 0.20269324822825752
-0.3895436278267823 0.27961472438863666 -0.007812437506188985
-0.06987936227383784 0.31016194001760766 0.30323001457963983
-0.036331798700274476 0.26363775012512747 0.300964155516823
0.662330561894322 0.43939354792033214 0.08266295506928145
1.0557032229339427 0.1349308533736746 0.1577332228000472
-0.1668041086069536 0.20756611992004537 0.2853748355978496
-0.16116524391973996 0.2802249735084388 0.25976396016976366
-0.21072622704141963 -0.27688379623282344 0.04342327395772827
0.019342157364008017 0.2245763907302205 0.19986424924360335
0.9447208438851504 0.1955707178798889 0.275114073990963
0.9105959491620013 0.2525824683739586 0.19266200398584488
-0.08969215886378379 0.21355242275976138 0.19944695099999876
0.48044784145966446 -1.4582445360705947 -0.08122492676473314
0.9595117169752854 0.20353930184276692 0.27631015409548354
-0.09829812155366824 0.2622198418564068 0.2993031379360218
-0.05816651158430375 0.08784019550597577 0.21057143150396485
0.9618903855884042 0.22590512876715252 0.3160314152236765
-0.14451647549608992 0.3337042155611414 0.2876852483839798
-0.0733359532227098 0.2350514413977578 0.282437157458844
0.09576745058305391 0.35103554467238496 0.32537817708096384
0.08809769185751293 0.1787256403926989 0.30019122070260096
0.010084633370965435 0.34733117166626926 0.34354634773032444
0.9070789380470785 0.25410510284589805 0.17946539609033607
-0.06722682788611678 0.23496700479080346 0.2777931395761044
-0.2399908097540333 0.3555112246173877 0.28725814127673743
0.8934579601919808 0.17756583760564126 0.29606463780032755
-0.058617827404248146 0.15674240225811786 0.25100917589347205
0.022645737081745665 0.3335876745055373 0.35872415542146996
1.1860347089346135 0.26343565282343206 0.037502466358432685
-0.055715367909897395 0.2736100864020443 0.30591206339326504
0.38524939516901213 0.20755291148010713 0.16957118699230023
-0.10897203072002526 0.23443334089738244 0.29104668142197454
-0.049932302700682385 0.26616807366281137 0.28285875132419847
-0.09761466419642773 0.31970709119624985 0.2341747409053312
-0.04667132003865504 0.35516627430584435 0.35329566707235927
-0.07475027468868234 0.2694808158988167 0.22776160946548885
0.9295018911635395 0.2445256627744925 0.249505269227015
0.8828508172087055 0.23731305294613492 0.23568730701290974
0.9535671541277395 0.22935533715060785 0.2517788636086493
-0.07148060224913877 0.23550622300442114 0.3097585673898635
-0.08833053844357153 0.2659356645768014 0.21503159884420597
-0.0810490902183858 0.20771691553341043 0.2590403350063468
-0.016939071513149884 0.23542689721017496 0.3051084637250483
-0.0007159660680144952 0.43841820757005223 0.42364986987118414
-0.028003214300241552 0.108810641132294 0.25353217939766637
-0.12183584883777598 0.2519536984351305 0.3132244121147352
0.9075337952925508 0.31999989520697625 0.17847961440077142
0.16348156898146726 0.036520716200129755 0.27793293797321894
-0.06386435405383395 0.43939487243605413 0.3115893861320558
0.07343065080684141 0.14922473553119175 0.3162953340500536
-1.471849239464973e-05 0.2646335696217932 0.31889064192934313
0.8859868790002423 0.2698336239325698 0.25893932090406224
-0.26384972596108014 0.4232997472141591 0.30117719576247737
-0.07602051060990789 0.24892358923474944 0.2838503059755624
-0.1660203040885051 0.43392932398995754 0.22510051699572386
0.01429267383161914 0.233029257316673 0.2843747787773907
-0.04104063221794263 0.3024589891287661 0.330256023242697
-0.054662801343908995 0.24367386373262434 0.2662386065747455
-0.04574423180591225 0.16071950718443873 0.2637923846984904
0.8881174833389878 0.25261524164969273 0.2223191157766422
-0.16995363700229404 0.17696581041653303 0.21395933474644835
0.9303740625443027 0.24150991730327576 0.22395015368581994
-0.2211374761766649 0.47929647820001264 0.29393376563274387
-0.04844570069741394 0.2580207995086994 0.2929737013462699
0.9536004544353744 0.23065035403095635 0.24893506978892788
0.9120231934147398 0.24304211117501495 0.18788038706711063
-0.0789472870874306 0.3015347939463453 0.312544795022518
0.025252712732765303 0.06486228753456658 0.23669288145865153
-0.07326510349251691 0.24786703637572316 0.29107451910859083
-0.062195847109506985 0.25667550957643925 0.28582533029302226
-0.05256654743692479 0.26089794639929664 0.2925562651124096
-0.387748612954141 -0.1613834665298839 -0.11375395121410747
-0.06191905099177575 0.22552842846529586 0.29676735907406737
-0.20413767592464183 0.4207757760467814 0.3303064261677804
0.03835903190611134 -0.05298993342074709 0.19066503249129596
-0.050995149274655205 0.2337108113522106 0.29349886677655945
-0.023080443852563803 0.2665610694609626 0.2950527333934332
-0.07845002924810274 0.244942678185609 0.2597369259093938
-0.8127525942850582 0.31106183149232436 0.18429736005589348
0.9282079314809266 0.2212166620569178 0.17240778100156717
0.0910584675728785 0.21452507120721975 0.34122777638660295
-0.13397556096566632 0.31331683598816085 0.28599352862667615
-0.1122051620641571 0.1808673037747326 0.33455405083523715
0.07296683915302538 0.09242406199479092 0.2833932837939699
-0.06891497023400461 0.24777850099428633 0.27134218776700436
1.366861522300681 0.24727598181911503 0.23054594417693863
-0.02423134296122953 0.10330909074657768 0.38470863470782035
-0.09850144017585194 0.2612610220751037 0.2803594130605802
0.25552430527581294 0.5183959568078507 0.1800997309346144
-0.05638088568900912 0.2542306124994127 0.2785994333963657
-0.05100601004326677 0.2024947166564175 0.27577732534524557
-0.08043852378636984 0.19424596137537264 0.27256251018521027
0.11403382984101995 0.04470877827679942 0.2560458912836623
-0.08477658716103065 0.20025960500319684 0.2862841654112884
-0.05414701224768237 0.26120022655396724 0.32139887017511626
-0.09655415518014365 0.261293905830712 0.2541777069743745
-0.17055111567836434 0.26972143513663127 0.236543358732888
0.9591246353648728 0.1691434730354615 0.5484176438019119
-0.07525600157315182 0.2222021062387114 0.28526037702368967
-0.08020137290287721 0.27187892599951624 0.27133088782386494
