# .PCD v0.7 - Point Cloud Data file format
VERSION .7
FIELDS x y z
SIZE 4 4 4 
TYPE F F F 
COUNT 1 1 1 
WIDTH 803
HEIGHT 1 
VIEWPOINT 0 0 0 1 0 0 0 
POINTS 803
DATA ascii 
0.38977676796828575 0.20924455268298914 0.03693314157220584
0.524157522752688 0.29077878150174286 0.006469203212589036
0.4003538450033801 0.2395982180960914 -0.0025906146147463005
0.4995134226383726 0.1902282440182148 -0.05677904833638081
0.3791448954366956 0.39106025808121103 0.12806339380581733
0.4929530545667262 0.19462981843483362 -0.06809724508153181
0.4389397142605276 0.1894836491333507 -0.009874015288858118
0.4106159080355667 0.23399220327408443 0.05062445706252561
0.4880681372952722 0.24168018615308995 0.05005128151555027
0.4000173973222729 0.21246436918812606 0.04204677100685217
0.32858025115768896 0.204881974828794 0.0025644574611760618
0.43944385538574693 0.2035615259773067 -0.031163606008021816
0.3990737893456213 0.2310457802033028 0.08373501913285963
0.3562812753009723 0.23749027169965586 0.017483481135357692
0.5344920860863169 0.12234598699851063 0.005690344795027613
0.3519999368361795 0.2630416775866138 0.0720209058129484
0.4829123130288622 0.24892098342782276 0.03912120477110648
0.3969810093198305 0.1642653382846504 0.03504139985443544
0.35867886394657944 0.24667890829104522 0.08581874213004426
0.4348459527437001 0.15865392304797865 -0.03054176214590143
0.18342362641683962 0.2668248780074123 0.025880269951244372
0.3588671513815598 0.23688308175259465 0.07867487287356312
0.36946918657096717 0.20717047347540074 0.042435318918620624
0.34687792433534526 0.21142777518177525 0.02542302712421929
0.41089574172829657 0.22766000709026457 0.03031944578927437
0.421514178125733 0.24835341634374686 0.08090023498078835
0.4450859306516577 0.2283951591100788 0.08288600758615416
0.4031301179123261 0.22105120777303 0.058142289146502435
0.47193252972698474 0.21478240980502505 -0.011361735102724424
0.4099426556691128 0.28885941079553845 0.14611425033177738
0.4322994755319911 0.20381271702399317 0.016566376200898958
0.3727074432466395 0.1784863934458656 -0.058051061467949694
0.5101175988884279 0.19686999871404964 -0.008627573933466692
0.39307530851452555 0.23330908937393247 0.07123541632489605
0.5187836244818413 0.16447583678106525 -0.006978641105973793
0.3651945006632218 0.2152519631090115 0.01810813466346417
0.3891793400904078 0.221201693404538 0.06487517260826792
0.36407679563691886 0.20003141701346294 0.028873373268069713
0.4586918094337591 0.19192371245657114 0.02309864599325806
0.4788035119444771 0.27042717998857313 0.15553301811601727
0.44675666916089085 0.1982291936166689 0.0018732304937714161
0.18156325312820343 0.16393434480661995 0.6910838372934052
0.12818723076954086 0.18331320937019768 0.058343357261549045
0.41635247354133753 0.25708665791216845 0.13793111290149795
0.47262896244083663 0.23768303270398405 -0.06879979956012505
0.4781379560103858 0.19919880354353836 -0.07705433734179223
0.4758198476620521 0.22624894778562066 0.026610965823252286
0.3053517836737569 0.23678233240522673 0.03465543528022863
0.5294641414290595 0.24863176518223895 -0.03540257722860929
0.4107354511312735 0.23366252855711878 0.029696761582528097
0.4118181594445218 0.22880080743972542 0.030109955408988753
0.524424831377388 0.24492288529519612 0.02297707216084177
0.5444291031802777 0.20444061380385392 -0.03839902575984411
0.4160199848195134 0.19572960717772503 0.03528118794628199
0.28159068741655346 0.509246472084854 -0.06584758410303948
0.2213046763446158 0.24094563569447303 -0.024282866799921976
0.36818380186660704 0.19392119519697815 0.1732975278946185
0.37703583210972624 0.23229969588231825 0.042748882361962615
0.4010668226515577 0.15068702205297768 0.09199192397758793
0.3834467745310661 0.24783238450707756 0.05844072989771121
0.44556308125893906 0.1535458587951979 -0.01011144475536696
0.3407236854917528 0.26952615607713426 0.1250909669656437
0.3223116688994594 0.21095036272387802 0.011528066683041516
0.366880830805826 0.22418468629504673 0.00920395126794915
0.3372694631216575 0.24245266091642748 0.05224642937687918
0.3457111913987774 0.20552093359452783 0.044903752927211826
0.21950558609481163 0.32132693953877833 0.15377428072163468
0.494968898830507 0.1617377561510409 0.009757605738968778
0.4526364979960533 0.30645864813175194 0.05096268160394857
0.45344594318542875 0.2547060757877375 0.03194446761482084
0.3699570463170403 0.23926879860715644 0.0930454226750328
0.2753631376097587 0.23303782994184985 0.0836407747042216
0.3851322731784137 0.24513399534700397 0.09103769507558468
0.3229407797113737 0.2611499161097157 0.0675769489592426
0.3718975393466337 0.22590726382433957 0.054987534406166105
0.48212016094512933 0.22687632315086148 0.0042604644048935825
0.34326988087875066 0.24202168684465164 0.055710561327146024
0.4001422487244213 0.18186643893403698 0.12098399751576494
0.3784255217108523 0.21392671471990354 -0.0013648191510782226
0.37548439261908584 0.16853297207880757 0.03757939612009409
0.42193190018581106 0.22208380053746168 0.056172893297372184
0.42211751660406094 0.21319755240560312 -0.0005908454829182119
0.4428421943999865 0.2571328352942146 0.07142559742362664
0.4012165414642652 0.2263127231300217 0.060022742559596054
0.418189488449741 0.16867682792351957 0.11797003110505955
0.30167075270543364 0.25225270334888705 0.024877872441209092
0.2021610393041442 0.2591905355607196 0.13170018481721968
0.33812285134153797 0.22775501139128096 0.06538335358615655
0.42647367419168347 0.24157356613778802 0.05298494611164983
0.148833998771579 0.08967417983052428 -0.17360213667583935
0.3982360188678058 0.20047171881032 0.054856846201886356
0.4217592108859378 0.16016886895428684 0.01854721813327842
0.43579608903040423 0.23217856011996219 0.04483059944320189
0.3446560797197975 0.22374964126578334 0.07053983855585955
0.3940045000485384 0.25145342833516793 0.06953333384061011
0.42959589092885153 0.2522618458734769 0.05653226492599117
0.4708868379162823 0.2271578816939126 0.10329893653387501
-0.050866816276041504 0.03095401656136687 -0.30887970946638177
0.43228519850367775 0.19217375224175726 -0.021435446795237567
0.38388164307588113 0.225049825882067 0.06545437387653408
0.32837514380474886 0.29415875086881726 0.1216514295030322
0.18315546475713518 0.215652182127684 -0.02688343223800871
0.4088258706718477 0.2336154572371072 0.06886596255202448
0.37314746400090826 0.22943271932471987 0.065073132367786
0.44522496248958987 0.24002895853742245 0.031186730503236504
0.3859829598868032 0.19866338929077187 0.026937618856749168
0.4537802677508722 0.1861993667612012 0.055113954374590435
0.4313395507252267 0.17714612211401004 -0.03931264097050757
0.3347068328905465 0.2591250974230803 0.1436394044189342
0.2913099676580231 0.1266013792849776 0.02370770056276683
0.17483737172256042 0.05741365824090394 0.16591072005309115
0.4979186291887743 0.16497597587014923 -0.05162730068155952
0.4964956913629237 0.23290196561029575 0.06104992135161069
0.48240032348637385 0.24328439347833353 0.0760320603174307
0.43540376746506126 0.2328708228103551 0.05315337745268778
0.4733241246599107 0.1514504337205267 0.07437052153569823
0.4515057201763 0.18498691852667548 -0.005633874506685288
0.49326761545523823 0.24449570997182946 0.048322656020189925
0.36791027518567887 0.28362655430649397 -0.040205656661754574
0.5020927036884473 0.2713511440434786 0.1430426351814731
0.6762859565986048 0.6021455902586581 0.21847112717414063
0.12260637835132115 0.3790741607313066 -0.25783103364719295
0.39227314826044335 0.22410835038719767 0.055464939142240155
0.36707338567568115 0.1764445342684553 -0.028000335374628094
0.48819159648003563 0.22288595225073493 -0.018535786382813058
0.38822912573351687 0.2458282503267668 0.03368587160792913
0.4182722596695072 0.22620773473047961 0.05840769075862795
0.41683424303029426 0.26668866290461324 0.060558682292480626
0.3940256547074341 0.19627823329147986 -0.019546722734631317
0.40926213235572106 0.2092163762692678 -0.06825144746869682
0.3467231469520584 0.17201864650080267 -0.0013756172648413667
0.3358992211899192 0.207332229141457 -0.01651055517939426
0.7095896942547597 0.7662346317816997 0.06739995342041993
0.453749876161325 0.21509841350601278 0.01696411605186654
0.41153574018959205 0.21008927661915777 0.006730709510563315
0.25109393803265334 0.10050293008544031 0.1175753377414992
0.3018572846148686 0.17211268979272631 0.009048522308745532
0.3915357671923232 0.18115890433952586 0.0016692563689844064
0.4290321490640423 0.23230057096338896 0.04604355022841844
0.4731460138432624 0.22804201648686728 0.026921593030266422
0.3723582080446022 0.2322817777394448 0.013899955573009493
0.3656501978177289 0.22690456630203926 0.06039666738217875
0.5898702116127481 0.25636402929976043 0.14635218770391134
0.3682027640774095 0.21571818985670177 0.042391620953154074
0.3641793491026135 0.19720399093793617 -0.019118640862757275
0.40710389920090506 0.20195596771574742 0.030602230078457637
0.38800850282308375 0.2313767326383811 0.03598815894707741
0.36680114458924606 0.2461550441582574 0.09205175463594628
0.42676881574413983 0.09335683084455582 -0.10075066249308406
0.37480830443445257 0.2247149097559884 0.04839708731314829
0.44767528342939045 0.1499767016884732 -0.032453824377284946
0.3297636013470395 0.18559215803665552 -0.07738642947833796
0.47473667405154174 0.22037343781791208 0.07248873363148789
0.4635049094551107 0.23485963073287053 0.03417583430533
0.3787522345865284 0.21988750008509328 0.03436498048088765
0.39329231892995153 0.2860876602434246 0.08493436371722396
0.27122229438504064 0.28479382581977575 0.06438868981032897
0.44477621074989315 0.23009544988370578 0.0333104331247398
0.3755918455503462 0.3537753492869484 0.050834872151682475
0.4268204205715591 0.20460920819523665 0.00492277183866463
0.5423024162808474 0.252273456994601 0.033805359036264804
0.4171659525159441 0.21938435280854662 0.056389923648424656
0.3501956419279537 0.20608209841294922 0.019451900145213585
0.4214860601756101 0.19318038038048257 0.014742466476889149
0.5386868562270877 0.3412887861971825 0.15508900026438255
0.43983694291853226 0.21455858025881014 0.03378379269861398
0.5338109853416029 0.25742503432906005 -0.006983459098918843
0.35693763887968544 0.18160853625477102 -0.05003537901716015
0.40184580025663763 0.28497067748119775 -0.046350526227669775
0.3922849747991677 0.18867504492266107 0.007672303208067888
0.39469565056649003 0.24923696230530368 0.029412514093479558
0.32365586550201897 0.20480244259647407 0.023594296358908196
0.4255626031371236 0.27359396595520025 0.225623846558193
0.39277657211972894 0.20662256614684793 0.056023642167915
0.34761189639317536 0.2086576221721259 -0.0015954472259238628
0.3598196707600465 0.16617751905032208 -0.0029115685524345736
0.37353137395443525 0.19634503936633507 0.031245418579857187
0.403501369411174 0.2369172300792428 0.021110265031381914
0.37393454133939485 0.2511038307832507 0.060549930634806515
0.45387362881024274 0.1777045234040031 -0.014601790707047257
0.2361975574571744 0.2995336928126875 0.08491286593284997
0.39064796580738914 0.27492012819669753 0.10405885321968356
0.4543300944429802 0.23828068798326285 0.024647090817126127
0.4316510707879928 0.23500774050968687 -0.008599546772956046
0.3806593721832172 0.1612491479389746 0.0914562527353695
0.44699586980740946 0.20615156217104413 0.030065852239346214
0.28230712238291744 0.253409590500695 0.06339883278323555
0.3797408077409159 0.23030421047269556 0.06946150404381513
0.46387697856638965 0.2788555252348317 0.10200098950254244
0.46918012892700744 0.22201611931789955 0.0628356257386713
0.40222371785674227 0.19728342486817496 0.026997931091671035
0.42664115955265913 0.20724741540888658 0.005988767562939756
0.36027690099169263 0.27375202720359937 0.012898086610235282
0.40537310532326387 0.19307011455759948 -0.023264105200411223
0.4162986580467134 0.23320885724716334 0.07623243333671326
0.359970870822238 0.2336495490410755 0.09234509740466024
0.3830821501322532 0.2563410878128707 0.019348689001077446
0.4088768954640045 0.23613211303187143 0.043112314493328086
0.3746437229081323 0.17802088920305437 -0.006606356731651886
0.39367409532016495 0.23338716546827243 0.04221565778354375
0.3903509777688612 0.2654204400022451 0.04884585810992803
0.3860211412733747 0.19609728671873938 -0.007079367956805527
0.4183190273308952 0.27593137344200613 0.07296913443590824
0.07948916867867695 0.15134200305993772 -0.00959247078733938
0.43864488962958603 0.2166143796934108 0.05547863968281774
0.16909368490397014 0.2632331524216909 0.0171800049919284
0.47151587655488925 0.23939955244281919 0.0637913749272343
0.4272995332567575 0.24458915972674333 0.07174271586939085
0.39611011901776294 0.20946851230651475 0.031810486108057034
0.4227306753594604 0.2319282837972736 0.004792092324123587
0.32555789137771285 0.23658658170370472 0.046169372742980386
0.497689915656224 0.22202664469396893 0.0026223491991004266
0.28776870443246594 0.2567758180840656 0.011702353583075364
0.34137079495106093 0.20929342033227272 0.028460015668343885
0.13092233486224814 0.7858281236107132 -0.029650315182692566
0.4195347148744304 0.2162872915335754 0.01662785681355672
0.3097823027964921 0.24327017240426585 -0.033123565448633485
0.3554105694475993 0.20430345448215803 0.019462041433683908
0.4523227046045406 0.21282175159902295 -0.03274145298777853
0.5021812088646982 0.13145777455008556 -0.05413585388166098
0.3843021160301987 0.2578078045720531 0.040666430443096147
0.4121829056469153 0.27318020867856774 0.07705296553143626
0.5050153132938107 0.21287235492573586 0.00796905770449996
0.3981768486684416 0.22136456346586897 0.06696625514453558
0.36074399751305464 0.192793259472694 0.0433010718910225
0.4715776145052786 0.273596780320986 0.06425557371269974
0.44725041804052523 0.26950455878052537 0.016413961030423252
0.4978140413260519 0.16977440511686837 -0.028468754224078907
0.38375195081623303 0.22567661614506562 0.11503392910745447
0.3136242633593156 0.26196141084598423 0.07868916397850967
0.5178601307655128 0.13078398386193157 0.009627182709607496
0.4481168922040695 0.24542624116617162 0.08348078673957104
0.47709221942500335 0.2932806438370221 0.10499408729431536
0.39048218262831824 0.2500453841312833 0.0785687604427352
0.35344227921416405 0.23106913050247613 -0.0054632773560854275
0.3705936254754363 0.21408442530130856 0.07989365382819358
0.2892964788574517 0.1745163773885281 -0.004705016174256116
0.4818935908975561 0.16113908689263212 -0.027714734763577553
0.4931616309812057 0.17536454613077979 -0.020567604649997406
0.16181963141329447 0.015668432679660782 0.059230699699241995
0.4151636058543602 0.20973257904967113 0.07441674790683805
0.46889288708931076 0.21316593582474752 -0.08241035206056324
0.4365308830289507 0.18913470313299285 0.06543594889461701
0.3677706268843792 0.21885001275374805 0.041655539649624984
0.34546357041780595 0.22607289920546236 0.08274571100852768
0.4329931141473651 0.2424621786907295 0.05218688666411708
0.4663958733642062 0.23316229156682766 0.010350128172404993
0.2452460713447806 0.31783379451943006 0.18560931436439887
0.3698964424750244 0.22343712694529927 0.045110943694965044
0.2710305937615658 0.2556208635495665 0.055868817900062595
0.43165660332485345 0.26091135409289734 0.03103666717028375
0.39432409892179976 0.24431145559611878 0.06356247348803379
0.2747591715794613 0.25311339261872945 0.09992123226591332
-0.5255547181634768 0.4512514320486076 -0.16551945896259213
0.3921896245326195 0.2894649426825424 0.0689192426805505
0.40580750671179544 0.20690535320569836 0.0001400636103596753
0.33761163178249376 0.2123443639198399 -0.029732185839378644
0.28640352074071984 0.2258616159685971 0.05568728219127195
0.44128454980841525 0.2505144579137095 0.05287896489831212
0.4416792094133939 0.23433780694244888 -0.0710733513712114
0.33666359522575817 0.2608201525374909 0.08583363131019439
0.36559983511853034 0.2504151589508865 0.10086322122822367
0.3822651648131341 0.22034109298957105 0.021987597270282322
0.41946277093725826 0.20019593395596758 0.05938257209720632
0.3440268138276963 0.20259442130583238 -0.023045238988430583
0.398679984264632 0.2166586124522496 0.04878254832964046
0.37466222083335765 0.2369400529056236 0.05793648362568149
0.47479603704587703 0.1973439648123474 -0.034682575572929863
0.38443680322073703 0.24931029872197996 0.11471774968740078
0.39108089102307986 0.24883998177789124 0.09174164119468742
0.3605837553297988 0.27124612409508586 -0.09659784606620292
1.776741807241791 -0.2400654777873683 0.4343619784846027
0.2399836353266096 0.23191590684467656 0.10758463978405075
0.33643858440211716 0.2367761673327351 0.08950488268951062
0.40536983120563264 0.22044429510697228 0.040696759877931754
0.4172932582135189 0.19788595625956873 0.053521092533515
0.4415566980595145 0.19488947846957672 0.0033162598418812195
0.32181753220405085 0.23311401682980204 0.06045074281178131
0.37781095268887555 0.2024478990902736 -0.021917333803159522
0.18400605482560195 0.26397105623991024 0.05066787782170934
0.3473694928736535 0.09322135468408987 -0.150103010669838
0.541743798720077 0.264131805650635 0.01842955142626579
0.6467217375016219 0.22536001305425657 -0.06081948660630587
0.5240197513865894 0.1941164851975259 0.046304972737303274
0.29813377310958344 0.1821421068833331 0.03615509751456614
0.4283430493968581 0.20913808403790313 -0.013142404782200856
0.4282179494065588 0.22022256106944837 0.03838938233161571
0.43466742624553945 0.23154945725239884 0.03434678228055077
0.4539296253812495 0.22623493105979264 0.0497247540146617
0.5305632578331512 0.2599051471098903 0.029235069073166642
0.22975379720378442 0.19187247144009234 -0.022490172602203984
0.42038902522322985 0.2171712274278974 0.04919408499411304
0.3650474518276212 0.2634380475998057 0.08131935808020785
0.3076431293575297 0.2989348082044785 0.1609469622320603
1.320864756821635 -1.1386465364007137 0.3647516310599457
0.3044322977814886 0.2249658933335752 0.013544831164793436
0.34000811823523236 0.1808314748819555 0.09992400088557929
0.3908839893861966 0.21737112443727824 0.04449353436054082
0.594249654651918 0.1898553190679877 -0.028523984268417735
0.40649886493248744 0.14644651778462503 0.020786252989893228
0.3646644850125824 0.21786355342594277 0.044699000427854685
0.18703000998719688 0.2526872535909206 0.09188647858553622
0.6082775556181588 0.27509299253785 -0.017293062056367603
0.38994546492517657 0.3452125807910136 0.10524350116020287
0.4738740632953693 0.3276792461825835 0.042016166122508025
0.40897082466914014 0.23455739766703232 0.0008145327230408839
0.20832483896182907 0.22089811250000935 0.056710286465090576
0.3413691915698678 0.21974261620096058 -0.051011026065282294
0.48434181853470193 0.21252921482403053 0.028586399059690848
0.3393344820626254 0.27486548988395043 0.10996051534931439
0.4005691346136473 0.2455694884421291 0.04249161617170216
0.4088894559310603 0.2213229497836693 0.05130191719919708
0.4854331349000489 0.23478301057647855 0.04905005302194354
0.3402923771497228 0.19021507602127485 -0.022358091624454346
0.39148543107739897 0.22453368896802317 0.04388686625161142
0.41177969852191154 0.21421715431094412 0.04562335284094843
0.40891034873652643 0.2102322672072603 0.03439516020495148
0.3968566859741429 0.24268620272120245 0.07205060994874657
0.41081091721048324 0.2573071728170362 0.04894700323224299
0.47752855694230334 0.2085100029957232 0.014748258527021108
0.42540184630439626 0.22057564111906913 0.05249116715434354
0.41453415707417207 0.2190220391346429 0.03651661756731528
0.6223076997257806 0.024742053290680133 0.21749624279185298
0.40438261612004567 0.25543817643703903 0.12206682551713754
0.42184252573281356 0.3872009935263634 0.3142679356781599
0.3178685502739853 0.22552359291833568 0.015026379747098417
0.30822783116894925 0.2455109931659507 0.04171807840371855
0.39099086388523574 0.19711878525836823 -0.08612533865013461
0.3999256619246694 0.2252080771338285 0.038026318786393176
0.38901057905320613 0.22610529773569965 0.04265962659204092
0.43743437496959814 0.20083927927186096 -0.02286644093399559
0.4662116897064408 0.20842887645036967 -0.03455058276469458
0.4545512153225957 0.2234072046015001 0.03255210561874833
0.3710220605734946 0.19245695434041465 0.027595955564365227
0.41325865800513384 0.24926013124691337 0.1224194136646588
0.35239795250933525 0.22596853564103014 0.0698170470119237
0.3741305349029176 0.256434284414226 0.03919357456385342
0.34398029365883076 0.17670924900548357 -0.018947857172022964
0.37536599373072477 0.22014493001583446 0.033851618200145595
0.9893702526198069 -0.05128468583428969 0.24197439562200884
0.30349409564952623 0.2615884989161543 0.045168460745287575
0.5508921181019559 0.30643338700014056 0.06928050513408834
0.3733766064387538 0.2083878403628603 0.04149531894134384
0.48636085021063025 0.22830817137975146 0.0026374930066310753
0.40230844598372073 0.22060662995200175 0.02905632558682214
0.40086804969698164 0.21843960078213343 0.06195608592508961
-0.14744594819582346 -0.05228030550269125 -0.272515103208292
0.41282204017619506 0.2161320147057353 0.04374930719183112
0.3995285671539932 0.18164784715779092 -0.017149433291436367
0.40456227878203777 0.19201050360831573 0.009762348254298558
0.3986475088000532 0.2335571086814241 0.03628291703297748
0.4005169389011485 0.2534447348789257 0.09635448235107447
0.3279611259365822 0.2024913701258555 0.04869781564232767
0.3877880955278954 0.21926488298083768 0.04803044527737654
0.4830683669139262 0.21159940621406292 -0.043062038604460895
0.4181152370090615 0.21863596912525907 0.046568835499641636
0.43636895847799906 0.2059991047576375 0.021363954825162068
0.40341499236251366 0.23485182735767296 0.09959604107589826
0.3545501068483645 0.2552123393834336 0.08527002243566528
0.43954148934346904 0.24420779826104422 0.021358297612536603
0.46259477862165 0.21890039220195945 -0.058954887633802855
0.32889619977090945 0.18029067569452195 0.1278042752466888
0.3777146181930249 0.22646542084983423 0.10145004245252665
0.3896857592469587 0.2290055897023251 0.024822522156227933
0.34029759219005484 0.2565572389199957 0.11056387160415682
0.42303813936823076 0.22802226760509825 0.028855540863986562
0.4041816217492027 0.2218692568594065 0.034280421003231254
0.43458170386264783 0.20206171140821994 0.028631706392374667
0.28213643437533165 0.19965312212380582 0.08996296734656539
0.40407604582418344 0.18193965102712184 0.0036907080778121326
0.43408042809161884 0.2154161456105328 0.06232227817926628
0.39908131927711565 0.22339205969058185 0.04267987447730093
0.46447270352921066 0.23421700640423637 0.030589827799616387
-0.03979387389190947 0.4282473842490049 -0.2963471646815492
0.46232607253710967 0.15585085731814274 -0.03323534247235216
0.46721326624398785 0.25862740556631536 0.06225048329790184
0.4624918855710405 0.28784084445115354 0.13311798802327246
0.3851755513275492 0.19808064119312974 0.026035633759249777
0.48820657435433645 0.18639338990612941 -0.04878393519211954
0.39239011426722925 0.21392252610962714 -0.05557111649598312
0.37545341617465056 0.18942520626404757 -0.05302036184428971
0.4026810649251047 0.22206725059608345 0.05409900009914281
0.3167823610905316 0.2394103891913062 0.05953353500322578
0.3963085601679097 0.20107762827345255 0.007701994020891334
0.4443556776832054 0.18589689933482134 -0.019925617271809415
0.34798883007590575 0.2470243689045617 0.11565409856989106
0.4625118615407473 0.27572925142550275 0.14851190396456104
0.27653748918183396 0.2229700438433042 0.0326135962508971
0.15878067001085583 0.4362142511695879 0.09584478278785014
0.4343482855959735 0.24503754735694372 0.06909656615164295
0.4072953288131913 0.2595598301195139 0.08623765210833767
0.42417811838012653 0.25326057008742 0.059372350888651226
0.404662122944643 0.22870473506689848 0.06776973120199159
0.5073562277709129 0.13121977440525256 -0.058517366129464676
0.5085420719725562 0.1375808345920717 0.004694544020082958
0.3166975202799591 0.2520067576423912 0.11685662192928703
0.403765827013828 0.209224222348098 0.0983241838673905
0.5199898480699687 0.18229048881634924 0.05072484429356905
0.3842001846415428 0.1730312550392341 -0.04211250930339361
0.39070237765302807 0.2228886170269817 0.04075578565681326
0.4047746793163469 0.23207461358335024 0.039739513229051227
0.5454220642137955 0.27045510791842275 0.0877521821446976
0.5006424197443096 0.1989167658694697 0.018271405702762422
0.3544553526849654 0.24071157552110378 0.06413611210872716
0.45777989469750935 0.2018282256266133 0.002109090053480145
0.3469404208161677 0.27681730348484734 0.06712298009141193
0.4063481103897004 0.34577896263863295 -0.0574421645216745
0.5266058303028274 0.13969031881262595 -0.006412161308617215
0.3804698925518437 0.20446200995750985 -0.01637570447780945
0.4438899455604002 0.24419356225612887 0.05981690119742211
0.3674750129517008 0.3126278492231336 0.11597461810319487
0.34314223376151176 0.2148844490753845 0.018107683874177383
0.44735430600485415 0.26104671846093197 0.11009140026484943
0.40209201397510697 0.21640056395298757 0.058118615170812404
0.5525540899524941 0.20747009115976311 -0.08802682833211861
0.35777026202403306 0.20286118179534185 0.02901891691686842
0.4622706765291298 0.275212530279191 0.08714580593152732
0.4085856662943286 0.11818393836918517 -0.09538238720986669
0.34265956659874064 -0.04944915732028221 -0.05072443440121788
0.5403570810400709 0.16689429400216227 0.05131721734571215
0.3589587230909075 0.19869502209309076 -0.004823232282092249
0.4604814580638532 0.2162250336065057 0.07454991379425735
0.44196429563524475 0.23739931143597914 0.05045370074489597
0.4456238691135468 0.2024961163806296 0.03538982693325465
0.00577457962350536 0.16337889287493113 -0.21668812459678577
0.3623613154019978 0.20456415695011287 -0.02661289996740379
0.4301251789494529 0.18319938107373446 0.07314473903375074
0.2819294571351634 0.21714421731593347 0.07838270498359634
0.3786371191152966 0.23096411528884175 0.02915668875638744
0.3769973159043616 0.23849859905803328 0.06102738624899473
0.3795093388686155 0.22299237266233263 0.05507983564115193
0.36664445748968433 0.21821515678814762 0.08978085184347151
0.41737799539673404 0.2327107140943525 0.054087130164077735
0.35364135550321407 0.22070626327155196 -0.00824773310080218
0.39443110782315216 0.22230003006740162 0.037433201088418855
0.40987139500713 0.19008789534763082 0.007738584860945252
0.3805663518933642 0.24346903017436716 0.06488203743829501
0.42430202559248187 0.23413874312251437 0.033643869198968446
0.4175519013726614 0.19710712512001294 0.00600300038217938
0.5011869813868657 0.21656618421650364 0.01860368506817167
0.4315707593071636 0.25879340672099715 0.0827262945715006
0.3977182046462815 0.21261774120272037 0.023973946242563215
0.4489080051857286 0.23248944890454482 0.04970906293948474
0.18742494023487666 0.22303901661769032 0.1500900644428782
0.36395729791625797 0.24000940337177212 0.12635934529913584
0.36042713943638205 0.22331434966022812 0.045764571037082646
0.5768177789663298 0.6501929212694222 0.3663751036941676
0.3951211600425495 0.2072790482336586 0.048269622208636065
0.4046998538038622 0.20820743831070843 0.028973991410339295
0.2609775900770188 0.2920634836762872 0.07808296884306287
0.4083460127541514 0.20918698875696862 0.06460234871340731
0.4315604492210099 0.21705547939173186 -0.003414421511195087
0.40217620525153563 0.2346516866247157 0.006592404300590715
0.4339376915012423 0.20864834521653108 0.0339001775403176
0.3781569761237904 0.2040307603630822 -0.00974777150830164
0.4432350210622644 0.2296320479143219 0.03778194436407034
0.18064170980611038 0.40949225419410595 0.19860973805913318
0.368237077566107 0.18721851757130992 0.04918250722079165
0.32856772945119417 0.20236330764151944 -0.007965075741907413
0.4015320956401922 0.2037230876769911 0.01908425748010245
0.3297390834422629 0.17135552094376294 0.028591209753642488
0.290072882296073 0.2991476644033355 0.15372359159511007
0.3487602119053719 0.19785893764674256 0.01814923147706793
0.3070194363614007 0.2210423967714803 0.0684292265045201
0.38118497983805355 0.20061311554796646 0.03492473560493181
0.4318427476995197 0.22724224514234947 0.048836987903314366
0.33752444560916217 0.15379923780662352 0.03861577781586334
0.40877587380866487 0.26280710589654177 0.0902253066877563
0.4316566187471551 0.22690428218015768 0.02371990305465488
0.323244683860338 0.20838961539288903 0.061885950062816164
0.3866804848254617 0.22143076878226964 0.0489234309198423
0.4677712788167696 0.20003503896511177 0.025631588551320306
0.4227904146597439 0.22235963902656408 0.026417259148118433
0.34274444200202936 0.22926504107707046 0.06295948478830837
0.2147517931159939 0.21599761546933394 -0.04467524876801576
0.39024152382371824 0.22681800713289135 0.04566369773965562
0.6072002540302321 -0.3860868486254674 -0.0920735707022402
0.3511280322931043 0.2410551646320016 0.06603208483829803
0.4183534888735778 0.24552664718294182 0.03609790311413974
0.3126227158885797 0.2652671600589116 0.04603652463319463
0.3641469653831422 0.23976399228413925 0.09403268535359643
0.3073994042555199 0.2563835351456021 -0.06364815482348263
0.41851349893477163 0.189794273794746 -0.006710912477785769
0.4039734225102052 0.19587940755538114 0.08154866565701013
0.3541219723686879 0.23302110269386844 0.17071911338237555
0.4721495680660155 0.1730822799146523 -0.04238054653825429
0.36403620025257055 0.22653301341530607 0.04981300899272867
0.27116772025217983 0.25787731098837696 0.15347413774213692
0.3624936659176399 0.24466009671138522 0.0883437656493129
0.38191194130811823 0.2138875010267185 0.03903597211734677
0.5011209737964322 0.14797482100395598 -0.02408947381260873
0.4393945250946274 0.2289455877281057 0.032595117671490925
0.4295650591811011 0.16565122938669674 0.019274422686677894
0.4422437293288368 0.1337579842692378 -0.035575642157340326
0.4960226260038212 0.20521618299630973 0.057172057217940164
0.41169803391792925 0.22549791631028882 0.032159118341411386
0.45913913200223533 0.253353354128933 0.0962220779893812
0.4074841658515993 0.2108050759810567 0.01559152521488727
0.44344234767049784 0.19850499708758207 -0.05665800425244072
0.37230306774162614 0.2882814450740909 -0.021881899984435904
0.3659511418687913 0.2542149600073742 0.10669773356642054
0.4959846540576791 0.23921211608045212 0.014547308461828834
0.3857072776496011 0.19423882827925354 0.022228468472462737
0.4229729566257987 0.23485107465776878 0.04298169298334642
0.42414719122015754 0.20194244397893613 -0.01329709528050671
0.3696296920345361 0.26900067897764757 0.06967014158485085
0.44527217102104544 0.15797559930115312 -0.025585344038688618
0.3375999612782721 0.20636585454494139 0.03341522530567431
0.453136427788138 0.19667877557738223 -0.04956223209130428
0.4012585617454363 0.2421302942233865 0.06064365562065177
0.33877857133524003 0.14968931864224544 -0.04399042884267601
0.36823807165140465 0.21587432082993985 0.008558363208521769
0.40919990878144574 0.202489537721533 0.041639735834380076
0.33924011986482583 0.19371877151073136 0.017540007341267483
0.44779459861076987 0.2780503570388788 0.06477653959935026
0.39704722251292424 0.22557170886712186 0.021722639495777685
0.4159236595086355 0.23638757863190563 0.05940871753813326
0.31153429758286677 0.19268907391111156 0.010278179831701095
0.40227695157742005 0.2525056563861767 0.07439734977492662
-0.1696067731104165 0.13303499727949486 0.10460118758282988
0.38042757512826597 0.20901645444325823 0.1066582860424603
0.5653576106025184 0.2498323349095415 -0.004662019558395514
0.4551038450795204 0.1796117379320492 0.03154323059915498
0.5936373633919629 -0.8188592226746891 1.0535126357960678
0.41355264095184907 0.16702103404220736 0.004025449924824898
0.35225448188208475 0.17243313420564732 -0.054341542788961306
0.3753720737217634 0.20826277544998106 0.050840817962495066
0.3838845582540955 0.23254094759958832 0.05579303519346013
0.40853923356320365 0.2504899929586202 -0.012689858422703537
0.4228636114473261 0.2295432981583474 0.09025671280460301
0.48249270533113986 0.24830903203258003 0.08064499164566996
0.49563114998480273 0.2552561089947716 0.12955705482782776
0.3920053959588756 0.2275846064780751 0.024845922653952357
0.4716503971655186 0.24179455955925278 0.060052222325367666
0.6729550815016978 0.16737296284534864 -0.054447283317472284
0.395582590812424 0.20759670133018915 0.03151289802336521
0.2029944808384414 0.26941246246244077 0.10168587022243969
0.42795150933164905 0.22236256812678334 -0.052259474446742615
0.43222997728422285 0.22290113700053382 0.023461932929976115
-0.8221608206435178 -0.7036145247690797 0.786932529928535
0.3981518463946827 0.2103029367299314 0.04015916145830545
0.4336904832764219 0.21690252271662303 0.034175985573270395
0.4366191157945991 0.27653527692294233 0.059611467010057595
0.3726289149583977 0.22133725604740562 0.06789121984422763
-0.0013917311124203025 0.4050300572435219 -0.09741949735339972
0.3829259942943821 0.20222133632628925 0.039279404205302626
0.4074010819783638 0.20649186234564354 0.000668684472131531
0.38751419569931045 0.25006481174403916 0.0694892204395785
0.48678203127985853 0.22893016694510493 0.05005377499981023
0.5027415101524468 0.20829198735768273 -0.03790536837658465
0.41124910698007966 0.2040465729464529 0.0361055866705442
0.40890955893661385 0.23201011678077066 0.044497717605878506
0.4330119990487873 0.15036555410708274 0.04875566198541037
0.41706461301177455 0.29086401209707446 0.04356113818562335
0.37752500077175455 0.20158052624287848 0.0558357760522199
0.4729205041341231 0.1696325136345962 -0.04691232190847927
0.5449770993745346 0.19255970611139617 0.09516650873794674
0.4438297093401502 0.2414080429340686 0.06909909709202111
0.39111266502376907 0.1628134054117112 0.06767175314848828
0.4151874596991547 0.23125898019657143 0.038460551504059026
0.4198370732190142 0.09096440236805847 -0.14501800198441117
0.3985241225264531 0.22365408102443496 0.03649373389093569
0.2843943417769026 0.26065526211013434 0.04432214253552047
0.40285460909116466 0.2258907274351145 0.044250964091105516
0.3123958384862249 0.15958074373664033 -0.023511731626129517
0.3480456412116979 0.17089020983854653 -0.03146009500885327
0.3747851961394133 0.25314590044349927 0.04129743894770854
0.3986339535142349 0.23760538213093696 0.05978408222003395
0.46538674483572606 0.2752961198247448 0.07641212971964251
0.47454444162448794 0.18896674111010725 0.0061726782841731165
0.41943772823185554 0.20759744818342085 0.04402672447363898
0.4009844601994246 0.22907936801748008 0.022088947721670138
0.520948950514466 0.21398864789996708 0.006395640166658723
0.5226872913164584 0.030772414718541086 0.06655616419521948
0.3436138100178425 0.24919722796451538 0.08712061130896132
0.3366437627356049 0.1887469265135593 0.155413014003301
0.3003558893004481 0.19441106598860358 0.040391116573886165
0.45371064894033 0.19518111369059454 0.0005992020966800737
0.39493931112798464 0.1933700271854093 0.04475941344244916
0.5172893561539667 0.14361067121684812 0.04085148285079754
0.3647670371383924 0.22398141589616216 0.06322034255853737
0.38692519467377906 0.21092664866343114 0.03942614557607271
0.3679019285200127 0.23668454647841486 0.08830998842105942
0.41165448166103147 0.2042416860931553 0.036774363833728785
0.31076597667154715 0.2689463312011071 0.17119055341900946
0.4021200143785393 0.246887739315639 0.059356076480312936
0.3274288271233843 0.18575517469051306 0.08109365108734323
0.4020588360752697 0.7868444828002765 0.18244067248859608
0.4645974427838695 0.18455950306423574 -0.026905020689440562
0.3836125902570302 0.2458385200806532 0.05811598016637731
0.4194431880924867 0.2542609093610224 0.10552861237943034
0.4308753372344256 0.25306349803102535 0.11163518749251011
0.4496155178226786 0.25005447963827976 0.06978966871471926
0.4667477669317748 0.21793612694267495 0.01117173660261983
0.4520149670319995 0.24431637944053364 0.06837039505435882
0.3440912067627693 0.32473979050512014 0.052633410851370854
0.09919041210456214 0.7926324527831241 -0.027056524534287973
0.45631477755070193 0.2510419052898669 0.02167860428222923
0.42754948391879566 0.19586513348738777 -0.0059832039336242815
0.3930956938281156 0.19034741123419963 -0.01627496239123616
0.4258508755326602 0.21164641081423952 0.0012924490083747742
0.4167404467132343 0.10604315246192186 -0.03470352725527448
0.4238214273036931 0.2270841081141981 0.025432014256693947
0.3200245289512509 0.25345736203773583 0.054446555669983354
0.47712412380946034 0.26197385361270165 0.13201875515919426
0.3359196075138442 0.22584547348753858 0.05689028572737698
0.3833120118637936 0.23374431805439144 0.04530038319876439
0.5193985986768723 0.2415962538347287 0.058570001109558234
0.4759252679166366 0.24086381258017298 0.04197796207330384
0.42763652606554103 0.2171718603504189 0.02784724619885992
0.33392044977046 0.3120931888785492 0.028660735551000016
0.4170711347466636 0.25710276912428753 0.15212819197550687
0.5794745528301348 0.12317133284696524 -0.0694176471213126
0.9182251274974789 -0.11272069686881991 0.429109515078693
0.34664564164989997 0.21036565610756952 0.052032831683931136
0.4100005895460015 0.17498186458823284 0.011960901518790479
0.4415934300201201 0.23055482149354134 0.010926030975028311
0.43869766566395185 0.2855996036711872 0.1381738118222131
0.4292187064419011 0.21156605252818395 -0.013085399640957007
0.564436830783194 0.2219517302891063 0.024680583482080465
0.4745596878707943 0.16743826026626607 0.029500330750337866
0.3251674461018581 0.24721424573806416 0.08901205778458632
0.46634408200073096 0.2211394524847492 0.052204300605154685
0.4676036852142147 0.11077611013881494 -0.007426257209516507
0.4740669738084762 0.21962547865719273 0.05054078793187955
0.37172426040737605 0.19387484019735268 0.013072626680809663
-3.1313907314399074 2.71272184677926 6.8753564423125795
0.6650509362797692 0.17080296469330847 -0.04095583289000615
0.2519744728253386 0.192448233546628 0.10825375403021553
0.38876895582498605 0.17939839085414633 0.008743476779415005
0.2802521835763514 0.19452295932825336 -0.020143028941021157
0.43350455938906407 0.2055136092559735 0.008032327552399465
0.4193717755382096 0.21583505546905712 0.014069747740137473
0.4879028393051499 0.2490630958413078 0.08969900334841441
0.06132406190070583 0.3468632484318164 -0.034188842674808484
0.39439072538831965 0.24129096262917926 0.029440803966963358
0.39382411333815526 0.23696395864833164 0.0646048052206254
0.3302677351352088 0.21826817413216304 0.020510059329950536
0.375005014273853 0.21796016152613618 0.055328704871044465
0.38989117136227947 0.20876065373963115 0.06658963384262506
0.48722522672088076 0.31320404667516755 0.10407007885581265
0.4221928152387022 0.1698751441130355 -0.05049324647271192
0.39188391619276786 0.18670603933890106 0.018372413935935583
0.27916484810290854 0.2063392999384206 0.015312343798427719
0.3985158429347564 0.2314882477027993 0.052541402347216604
0.4007474427614852 0.24306771458395815 0.17162698061009962
0.39030301778859666 0.25521672729453826 0.09168444648234697
0.4052650241112019 0.2506204549930118 0.04059461497180905
0.39596806924819816 0.22913757634964327 0.03421113651199903
0.33842860893449256 0.24828544209410097 0.11186212429750242
0.3635546931212019 0.24322892332321544 0.06361759163587521
0.4367132855666114 0.338655858312535 0.06529059883504829
0.4106143872187573 0.21417701402739908 0.04708903319810531
0.38679811648086115 0.19410984564613898 0.040767015317030086
0.41451258550210923 0.1852687975327285 0.04533018816275103
0.3991707757607088 0.23026479377512032 0.035941506035271686
0.24093460040438686 0.1285028553462979 0.026488697761550384
0.3900117682772475 0.09840629201011097 -0.21378945620890022
0.2936043431290898 0.19353817910467797 0.053223955771485976
0.38425365491032437 0.22137248727965186 0.04544432633052509
0.46560275711739507 0.20269312238053772 0.016119297935944132
0.2490029126460911 0.18062570238319609 -0.01751383005569096
0.33681788381539945 0.1891439005290465 0.007670835584107749
0.2988225178260393 0.2808335594474727 0.04033960890262733
0.41342082178589123 0.20705212448460486 0.040602040246483284
0.4203171094825393 0.22321898084592817 -0.0034230051784334137
0.37625976932461924 0.2320678514386998 0.05967472700726262
0.4632333837972027 0.25422388151798714 0.08554787634385264
0.47687864327740215 0.26433471871365555 0.05003764707578284
0.4270391951756949 0.15599980643438016 0.07580357872325294
0.46270832022577224 0.19809729346317795 0.00342719502114619
0.6517100571641947 0.023501928407881678 0.33448819345326797
0.38760620028131143 0.21932200663047752 0.04162496832933016
0.37189552004934967 0.2352370790239462 0.08780051023217084
0.45166798454872037 0.1928512187479754 -0.036566099944209896
0.4910591075406927 0.19525929756628102 -0.08093998544327974
0.31630339001984 0.21464006517213363 0.018186603392550182
0.45272283084378273 0.25319762013413083 0.05772046145162335
0.9066673123830071 0.14017384513711306 0.22856889148434334
0.43306845353490075 0.175032428763231 -0.060335990633802794
0.37528140865435944 0.19944444403992634 0.04423750074388977
0.43068753948845995 0.2250388032095998 0.01633124141999076
0.40821116040476113 0.24939491333930164 0.0934652180986717
0.5039740057281108 0.19540290825830198 -0.025373813003653822
0.49950677486978634 0.20044733249073943 -0.07741188120284903
0.43457427970048457 0.2765226511153287 0.06512156451168494
0.3594836667436283 0.23853915153122784 0.0810620940185629
0.4399696393646195 0.23418448718746276 0.09129643551725053
0.30119500555144896 0.33370724944860797 -0.06685736594694447
0.20060981918859966 0.15275720548575578 0.09987722580135028
0.4902182181841397 0.22641648802016334 -0.06964170000861714
0.4036492124867266 0.22471995484288243 0.07082729772500329
0.34424370294308915 0.2210100958609189 0.052397204060966374
0.43706552909611673 0.2608289801019623 0.05146114120559275
0.3986547243901555 0.2170081693224688 0.040148930211898914
0.43717925741700014 0.16144043592819912 -0.06321263251192022
0.4988219903978859 0.2330162672769518 0.05621568472849958
0.3069490941167601 0.27993089277379113 -0.03547209608348112
0.42261101839909543 0.5304223002014368 0.09477066744256035
0.4385219955273101 0.17052984286317496 0.1259158965367817
0.40926670610883775 0.2088317632007204 -0.03179324680996842
0.5031084838958577 0.20696307240831402 0.03286068447656021
0.3814019507243245 0.2655246781702374 0.07699442407933077
0.44299946615927865 0.19129833565364152 0.01908002242710438
0.43533388868058864 0.21028461983489422 0.02411568974190459
0.42948931884882313 0.185121105732037 0.020662022040156103
0.43264245593658757 0.13486095309259838 -0.02393710826960671
0.3949260888350352 0.21162793785897804 -0.02170069896425275
0.32555049552159687 0.17659970620479726 0.015263305352462453
0.5108690765685822 0.2463639214168154 -0.08917903843041586
0.3660851703875352 0.2028363987305255 0.006806572075532813
0.3816010608651368 0.24919575323649212 0.050755804314178476
0.3458401233405084 0.31288295214909567 -0.0389704727149649
0.4070096778402643 0.22031187016978038 0.010045706532778809
0.39452266481183074 0.24749773899081617 0.04279902956469073
0.32702608446359704 0.3884858491059049 0.04036144401833042
0.3406188796675025 0.2526067250071691 0.07745491171642982
0.4867948543948728 0.19821726521642802 0.0762682441071405
0.3578215989784894 0.2359616049212434 0.08284330207078483
0.4808311357910213 0.20582729626504204 0.05347785282236828
0.41513415440942936 0.23956328816844064 0.045389161012096224
0.42301286506406655 0.21999278036540204 0.048109030142697407
0.41086870196586744 0.1807297738980651 -0.11408127667807832
0.40809165045564555 0.23407290187935814 0.04787966016728262
0.41312926943231787 0.22196704800032308 0.02013707633653894
0.34246125958438256 0.10887221185579676 -0.27064261783243637
0.3754561704621864 0.22181521322538345 0.03725927067091561
0.404349683173308 0.22568988896549058 -0.0010408436796467413
0.41895237419993236 0.23241609631278948 0.015630639979036687
0.3680593788543405 0.1824493317428164 0.017172317027757344
0.3399170955049158 0.23845974284554927 0.05380417430754392
0.45384359932172913 0.23513075854113197 0.04559580471986635
0.16452271533941598 0.4696793840854525 -0.09922331143467034
0.615410458247311 0.3623201220630392 -0.05996160010747076
0.5510559663856895 0.1727093352639173 -0.20496652278293936
0.3813311092479239 0.17845548884452 0.04002320009306004
0.32231458303371596 0.22211373277227153 0.06325764062657413
0.29598181988133376 0.2539160120867763 0.13489669319024244
0.021175025581158025 0.7047579635211605 -0.05331064274747632
0.37675560491823035 0.1964779096707332 0.03336355205600228
0.44037701338361046 0.14980231904101515 0.07584923060292681
0.3028978591102458 0.11958149594531164 0.055715680189507566
0.45482647844755775 0.266711436421474 0.025148706893901362
0.353474071678761 0.2218967098287692 0.06195757856798423
0.4001221064502687 0.22822593603206087 0.03802786998895158
0.3821477943962748 0.2503154824278653 0.045013472247390496
0.1937229939130134 0.39281547956032625 -0.07996270070145783
0.39637301825891313 0.22717685576520807 0.05578959803679595
0.34777227145559664 0.23467999490742386 0.050178646706058316
0.4100031808759752 0.23892885448410084 -0.018801552901521745
0.30184509710637997 0.2495801533935662 0.011566847785701384
0.3992542788453193 0.23687870790317334 0.05868406760714606
0.4356504581098619 0.20178833759369752 0.002584770750587495
0.37331705714751706 0.21833664709717482 0.07397424273656839
-0.25174139553281805 0.3677209249293014 -0.11153212340219909
0.3892791890726244 0.2542756692997301 0.06224841742837839
0.44165388660510985 0.2020850965977843 0.06341544031525359
0.4201457249048559 0.17432328620813564 0.036937904075557526
-0.04432786400317923 -0.0601417988890347 -0.19230869537415174
0.4570649519727965 0.25350866722051535 0.13197734908644065
0.382473175478907 0.23468507447449838 0.017809167289158268
0.3797379490326449 0.23527383816482939 0.11592330470915613
0.2248620148044722 0.30794566693266745 0.13740926983169288
1.1991504468940093 0.23278262990260146 0.0467543039037821
0.44413068126794997 0.283229664114657 0.05665734889376495
0.35123837120927703 0.07795281867861092 0.20612948602720849
0.37598813249252316 0.1898615702417601 0.04915753419362545
0.4181258437158988 0.23945313196529128 0.015246034229079442
0.5406542906507923 0.24084247973620165 0.16546571722567194
0.4633037495366352 0.22633311218669405 0.023706491595362422
-0.38567066497751057 0.5523605547510044 0.040835547116572
0.46005034389851573 0.25439450323908375 0.030602328670411794
0.42559067325510114 0.2288286186232824 0.05457079298949452
0.4139067008495658 0.23470912524746268 0.06824429379156527
0.44850878891853085 0.18039759284737045 -0.04480438057861136
0.37420583606174773 0.17713470595239755 -0.008748916272523388
0.4138226103956413 0.1985064998574444 -0.0005405960599205173
0.3752132097647518 0.18859354142159646 0.06640430534389452
0.4998634887917177 0.18489474679638818 -0.08391084541190708
0.5102466463952169 0.17891916660184393 -0.030415452996663817
0.4532861332338882 0.15569724950908892 -0.023004775765713248
0.20068869367550235 0.2976744789582 -0.21146035942092567
0.39274628524398736 0.25176196415338836 0.1222752635990787
0.46253568197602135 0.20278998055717068 0.006442087789935158
0.5083833018660329 0.018842175766224045 -0.1193199033741621
0.28363599472672263 0.19047214672332302 0.009548550266060829
0.3120171435900545 0.18346086362373626 0.1376946805897319
0.41701302298467624 0.06976452210608386 0.13587358057033327
0.35660838141123463 0.12915186621997066 0.0035276135808999243
0.366878432247276 0.23597806175064306 0.08997936413784657
0.30432146713192765 0.2201734876123851 0.009157689740362684
0.5429718042128115 0.2628224777992898 -0.04059991426652232
0.24143316896733324 0.2226909907286938 0.09747887980108771
0.394368658505897 0.20988449116535435 0.03840830017861663
0.38573703333347 0.23470403751545632 0.047585546827079384
0.4610556245683597 0.2329201414458737 0.021350934940130628
0.408934820171055 0.21582942617038725 0.01718515824400413
0.19904396989491602 0.20487707384774012 0.15929270214800795
0.30580231015046877 0.17890467102120056 0.10232173918282683
0.411408320648718 0.19315227142200797 0.014057252542869492
0.4259203847137769 0.2253095726422032 0.059824055821536604
0.4167504900500205 0.23537963322878852 0.02566131219813883
0.3650245336755802 0.2939333892319098 0.047699729150195935
