# .PCD v0.7 - Point Cloud Data file format
VERSION .7
FIELDS x y z
SIZE 4 4 4 
TYPE F F F 
COUNT 1 1 1 
WIDTH 803
HEIGHT 1 
VIEWPOINT 0 0 0 1 0 0 0 
POINTS 803
DATA ascii 
0.3224541701179504 0.20166012384885335 0.016881859752828632
0.41563807749415105 0.2374581200481316 0.0421313166590096
0.41993390734940306 0.14603859679345987 0.09352362724169438
0.38368213801746265 0.2550113409868686 0.11477563669348001
0.342057391559905 0.2302284441208542 0.013590566434572793
0.37864373529089335 0.20576765946979947 0.021140014603730606
0.4398535468200322 0.13331699218944948 0.11140454684641554
0.4019177861347316 0.18953721091141063 0.04295049708662191
0.35580058517456337 0.22801855383180225 0.014437146779044951
0.5582197182444162 0.15228863072060506 -0.048602849890087896
0.41169501141720843 0.22975618577024193 -0.022768609831203435
0.3524256814286275 0.25076807536737533 0.07769004272756774
0.3578232098019214 0.2323040124822171 0.07429317904217214
0.34154446751441014 0.2861642640474713 0.10094023034554311
0.36542576622663603 0.2106830508376163 -0.006728639611537801
0.37405206669343727 0.22148503434438283 -0.014028252956066467
0.4178003240332373 0.24663573195235244 0.04316198381219749
0.35096981384072024 0.18029511617832839 0.01625645132713771
0.4489330881328897 0.26743215079793003 0.030785688171476977
0.43703432556736743 0.17010267192891604 -0.013443779701944436
0.38234408472550285 0.254616362486928 0.08918770622008765
0.4056718196306406 0.21267313617133254 0.037083975541733594
0.42299991419591265 0.22756451682391798 -0.047054490688879014
0.3511354138995131 0.20349372420996303 -0.006735898284787822
0.36426949817830234 0.2533055485865958 0.09576714128193942
0.42382818004246303 0.25341356050597597 0.05542560829636045
0.3303467445527133 0.21801545293551783 0.0760681537193193
0.5668181541513206 0.38215278994212554 -0.010368843637820646
0.3554258011802176 0.2514109009554488 0.0755941568686751
0.3621525776789838 0.2122630264584302 -0.026934316542394754
0.4873656797282422 0.3223346284657964 0.0858503133086117
0.38905054555351626 0.20908205202414365 0.048909283887525135
0.37108385049769765 0.25517204212982847 0.1320127152379058
0.4739190397243931 0.3817312686785499 0.18710999275545248
0.417878087770319 0.19899175390449386 0.017689643497405427
0.401121008194707 0.2414017322264499 0.06004307566456646
0.49661852198268264 0.1782587170545753 -0.009900668699472703
0.41731485918739963 0.2313323083514831 0.09782009531237179
0.2902114212737956 0.0995876294889797 -0.04173332993312329
0.523884437369901 0.2142339131119968 0.10144131662281097
0.280451445553183 0.1840899007357848 0.011293884207901783
0.3556164782465032 0.24329765350950083 0.11034001626768486
0.3883573887456748 0.17471469283884744 -0.007283796052007574
0.430169391764224 0.21585937851146753 0.01800340075081408
0.524036007524586 0.27045850799592586 -0.0507780566185545
0.38307014584813714 0.20752867254279295 0.007883244265173062
0.4323419145846401 0.10039142946394009 -0.09164476961944956
0.37717329834305247 0.21201657788623152 0.03212426200003904
0.4405533931659704 0.3444567788530719 0.2050927938199294
0.4706641937910234 0.2303990369771043 0.06622906414122554
0.43593579417540695 0.33428365735630905 0.04531257118841836
0.40325733584634804 0.28357210749834394 0.0764336207910219
0.2456523674379696 0.0990453636285622 0.2868420635627871
0.3169269938109949 0.19115401625353456 0.06400777285594472
0.3589446096318909 0.2556260415683198 0.0811797357911388
0.4676381115701105 0.23224403734427312 0.05608171429179265
0.34180087279784743 0.2566010850307521 0.0770357322048767
0.436909712861123 0.22454228865642278 0.03332841971499079
0.39484241584264623 0.17329756901204973 -0.053406104824304634
0.527279105459499 0.23789860230036197 0.0077892922395790265
0.44620168512344094 0.17233007427962832 0.10969558926358047
0.3667571779422758 0.196652261954938 -0.029453927217403475
0.41133460210869544 0.2427184943805969 0.07815314220223968
0.37395194945938215 0.23264912447191932 0.03755098172325688
0.41649402272184943 0.32163909284075487 0.14856602223842685
0.40889516286948435 0.23539142695588566 0.12550717235880882
0.40317358599421027 0.2715198837124717 0.0694494572452129
0.4782327607063621 -0.5501746789156243 0.44214881897353564
0.38161192711585556 0.1662981784449613 -0.013712061686931065
0.5832075787749318 0.26012604080466417 0.004009617243070807
0.44154553645921624 0.27659278576231827 0.0061021141046637695
0.4068385961825527 0.21435395422895454 0.09296402203192144
0.29085809087968073 0.36519535166289074 0.18845206651374724
0.47594504117327574 0.2649535777007088 0.010374449825917509
0.2976987211908835 1.2226569932249873 -1.155370760839432
0.331125387932218 0.22448192565414615 0.013209756165409203
0.3336843454219576 0.20961691472001576 0.017579334884970876
0.36287606607557166 0.22139511193270778 0.03751390730667481
0.34645023063922054 0.18267455130029475 -0.026344802633360587
0.3810131308574114 0.33005632965603127 0.023020044904129122
0.30396554297874445 0.2049021822296453 0.15266627733930704
0.37172780257827753 0.20923762657585598 0.031269428154303114
0.3831911358849851 0.2050287239562465 0.005846622733159279
0.3801946819990576 0.2280582863768359 0.03064240736176771
0.3711208725180768 0.2062951303519469 -0.000250128155926177
0.3664117819363355 0.23037081338404164 0.03361040605642529
0.41786134473017 0.2141546956005982 -0.02508951650017366
0.3995676954066312 0.22200241602172355 0.020195858817984913
0.3110022029275257 0.22715280867586785 0.07158486620687654
0.42195619036968424 0.20080420132464383 0.022182363347056366
0.3941503452967936 0.21939793001757835 0.05063301955300403
0.6080072810344745 0.3888729166691718 0.5110353370641718
0.32711467095708713 0.24296756952472265 0.09229704792220161
0.49029571583555764 0.31294829447205075 0.0679185587260065
0.2928143816400848 0.1755802954709509 0.022499189169437273
0.428988442384437 0.22643862893821165 0.028809845297558923
0.4051023862718921 0.1892965305083294 -0.008961222174889372
0.40644792777368366 0.1554203601678239 -0.05700862626754599
0.3257812842761041 0.20066930178842313 0.038298825467805386
0.4112353933524133 0.24184711423905014 0.10149954127972194
0.42430892549441523 0.21290267831658127 0.07375116717847163
0.39517013669225776 0.2568735767970196 0.0762429288051294
0.07341400148020227 0.26649055825549794 0.18438490675761443
0.41705199155920525 0.21525324315956595 0.049596311884641864
0.4640285053414601 0.2692267262182213 -0.03494849642635245
0.2931840924011624 -0.34797967620332315 -0.09020674480714774
0.24339510573216216 0.08566319513926146 0.030811810853521138
0.3438397953336647 0.29079337307592823 0.10091452072859397
0.4818090022357211 0.26340583364510906 0.08117737302357853
0.4845897683602516 0.1506970443030724 -0.06404483044516951
0.3435198331771403 0.20861255717699123 0.01887633801581501
0.4337451902101179 0.2498608256265129 0.028578222478273574
0.4399514576906114 0.22573160375515045 0.03170753243858826
0.39162138686269543 0.27665257301580937 0.119241427216906
0.4001488785366689 0.2405684661825802 0.04959785843948339
0.3578447587582332 0.14028250078342808 0.12354024417754772
0.36241735735075054 0.2509319030441617 0.0710525191011584
0.47287158329390877 0.234843270920436 0.03533690945158696
0.45161355961040783 0.19956992832095466 -0.04053634539917539
0.15229066509465383 0.1500934046437692 0.03395662728283355
0.3342167993635172 0.17491865420119268 -0.03689347644221641
0.40784714197170047 0.15577856091979925 0.04517916862586446
0.43880917563913613 0.179126748770841 0.1451553564371011
0.23310944699454694 0.3184959150319173 0.14674889859772122
0.4086022090297945 0.25177309156482863 0.0999877055020022
0.4143944976198384 0.23072493389921078 -0.007513550486692111
0.35645257342653736 0.2672421762616324 0.10718884727774025
0.41588969566164735 0.21831526139325774 0.026651596019661383
0.3709758764946969 0.1444055935493509 0.0055648554723291
0.35824940313649734 0.13723586469596682 -0.04337961077433761
0.3466837949995778 0.2454864607453544 0.060806724840659854
0.2747370902001478 0.21376926145899233 0.11895159464577887
0.36248198609459337 0.26841483421650025 -0.013724908946329606
0.33973827743398033 0.20841204584246498 0.03808506964102776
0.48961184880614894 0.27423762470378676 0.062182236407096525
0.45876951977626845 0.24644301397867707 0.051302822808551696
0.3768458633561238 0.25573567127776187 0.18237984434738053
0.3581172278161091 0.2141920465306839 0.05193742353355901
0.4424184190401945 0.21975114383957361 0.0220838156924259
0.40228653767387357 0.28700884135650995 0.016709309240781067
0.44583740163453456 0.168517670846569 0.018087233919288792
0.33897802180939607 0.243322196701655 0.08059277251899744
0.3931497302544926 0.2616820973870517 0.04381588886823806
0.3696453665752699 0.23487951282641006 0.048503999952885124
0.4000638480768117 0.22963948000844425 0.05431839026209673
0.39754747926807 0.22502087437018758 0.036482766019631185
0.5169278884625896 0.16308352866893472 -0.03595110398944712
0.4203654390075684 0.20500769730378465 0.017854897052160368
0.5036303685190546 0.08385510116808348 0.03798219028269045
0.387160245220457 0.31741143440504516 0.10681129364314756
0.324437948570349 0.10642663186381185 0.10951531729384101
0.24239652462819095 0.21410752036779002 0.02746753286513126
0.3328879777183147 0.24315463496948553 0.07232018798919171
0.3745814661409099 0.20884219694046635 0.009154997366351836
0.39470403689506384 0.24967585934679448 0.10235826381871505
1.1064689827544925 -0.2702039828681393 0.4547020090818137
0.35712855770299257 0.2802736695545889 0.033207255208566266
0.3108423437918475 0.23757473323382783 0.020904824887850282
0.3696257466972668 0.2653399859441663 -0.07746371274166108
0.40217190042693574 0.2352462032549596 0.05027907058810399
0.505534307594246 0.1288687219192184 0.03982741265518541
0.38745863085542 0.2165379344368148 0.03666133883464795
0.2517435269944599 0.20325887366183792 0.19271117100871038
0.45482784878052485 0.2077915513134485 0.07365833512847075
0.3344476628792279 0.21445286962662635 0.07197364790164329
0.4417191607620339 0.21150161425265424 0.011962759426552338
0.3403698603675309 0.18401150457242466 0.01732793840562863
0.4849028914237863 0.17410176069574845 0.017521030219683098
0.5473172993081619 0.16018177285667434 -0.10746212217723894
0.44319248028592995 0.21518995737073965 0.004062408055347078
0.39490185322190996 0.21627709750210045 0.046536090718959144
0.40587214500729374 0.27570258420647065 0.1393422914933069
0.37420371126201246 0.2485083657911673 0.09487819901588068
0.4690771712521098 0.2544055361955486 -0.08280087343901243
0.32388337948769674 0.17835979327202267 0.03898096855897393
0.3050851736857396 0.2219297098013726 0.04369643156805125
0.440238522505183 0.14444787552196203 -0.01286067146673986
0.3963030368049374 0.227923678296321 0.039164736344332596
0.2617316709652471 0.280671899163508 0.08593033136820338
0.4895079357249017 0.13100392449720744 -0.008597637736073693
0.39548101382905543 0.22352612285673956 0.08357590750651411
0.41127779220992977 0.17872592259686826 -0.003348033374095394
0.3873231854864798 0.22368261722043314 0.08876203294627771
0.35677528471261155 0.21753496437874276 0.06699801035219366
0.36529626799418224 0.2573926439693821 0.05116034109005341
0.38415336418987067 0.19422168846422494 0.02487964581425217
0.4979861878590839 0.1620080530721424 -0.012316962411475174
0.34468028523795624 0.18739314107165228 0.16879262963141173
0.33415743923394814 0.7599983905528802 0.6963893796087746
0.4331063386423182 0.20097213958513294 -0.030428079896594795
0.18978193311264135 0.2744733282098366 -0.26444161663442856
0.4327808629457053 0.29617888136640147 -0.10079663120055216
0.08698600809078982 0.35416461891732354 -0.09369921979899232
0.434409453740642 0.27887475832955033 0.08213651169015179
0.36691414402194766 0.23614066490662822 0.11995680580598389
0.5878483641157004 0.22516603653789957 0.0025344349404861077
0.2645744148318556 0.14449680840287726 0.18765831543043987
0.4403369339254084 0.2108604230307094 -0.04264763864375709
0.511557814327233 0.11755970243460467 -0.1009465634723199
0.31681205647791444 0.1770149308955098 0.007466218946547087
0.5030133733114042 0.210582320434483 -0.027761708050746847
0.4164410924031472 0.23091825461493443 0.03851798305123566
0.3200209747727456 0.20048729280031807 -0.07634751089184988
0.3857089335099886 0.163401611196079 0.022434434066809672
0.35647614688093654 0.22285550188291836 0.02718251288644069
0.3403035562364778 0.2193915464401357 0.05814352043236681
0.34070263543689805 0.1842206056991813 0.04247362185805059
0.35926486639877453 0.19076668702334132 0.0009923798071156398
0.40568126083690004 0.26512640199297266 0.10059092463311003
0.399769212266321 0.1707744655384147 -0.08732269874776932
0.30000384301376926 0.19830338104624445 0.019016375509039563
0.3247056005559017 0.23877867416773313 0.07566992401743278
0.3816106685415548 0.270992169173752 0.0710856638061017
0.435661035579642 0.21004138984002907 0.05771761094783301
0.3138807531366865 0.21548299548663863 0.026722577642416923
0.2739259893891415 0.2607961373763601 0.09236974498372774
0.2801931062394942 0.20532051701773923 0.05897512255941706
0.4131961976740115 0.2119471205202217 0.04112522173045363
0.3807587069055671 0.23022369780210283 0.10752433323243338
0.41781678317138926 0.1942940251542069 0.005915460049322974
0.5273785730607727 0.1671304980370678 -0.007274216355767749
0.3756194867621616 0.25881728578906404 0.095066856514336
0.5331621228708343 0.33410770818640856 0.016804227516388437
0.3780261858050835 0.20643547266416817 0.023877054070766235
0.3770668766431129 0.22918008553577351 0.027562197156555612
0.29715203847229077 0.3041882910186757 0.045396436758011305
0.42984018676850155 0.19296512018705414 0.1658679273358814
0.2943079425396036 0.2217963465000281 0.09450624462692758
0.32518064915319655 0.20215810925637356 -0.013632155201094065
0.4059160971288378 0.21963593480739974 0.029867783199307496
0.39167387507248463 0.2294404664187084 0.045976927843341286
0.37772255363614704 0.20921837876340987 0.07112515519807516
0.33621949515125493 0.22869336893379 0.03998418800247805
0.3682040780431919 0.18856812393232758 0.005204990003917942
0.38452349811711883 0.3155611335141373 0.103437305149086
0.5016187100362117 0.19518110225300234 0.07283370351180452
0.31878263738171597 0.258505628652955 -0.12951914416245813
0.40333761797899115 0.18119300946378303 -0.035450053091295786
0.4571607897801613 0.21980997015519677 0.03393180961202802
0.29387525266066916 0.20944801990498263 0.10387146771418543
0.5170761790231495 0.25480476326009693 0.10344510873962065
0.3426311592642435 0.1899109891747628 0.056375548995220015
0.22965199143968107 0.2805038063852976 0.18092099014964447
0.2796184189686244 0.2986344195804236 0.14414836883456417
0.45402714094191765 0.16379934245046002 0.09736216496102656
0.33296479734364937 0.15286046687305088 0.07351035253843463
0.44290811174909095 0.2598457586629621 0.036037759997711305
0.38715658659008056 0.2411842883578572 0.026074645153414622
0.41280910592320197 0.2230471699709966 0.0330038137235249
0.4503939251561775 0.2609449651979787 -0.04202524043185463
0.38857723915944575 0.24608019022389271 0.04579845847183606
0.3357991116820642 0.23915509341712493 0.06764218206133421
0.4495590554526814 0.18965950200066573 -0.0473031538785591
0.40788549798810436 0.21219232523793607 0.04432052820364163
0.370678367099174 0.21658540705746532 0.02286302057429168
0.38578943061412474 0.21620657213654226 0.04490766462465956
0.3653155796704084 0.1958743310136697 0.04510509398744489
0.8183698208122223 0.09190219555281942 0.1904327112814599
0.4503971246726337 0.2189398367599722 0.04839324444570536
0.3966695579077282 0.21203384613606602 0.040132708572173215
0.4936447257256589 0.24447920093524544 0.0322642296987965
0.5354339877062557 0.23298994196544243 0.056248550184747614
0.4270771733790184 0.22738433733805152 0.0629619073014851
0.38517730881747525 0.21386167841774295 0.031702670284957435
0.3637025972577703 0.24550790374044595 0.11817418518222667
0.43997162305404913 0.22136837052805447 0.02812196965334124
0.4082096415436638 0.20166081493033516 0.05971319530601704
0.4878678216449259 0.2907354500921713 0.09687883558194699
0.49596328484537366 0.2038662418347883 -0.11598821328641407
0.3279138992343178 0.23746199352228814 0.1336320359633305
0.48296190334070843 0.21777229406571053 -0.039079169649198775
0.39417856705688337 0.17785909073431583 0.05201759734221412
0.4456429527262884 0.1900008187430018 -0.06869766288535573
0.005774218152552635 -0.22620264389476574 -0.2845973421936492
0.3990334113512972 0.221900195527013 0.062151066901208196
0.436474329630542 0.2259201361277121 0.06511863009507124
0.3795269865762094 0.23504386566352764 0.06230003928951078
0.4838631905822979 0.18564774014447494 -0.059558616651102625
0.33496181843881345 0.2623090953306928 0.06460552695034494
0.32904391134725586 0.22476032434292392 -0.0034327913598843907
0.4017272650764028 0.24152642124516888 0.04413352630288614
0.4015671240116774 0.21813869888183035 0.02425987770882898
0.44258401161434335 0.28636198357961007 0.14437079067114666
0.4261876440341723 0.24383132821000686 0.05790104128043083
0.4285128633692068 0.23030859546422278 0.04101178965026975
0.35601371676966664 0.33782124650397805 0.1530697018697822
0.34954124522050734 0.24388027096149756 0.09115982998342531
0.2905099357343488 0.27429610245374647 0.1546851986005322
0.41346457276866033 0.21886181848023512 0.03887657591548077
0.34605081132987436 0.26352260898826785 0.06647121423121405
0.5218232420715481 0.17793252295223283 0.008766708069799733
0.3907290020678005 0.2501151540884621 0.01343418762532167
0.4480388836804252 0.2693783048099192 0.02671983403385525
0.43106067754226274 0.15617207458777216 0.04006377240423831
0.41778164970394016 0.24507862627365284 0.09974968163956532
0.3899686563995317 0.24131450950920907 0.07581695763167318
0.2700674522378961 0.0367512821130731 0.1328373110241614
0.5667201362118419 0.3432212708773079 -0.041584617618937614
0.3115569134872658 0.6547980120577677 0.24658466697590598
0.43523092947583564 0.1751797283717309 -0.018787418092770736
0.4264465047212269 0.2612423432260442 0.05021104331734705
0.3620805204662929 0.19184074936076456 0.007789219882937459
0.4103390004162861 0.21681138820258639 0.023055904021447304
0.4463687604376787 0.25419731224336317 -0.0007022373863492248
0.3557441101070822 0.20158911176795868 0.04379896454136656
0.37706070249281254 0.257161818054243 0.054221340254343886
0.39508624469247877 0.18802215447786352 0.008081061398243605
0.19756165276056947 0.31131051605868265 -0.05365359914847545
0.4046714053444873 0.2413075592415197 0.058229043995439156
0.4044186685389519 0.2131464008043622 0.04349270538025962
0.4624390483355256 0.18315784690003056 -0.032490870578101294
0.4217000178626762 0.1814280512882931 -0.006555695144328411
0.4714900196860725 0.23145223851152252 0.007305487295752755
0.46575414679911376 0.22136751702194601 0.09969740499369095
0.3636639990970565 0.20853052161027108 0.0157159842017478
0.36883761897553313 0.15661435133915802 0.02724883802463296
0.4143658457680033 0.19426622379941705 0.050688127126989
0.3621834005182052 0.23036773218831286 0.07972664440173105
0.3155496984292654 0.22123681841013365 0.0030076987786742393
0.4208925876829426 0.25755844493563984 0.023123030820158874
0.42653159544772734 0.25508547539867266 0.10529349197651072
0.3733519779718506 0.21464787145231412 0.043918841104144235
0.4607299553081816 0.21685508122880037 0.02557989423098661
0.36588154580547894 0.2672101475938433 0.10786147288092707
0.3666586484109189 0.1884461852184387 0.05458221583094769
0.2840127944598123 0.19374915163061246 0.010998142853679838
0.25685483137199583 0.2636453585213445 0.01725316874131977
0.3632657544732467 0.24971496851034658 0.1215463907840757
0.31860953634537736 0.14804451999187052 0.004518077230827089
0.4454955577610491 0.23406913972064558 0.05046107712178127
0.3913096580384945 0.22666775843060805 0.04605033309627515
0.39620361004338633 0.2279355396690903 0.04949943063719786
0.36147549717287575 0.29535909747414735 0.06387691102804638
0.4007153045109817 0.23178729756077132 0.053127669793497034
0.3936489664033047 0.2500179983935311 -0.0021997210640449794
0.4966412494935071 0.2860980383956786 0.061537221378614504
0.3958170861559722 0.2541099659535746 0.07755529679721462
0.3496606491911791 0.24547531590275184 0.08270595636676603
0.4946970075307746 0.22284391232325618 -0.0544285844801351
0.4402010988202676 0.19752513448298714 -0.019363067963979574
0.3722853875743226 0.276752605578622 0.10897460618430443
0.4059064426399459 0.24860747463581845 0.06790545961429473
0.3615568405262479 0.2813748128229179 0.16444305012328186
0.3936797404344361 0.3549289258299666 0.018873572930033333
0.4284428660619426 0.207887277399891 -0.005209157258036612
0.2844271177332729 0.21177108270195788 0.021064320137668346
0.2305840210731418 0.26461642646974326 -0.13751034644420201
0.40333329573500976 0.22588306626060728 0.025016664792019583
0.12783439333998103 0.3528021309170981 0.019403258032667736
0.27151032125649976 0.13736957407930106 0.0678899683680072
0.3212097539217069 0.19561887001441391 0.021491694781445858
0.39567201094203597 0.18923197556418359 0.006718881139079258
0.35848059621542916 0.23143745276911432 0.04851892578737704
0.3872704436737422 0.24651073556734104 0.10675395842746127
0.3719139064951804 0.2418156814999577 0.08649567422264681
0.37942574287205844 0.22352960499222263 0.019034653088098707
0.3823338728012402 0.19171676711960117 0.02438252935695573
0.457059117985267 0.23102071702579963 0.048049254597415825
0.30920732548003116 0.2034346470712336 0.0913149514440903
0.36370078675747664 0.20965839321127078 0.06076957881489875
0.4748414910089309 0.11952644403854151 0.0018771694585097976
0.38735969627720124 0.17421917999269 0.010277362592262307
0.2800273098705759 0.20621106157162217 0.0197789074618413
0.46421637431029694 0.22166766677264604 0.022397771550160428
0.34843013640120546 0.24862596204530973 0.07393653171683923
0.46033158403204766 0.2058882710986154 0.011165841343256488
0.3686443742183485 0.24511318693828343 0.13121646006780452
0.35434887243201274 0.2088082829690734 0.019728561532588174
0.37004154127984634 0.23353471132286074 0.08377118114304949
0.4332525576337787 0.1615326555641161 -0.04050486408338827
0.3192207395160267 0.2184173999933563 0.050012124324609886
0.39213132092726255 0.1933388666070357 0.0046474128111526625
0.34190572939814956 0.17736345791024632 0.012751832354510384
0.37027709825386523 0.2782477880423926 0.1275327290831001
0.1420914960080637 0.18439876340102046 0.03910505638926054
0.41510591406984076 0.18627836333267567 -0.052756166307744934
0.18510229497616137 0.3257257311975934 -0.016390688598136194
0.40909672331670777 0.20848379775463854 0.03885394486766813
0.39094974973701824 0.24104156265536858 0.06613227824387025
0.4073010048391268 0.19565826692416977 -0.005203146116031121
0.45562278166067927 0.3657283558926423 0.2380732303324038
0.40734083831752343 0.2634762046093897 0.07371057349769217
0.4155254393001542 0.20741087734499786 0.013237209717203768
0.03218911373272704 0.3530104078089522 0.042819061927531266
0.38916679888066597 0.227117616062273 0.08447831342687095
0.39070376913906557 0.165987964672496 -0.03901820699404368
0.3992293943184535 0.2157592483241899 0.024722973926884606
0.5382169107290906 0.13624696670012781 0.0016327334725190212
0.5194496172947538 0.1881546477666518 0.0011398167465870301
0.3938046301453255 0.22980343810453974 0.08758197740758078
0.3848559170751855 0.20276177831055975 0.014064471568062231
0.3484136630575847 0.28612724284936064 0.008221462369093047
0.6294947717740627 0.16608255141136397 -0.07821548471835627
0.43677783325625796 0.28022292022572515 0.03217571978225919
0.31557119052845906 0.28263176473356566 0.19770579998134963
0.3538612478008929 0.22483433575615663 0.05903734577469777
0.39464473864855165 0.21406782981283357 0.06116349346007155
0.44348343661820877 0.21656805733221063 0.028742617723324315
0.44000404283258376 0.20807031380040542 0.01260310850804558
0.4192215960665777 0.21236990862288962 0.026985434994273305
0.39958417450910133 0.20867887099875304 0.026187091327898315
0.24255157432382646 0.1626119541225819 0.029697458504401197
0.47615041468239383 0.24620540030932148 0.07280060191226312
0.37814394297718934 0.249415209147827 0.11979240451228179
0.4670414566477774 0.27414109665056685 0.1540507227034169
0.41942485892542436 0.25139157782592747 0.04678977223292691
0.37734886762845576 0.2344131340389879 0.06602409085223826
0.35948588233418377 0.21469947763552 -0.030305589488932583
0.42141287574702346 0.2082622519006634 0.04693026074687623
0.4440059818245743 0.2178366706682624 -0.002040930774242611
0.39779025551519 0.22718738125126947 0.042647239522750624
0.4363643421605303 0.305633701109187 0.11682635243630557
0.5064984586860817 0.20793864224341974 0.07968836786594125
0.39266762018903023 0.19714378299178748 0.01122704758373061
0.2607781633670072 0.26197909420952215 -0.0314552189252737
0.47624186091439924 0.24663050026988742 -0.0024016581008226012
0.3545425855797646 0.1661589278108977 -0.013176309900018168
0.44051348863534656 0.19882301709083094 -0.007916424655917353
0.45282337307615705 0.23213320490462763 0.03941498180927283
0.3555821458666202 0.19405664406249912 0.044597669392388184
0.3415542406154941 0.2108239336992881 0.019360570805261546
0.18721285306274638 0.16721026549818419 0.21272224207339718
0.35395605190592505 0.2215466938267383 0.06763568695893696
0.3923916581990312 0.2667950256281415 0.07747219418808982
0.38545612695115494 0.2290862906541804 0.05145998637772209
0.4133938204853109 0.1530241100832228 0.00119999745726318
0.3522005413506406 0.24656834341527656 0.06978161083483769
0.4137800072887785 0.2567099833540283 0.014807249958764146
0.2619339924033568 0.30982946139408796 0.12728579863343725
0.37157641618861703 0.22734684070320554 0.06213406138979849
0.38727082929128187 0.23754128905923722 0.05435740674724343
0.48286048788847324 0.2897528976101853 0.06507286973253201
0.3044349023238624 0.24218639519975227 0.08951405612052099
0.45958307908520624 0.2133978867396138 -0.1069224590883806
0.49641318594919426 0.21456265837863953 0.09117775939738237
1.5953974706558682 0.3430236446890973 0.8634236669257689
0.39271751495036256 0.22445167679255462 0.05964522454746657
0.40307657001788755 0.19528951817021323 0.019418423783463368
0.5241341284848033 0.21142816915028106 0.12089748032977354
0.42087816059614624 0.17566432135487275 -0.03438294739143544
0.3622961225532606 0.20243597275953107 0.010623177757807412
0.5089843145454154 0.29586520425058893 -0.05801571723132781
0.4132998267831738 0.18699612679532152 0.0038985796642663217
0.3674587317863143 0.1870152163755563 0.006003686378036832
0.18599099662897345 0.17436336530769836 0.03612767890680857
0.19015714234319603 0.09693074190218454 0.06175371442765254
0.416083618450827 0.2151616531953664 0.021840337128594456
0.4274851444716177 -0.011987746484749096 0.0681759362543346
0.45576030709369775 0.26573169154933396 0.0037196833364276927
0.44284835625126107 0.23615355104493574 0.003148636249562742
0.6681052745901184 0.06744692714437406 0.029034428687523928
0.4135479291468869 0.21065269052826352 -0.05085662095500254
0.49877863910114684 0.26882747023000775 0.0797842324681568
0.3985821477427578 0.2326420068253583 0.019679650407908866
0.3832060080248425 0.26195043913995164 0.06676811771845337
0.3108712309610837 0.17394090447257327 0.02364508751725225
0.3564835347022637 0.23327310701589 0.07357062891600208
0.28903544314900387 0.21697370364935864 0.051936978691372815
0.34624544978697713 0.24086051636388106 0.04850821176712827
0.29769970313913063 0.2894571555189316 0.10696711825109162
0.4063794204268447 0.21959166556740684 0.01244220422499609
0.47669342983940055 0.18989773914728403 0.13355506344120727
0.3868093124058589 0.15374206966733084 -0.03243137209298652
0.47402986665585445 0.26048665267873616 0.0009025051064099898
0.3924453079106911 0.21360444232588804 0.014315818004419611
0.2730974695805912 0.2366946398128249 0.11723880729090297
0.3672500982942495 0.21670094764147052 0.011199123994757088
-0.1298759681186823 0.05829513924997798 -0.23838327481236377
0.44075517522992413 0.2310664997494456 0.046008549070307936
0.44166343291144017 0.17797634738738566 0.006554352807683017
0.5312654589357919 0.339998008130749 0.02699821601008523
0.3938452488811208 0.23583418384299648 0.028453974982369346
0.21502530270547027 0.2527745482729671 0.11811854061215854
0.4243440081738754 0.25505635886544553 0.21801241273354321
0.3843778578257968 0.21051799011792127 0.015080393039824003
0.4214962037835761 0.2604996019402108 0.06956778279548814
0.031156858538025745 0.02938315781518952 -0.358701967565338
0.3172476113566347 0.21551321763578812 0.08749152561111373
0.4620579138607468 0.2217569104463024 0.04253651392292568
0.4060945228716406 0.22630346693890147 0.024321908997450237
0.4639503674497121 0.13127000210334927 -0.01617529721127653
0.4220461411973133 0.22316587650601605 0.02252657032485672
0.40740408721532617 0.20214451288063628 0.02580171309631396
0.3893120821002185 0.2369466059804637 0.061188485822569305
0.393588969366661 0.24414579635056555 0.05107563168894558
0.3365134495734736 0.20627536685537962 0.0445939756780831
0.42051432233537867 0.23562170584813202 0.08985992790104547
0.34641152892604055 0.26521421747926865 0.12347806353284341
0.3810741931247321 0.18423768455258482 0.03004155612137538
0.42905039141274415 0.15573092315439396 -0.07537416911156924
0.47357934621544473 0.219136319162601 0.025587776037440335
0.2607560168106886 0.23715478188036343 0.040128796079713425
0.4117240898544594 0.14437914806133278 -0.015533966880042271
0.29938898701215066 0.18074438498368295 -0.02496391386982566
0.38780514366612806 0.23347012464085992 0.05786987827993073
0.2644634474131067 0.18636901453214705 0.11691519756485036
0.3556650432183943 0.25766865935096916 0.007928310839503183
0.34334217857698945 0.2139958449601238 0.07586997823071329
0.526403053918358 0.33052981084618693 0.02101126997322922
0.43993633734216075 0.2055893693136568 -0.03775378602750834
0.5523476603828215 0.1392086029496653 -0.11249348330956366
0.3519267385467941 0.24579304401362378 0.08668992356491856
0.7431324902609617 0.1377882805024626 0.11448867270279095
-0.0047527840634131735 0.31243899935985553 -0.0010927057763012726
0.4228632522801661 0.23908245914392978 0.030996306094010606
0.30179719213882095 0.20364782595628128 0.07986177205819445
0.309943999656781 0.24656843681307805 0.1280852463280553
0.3770643890345582 0.21305982339356433 0.019284968418631365
0.42607967457266227 0.20727332242316265 0.015335789216067042
0.5880264388963639 0.16285238725062356 -0.04262023457968667
0.36658215135447847 0.23349880133129375 0.09023538571608469
0.396491826587166 0.22636582131443106 0.04277099822596142
0.43836271853669473 0.23442825796902866 0.020592686830667617
0.38582904728541223 0.21069639209211743 0.06482206955533343
0.3752519675522876 0.2337824106688089 0.04964000639260746
0.46487448246361396 0.18392014339895013 -0.09081612308690978
0.5213614517194856 0.25558143280443346 0.02121248224270289
0.4306574204070017 0.1959540007067062 -0.0026009805568349975
0.41736618842560347 0.21396554266536327 0.04058572430712104
-0.010424874330340117 0.13368786812148414 -0.39033106606096624
0.3775153313071513 0.24321635129219032 0.12760578485924157
0.37250953247141183 0.2646605851674906 0.10281657498366314
0.3669257809281987 0.15651999151887708 -0.07273772439168624
0.41220284405713414 0.2291715582176863 -0.013188193827119221
0.5591514860348354 0.34768494587868304 0.4795420356911819
0.3489080233559889 0.20961211593268558 0.043729385919931474
0.2958361536966265 0.25502194558389135 0.10563799175672273
0.47152391618148215 0.1905352933146247 -0.05061675406841459
0.46087805701372986 0.21558417660079954 0.12547906860258706
0.4042520189341161 0.22882544599934818 0.012287637738552348
0.3591928382573144 0.20897285671134114 0.0194697747719772
0.5239224985694335 0.23987647893017083 0.008175352464917296
0.5059935180265285 0.20691450654754817 -0.00834833253367151
0.494580045509764 0.1798602931042126 -0.07590249461253507
0.3214441061012394 0.22067688853961442 0.02318411234011819
0.3281325890806954 0.15359170785184517 -0.046574404672441005
0.37254209509063685 0.21482213634084246 0.027376488024401624
0.2704238807496324 0.25720479019912545 0.07457388339946647
0.3660643427073609 0.21186931187284586 0.012500228755186527
-0.08331508013020539 -0.2737776616273777 -0.17486439840243406
0.4146241730894076 0.22019826573462353 0.01259303874948614
0.3814048336745941 0.28030519525427167 0.056508463975376344
0.3960854928235449 0.24298169030871009 0.058602644886804
0.3699038650991042 0.2077833959976516 0.034837685341955194
0.4196970668529616 0.20901251269515342 0.017358294406108143
0.49929288818209727 0.195534939268299 -0.027182014262194798
0.30738109770072697 0.22396412784240738 0.05643688930939561
0.37365666404865294 0.2273359238884609 -0.0011516611630213447
0.3805758623630311 0.24542075442293765 0.07669431488974965
0.5179439816959643 0.22923232160766815 -0.09018169759059447
0.13872885771462506 0.19384894378595163 0.49625847833974035
0.3357200322676448 0.23183033887877968 0.026474257225672204
0.4455078673606465 0.4016385727527023 0.04875181591751243
0.30071355479790896 0.20587491128161162 -0.018594020108992027
0.358582017125201 0.24034301262554436 0.05679910237748231
0.41733207680638884 0.2342774445775433 0.09661865325705321
0.12712703555855853 0.32749552404433757 -0.04236200878497698
0.23025500412433075 0.2025374756084375 -0.0015307273801568044
0.36993371681860765 0.22499818796603677 0.038887065354415995
0.4267130696381116 0.23632462947196586 0.034980785967064776
0.4042556729597493 0.2229580467336234 0.05399517043613855
0.43922961223765355 0.1496549275329926 0.10122498068059826
0.35777398903712765 0.20792012541141958 -0.021902985016552634
0.3695102271573347 0.22184965046545813 0.056856583212976375
0.4609581616043812 0.256710282235872 0.06402055983195964
0.46960381368216986 0.2657351584813341 0.050149231334273736
0.3587721507002186 0.22081431945198915 0.05378945363383991
0.47041413328749115 0.23057365392145357 -0.019769567487017525
0.3527512487907103 0.17264962448534504 0.012199247072715025
0.5175585723644076 0.15813465558125017 -0.022721730839720067
0.42231679466871697 0.2071262917935286 -0.0003805328711905531
0.37141067304567343 0.20301753408570278 0.04200740163548744
0.5210727341738419 0.24000433084570716 -0.05101723130587743
0.3532663665579747 0.17180854777066656 0.018283146275578588
0.41972771850163326 0.1723437985705516 0.023042713741915577
0.3902911544953014 0.17932203391478652 0.03327395047087123
0.3565900680555245 0.2864441777121556 0.21597369347573192
0.516761560153256 0.2008267852344261 -0.009274335349914509
0.4826472698048576 0.23490343571128847 0.0378964331560212
0.33558701057522455 0.19048664432520468 0.04638703563050228
0.3760933071692989 0.2073955618450185 0.10262192222616306
0.4041484438505307 0.20209926961435087 0.11789647492453526
0.39502475410321836 0.26623208870663007 0.12608865426436466
0.3332627785824229 0.19560467158208894 0.020360587876155023
0.44423342975846936 0.1898093665360392 -0.02839439530438881
0.2988041616311534 0.2225020684198853 0.04869920044559706
0.5458325337576326 0.20449038327012659 0.03418747097211394
0.3538023560003012 0.17395957520150773 -0.0026121358367277026
0.3844643628296751 0.21109415361432582 0.02743762275106576
0.6688913648387569 -0.44061102692953114 -0.11526264387453011
0.3830135280155105 0.21059592284676398 0.004035372335479792
0.4096957744883696 0.2077558658316434 0.01748051936107231
0.4061706745648479 0.23235542500211182 0.069973175901211
0.37984003100930863 0.24952563836026798 0.10961994287777088
0.4019447103565028 0.25520133056151906 0.1329563163923524
0.4488995596907728 0.2539534686909519 0.047730047849896096
0.44113629422236045 0.2314521477389917 0.044977263563936276
0.29492338123651507 0.20979998371379338 0.11897076936155315
0.38608505540193505 0.21892956251056717 0.046218912544588875
0.34000890744879086 0.15039959769788425 -0.029396061795011974
0.39071840436548655 0.23255971774982243 0.03194930530915485
0.3011114602194027 0.18492143344127498 0.14407195593153688
0.3069180137342613 0.25141112863062176 0.10034333549359076
0.34961755568161834 0.23852125029489457 0.10011582731250712
0.43432799642425834 0.2810110876640408 0.04038126102221895
0.3954076558828916 0.054677602619918275 -0.08322554348848143
0.2980873366071819 0.21223185394399025 0.06067988969132898
0.411667385704618 0.20715051622374858 0.01300829491177069
0.38509992514295277 0.12340685087892211 0.06953368928699888
0.3904089488442253 0.23189335735796135 0.011482388613018202
0.021957576556644653 0.47465906824930926 0.2837284124636028
0.3359511045736099 0.20003148727600717 0.03783508115137124
0.4038328941094562 0.17761958145712242 -0.059434559786907926
0.4586106954795781 0.19435930848604244 -0.04494757692464191
0.3265740079147008 0.27972782657735706 0.17290803001455401
0.29891143086662453 0.251338320722823 0.07579244936985674
0.3863591651573586 0.21109023916673664 0.0015442358814681256
0.344312982202581 0.19222489985051538 0.0334716699451576
0.4084340385431915 0.20324951573647354 0.027755975400594934
0.26345353370822977 0.2725975418048989 0.07596173846795296
0.3893935521086007 0.21365533781502677 0.042610055982549966
0.3254764953497187 0.21008386550528257 0.13887448460678797
0.4149637460396036 0.22641505819510144 0.02808715994308386
0.4439850288057414 0.21459383775385277 -0.04972493875388295
0.34932629222387845 0.21440295078477334 0.015299966736662896
0.4183520110591701 0.13746640406344568 -0.04496775072951209
0.3726616299434369 0.22443512451422976 0.016105918923400964
0.4533146767427638 0.23305332202733098 0.07096444104189459
0.3598690637885369 0.22282229586838298 0.08411373322908844
0.25131068670765444 0.2556672128209243 0.01859561179026059
0.2951775748734633 0.18635078820756235 0.01574195041834514
0.4105910153152479 0.1885987786778287 0.08120313409757784
0.4418656464147972 0.25467455582713683 0.010585854220664714
0.21352398294401098 0.2166050579645571 0.09863262606845069
0.3984833591017747 0.21138480658595427 -0.0035189554054824157
0.31857884537950554 0.27396718136392906 0.06242082694544138
0.3906933097473768 0.2777351395214822 0.08474815727808505
0.516926413550479 0.3295290040703094 0.16366781265284658
0.3604704858752825 0.217066220152077 0.026652939864675318
0.4189927295540201 0.18618727459029571 -0.022279687295792883
0.5421845448501301 0.213245258372865 0.06567152952351307
0.16816903404465222 0.2680676819351788 0.16490768022163138
0.10086657646331787 0.17193473948353244 -0.014384388239122359
0.37943158140114974 0.3443305478874379 -0.019431184090421993
0.4267033605283359 0.23369170540300388 0.018594379639210956
0.3200634413993697 0.19642884749882228 0.0051378512582545
0.4320801613721983 0.21318682406078437 0.033293511861046454
0.3746312521507207 0.18942392825897514 0.08747956225357711
0.3436318698764751 0.2180676804182866 0.04659445285787456
0.4635181630220728 0.2015057671823257 -0.021365062617803687
0.3494439922442041 0.22665717472266067 0.049158260721725355
0.275525851086897 0.18409640935892924 0.013915047882875342
0.36540493103908034 0.22399463239761985 0.028542469213249433
0.4132435153069025 0.23197970240774168 0.02151701799300554
0.7713661868779127 0.25694940423076673 0.13711653148570235
0.3949228003361043 0.2233865166597866 0.050073750045186216
0.4580775500303673 0.23005963410930974 -0.01510532042347279
0.3795102163328039 0.2125750697693718 0.03979318514056729
0.34025680263870584 0.20602926907631058 0.010009152681973887
0.3425449692426241 0.18314278936927053 -0.06786324450563086
0.4075345003248003 0.21586457016601912 0.03311666155549631
0.3399797086524927 0.22846591258982585 0.06117741504475305
0.37363366287075905 0.2007536102401275 0.07568417843344832
0.37805743763033206 0.18855685200135497 0.04052623886249762
0.3521583461963189 0.2174913128452829 0.0530877467969475
0.3309667512201315 0.26945826738506184 0.12880305123353253
0.24135124408770992 0.19103402977262363 -0.01628621728758617
0.44949270108025985 0.23127862328499305 0.007032441617866425
0.4175557183549756 0.18372620353318325 -0.0527461884690581
0.3947150587442394 0.20816845070643808 0.003342903114301521
0.4035495938310021 0.22590207773490079 3.9233643434499754e-05
0.4243023277192606 0.18180688542264534 -0.006728873306258265
0.49249699874403063 0.2537875881329228 -0.023348235974481213
0.31540551482591184 0.25447183264648743 0.11270289608103212
0.3239846881717625 0.21414120780029577 0.04479051061352379
0.3890809861769071 0.2293258112601393 -0.0164316983105266
0.5063695658381135 0.19704818948520142 0.13860096170694192
0.3941168754172111 0.189386028043657 0.006863588466217152
0.3282201929807229 0.18703212771029598 0.040284131152731106
0.42622018163955033 0.22632411437056987 -0.013521340590926911
0.4708319242983805 0.27592347237666104 0.10223844562064244
0.3524913326292278 0.2745839883553174 0.12537420839217361
0.4062545449121444 0.20642234178302488 0.005859227066622452
0.10170564974461627 0.26905651061480285 -0.25035996784410486
0.3823961917527754 0.22306729415370796 0.037044695275511685
0.38094428060276186 0.2184898042680885 0.020539655704780557
0.39346877914701395 0.20634185681112172 0.04414251946928971
0.4851759959625923 0.23379276230872392 0.006736286078677267
1.005868086013237 -0.0307359802718139 0.1278377726344786
-0.6299545363903007 0.5490544247949458 0.6601264625976455
0.44651179158691434 0.23197381444254006 0.0724316736209687
0.40063292261579875 0.2301511585075673 0.030054329750953457
0.39781498520920877 0.20244335189133267 0.05628400041851478
0.07681291882539654 0.2821811912820067 -0.02778196067546901
0.33317196089716106 0.2793480941208628 0.1292228846732968
0.41210111286088136 0.23546794179270591 0.034258737394367245
0.4116916859681794 0.28216128074441826 0.019665403573981166
0.4182361021491374 0.1712148717600428 -0.07070988943081602
0.47323433288403294 0.2615109462151537 0.03597892379326595
0.4993385689373895 0.18638661134698964 0.06656483910046518
0.45774830822639956 0.20264004671329872 -0.04386096264005346
0.41225566810933856 0.12336323583210174 -0.048150533958121855
0.4773926749502948 0.22765401751712488 -0.016102762313920493
0.46743658932402354 0.17731684770076583 -0.02246189526628939
0.4105886730702366 0.24143663802985316 0.06036831342100868
0.3766771606509849 0.26491644125511016 0.022060216759143714
0.4213352586315722 0.21791934158105164 0.03917516345752858
0.423307864218458 0.2488559109844175 0.08153210832250579
0.5406433415507479 0.2657909289699205 0.07095400908730198
0.4426472292876156 0.2420351257184734 0.056174990571250305
0.3427121474512944 0.19415151820433607 0.0725158207708887
0.4181610527832049 0.16841372181775682 -0.03898851928710201
0.3540503697729207 0.2247038358583211 0.07052052785067531
0.4139892763644326 0.25001239063271896 0.00033604680241694496
0.39809154550819414 0.22540139264052073 0.09688682567482942
0.6073574647703452 0.17628277303211348 -0.05995651061920171
0.3332005876579984 0.23074195695542699 0.07680347519627162
0.46397637461038244 0.2128696225714748 -0.03231299822408573
0.4543692427745043 0.24930214408749407 -0.01579547470231546
0.36272332727503453 0.2231898731322417 0.05585172474687283
0.4209473547041114 0.22586332921662233 0.03513018513373822
0.3900895419639596 0.22060625653790567 0.08390245750211989
0.3066822524077679 0.1950823865874156 0.035048177720995
0.3634580897141575 0.2459124751156736 0.026710286482312995
0.43143752017877546 0.2316878252390211 0.011861702055966816
0.5414783048462652 0.26291810113855263 0.12543149072497783
0.5083333412707418 0.13757869361677422 -0.09448044249455734
0.3233577119239044 0.24784499848654207 -0.13468063162542876
0.48920004315510823 0.18829979707649613 -0.022599682726294645
0.2774487651969082 0.22072542343883583 0.12114495303072204
0.4205519855287747 0.22574277436538637 0.07697318172915857
0.36718761161498037 0.24311010392673893 0.014516916688876336
0.36738504777056846 0.20992347366924946 0.00279891303934221
0.5192372070407316 0.31536371096657945 0.028159280749903814
0.41028174904700165 0.21752083912812736 0.003592491651858154
0.4062391488479875 0.23428478779527495 0.022058520661687453
0.32996937827807926 0.11704289442268134 -0.06770535272070788
0.5029689441368816 0.17099920311014216 -0.061272109408832875
0.3005624720297533 0.27735607189525524 0.155079877999313
0.38801184022212 0.22725156352683484 0.15533832180807394
0.2557027121911801 0.10853141147954659 0.1134236387642602
0.43556408470092833 0.17564628980042585 0.01872894176801765
0.4432443465087914 0.20606745784834857 -0.01092191706675294
0.39705492803466313 0.2041901864862723 0.06900219904424887
0.37313533022359024 0.22171614949121476 0.027722996892208585
1.1447391141311414 -0.4282204503318212 -0.20291891268993822
0.49388144030997694 0.17972191480178878 -0.0048086360539656425
0.38395479179851577 0.18795496936309064 -0.021098482981699362
0.4667048489143042 0.17362720231304252 -0.0613010775096825
0.4610488652876654 0.19164356582831488 -0.005205309450246887
0.40116743298791846 0.22319382107143326 0.03618000827803769
0.3354232895754876 0.2270714722315006 0.04362468540456632
0.37828804919024606 0.22754988106697738 0.060004711220614126
0.4800703379177662 0.2853796697457227 -0.0616714752227665
0.37790018272099246 0.2289315072275997 0.09277022200726037
0.4168955339876135 0.20287257305898265 0.021435206975894516
0.45819974973315425 0.16039044240551448 -0.016744690519345795
1.1900285035720088 -0.08551188021893097 -0.03781417186931435
0.4295225617536005 0.21265918828888175 -0.0270024112792413
0.3954045645056965 0.2331248424821979 0.016881915382356283
0.4030169489137876 0.2090081450858463 0.023305781343765375
0.35922510827964516 0.22883249001182548 0.04811989505971326
0.3246696191787777 0.2539921661903861 0.04750215816309833
0.29913237809114435 0.23557806719499297 0.09432297393155409
0.42137160636858084 0.22644883098919877 0.01665416593117186
0.4126112544691125 0.22953200332443657 0.033363117939956055
0.3453073091983043 0.2645077403024345 0.0662672326031668
0.506420042024871 0.17722262525657584 0.03135178151148921
0.4840028376866883 0.21705637082678209 -0.03803850105282436
0.48722544707084126 0.2591465974653886 0.04350132083945368
0.42836255958422953 0.21036335590353872 0.028681309142740474
0.2725889086183315 0.16952401785582083 -0.0734478002453045
0.3013018340030129 0.17728390176225162 -0.018641482600187942
0.3992490927001029 0.22799945773584795 0.009419488482308225
0.44745199309028294 0.16235903271298469 -0.04039427745044577
0.42130060572847583 0.228826543611774 0.022342554917415214
5.3624041998882035 -3.733769249943734 4.783328772657114
0.3028195810581167 0.20001124988084484 0.05359539172194161
0.38584112827761885 0.2374475703674932 0.2321781899060511
0.48455802284576066 0.23118050881825525 0.029704231853571628
0.37252486026501686 0.23880109518357528 0.04908125667321883
0.3241043512516484 0.262176948822912 0.12038720221427468
0.5177945822226491 0.22452159393870375 0.043932436504277916
0.4092175705701777 0.20357248902132596 0.11291668250072462
0.4889590814023137 0.21731554006406384 0.004996611584616062
0.5058848795101483 0.19005283895654657 -0.08068345539797406
0.3878623505697476 0.19851924947167277 0.038604674929842986
0.4416445607987498 0.19874451237532753 -0.015640901324005085
0.4359055050522045 0.2243485467257358 0.023112407844052996
0.3992876227517286 0.22373537929775011 0.05155790122393
0.3763624074540388 0.24414702290528112 0.03502051387033589
0.32460663955316704 0.11903106025350496 -0.02166622483646563
0.49459967515224434 0.2755678886148587 -0.0012474366479295895
0.3062035701372423 0.20705219673247655 0.04789080176703919
0.3505824422063455 0.28513169154365414 0.09312550432670719
0.36765148109785173 0.2218841842583288 0.05354809396445148
0.4562159298016297 0.1600418853552128 0.038018720910230286
0.4281543199572724 0.2290380871136648 -0.09686546443276711
0.3335100792122603 0.3470011100691295 0.005470094985724927
0.40794940474432906 0.21894500600825495 0.07082769202460781
0.42084977468437046 0.2832122961011976 -0.03089510257410666
0.20355264483589508 0.17687640569295127 0.03802517196362487
0.4590944783183204 0.23097489068304355 0.019165207330303247
