# .PCD v0.7 - Point Cloud Data file format
VERSION .7
FIELDS x y z
SIZE 4 4 4 
TYPE F F F 
COUNT 1 1 1 
WIDTH 803
HEIGHT 1 
VIEWPOINT 0 0 0 1 0 0 0 
POINTS 803
DATA ascii 
0.6834019704475907 0.26530597749400897 -0.04807969840520343
0.3756991832521095 0.25231239797147964 0.15573618246577325
0.09346093931111454 -0.24664625689918296 -0.3909958659256745
0.43840624120747407 0.2081463303914859 -0.03900733550347013
0.38177295206250506 0.2379004570693155 0.03920918386023686
0.33262124309614194 0.22166758313558432 0.04289803330493669
0.39217947992742097 0.20782091676818482 0.01769627408449992
0.486923973914827 0.2765040627386952 0.03843664953186021
0.41314296955670216 0.2237298541926691 0.02623180232512823
0.3952160378871383 0.1942497361380049 -0.026110478936601567
0.3417262162149939 0.13557181735987456 -0.037607356218288146
0.478286980777483 0.0747997208855935 0.004854849446928711
0.1499292828664096 0.22298120356595064 0.0691138171393817
0.3829285920361656 0.23609420269227144 0.07947391660059111
0.3640888820232533 0.24302944997948828 0.06219372065490347
0.38197766080114093 0.2538405778711308 0.11337600140521431
0.3693460441884895 0.2429036394600672 0.07786689772453315
0.35992049993724606 0.2222925010532748 0.062499739956692224
0.4020153486729612 0.20574487283478504 -0.025838537610809453
0.5213167588406122 0.2680166597656637 -0.004318271790083372
0.45020325895086444 0.21244045553851265 0.05909169431440375
0.33371528654370763 0.176280735746829 0.025577163886097765
0.4213301908521885 0.19925575329637013 0.029097312804310604
0.35171254382487405 0.23189497792373004 0.029851481228178045
0.4052379672513382 0.211942298887152 0.014533607401759241
0.4810341384638832 0.1803440578209745 -0.012672196550582271
0.3882218527625412 0.21831660296558653 0.049046081852594625
0.3874182315150847 0.2171092835775994 0.06655224600419274
0.4216136196204303 0.24816087769892192 0.10209575575117924
0.3855511915232199 0.25836661129059735 0.04646170146888551
0.43688426374032474 0.22993482852410807 0.04644892744443041
0.37982723117977457 0.2246687756992145 -0.15098392787734838
0.40988374801263205 0.20294268381189795 -0.008172625796660782
0.27009285161102525 0.21402120138506575 0.07069380236941925
0.36792652177375373 0.16830580175940213 -0.012676724575541698
0.4761332539686407 0.1975805448689556 -0.02752836289241145
0.47269102982605204 0.2282155991080117 0.05519223987577959
0.406602668184064 0.25669798644184993 0.031481803712665624
0.4103820207509443 0.1805244802598338 0.0015105524066285625
0.4009734678639916 0.22901559430636098 0.021499095511572364
0.29473750299121093 0.3177231271980787 0.06799098265028647
0.3881792949773626 0.21755420653006752 0.011004418852124331
0.507821946511811 0.19857817792812682 0.023297511354826383
0.35436870258061504 0.22750348837436718 0.04352193429853912
0.4295379240718944 0.2039526989611602 0.0232034826415628
0.4277688302206286 0.2137029639313539 0.025767900477916328
0.4469005390627956 0.21184827312171706 -0.002136721599072189
0.409767428379439 0.23685070843771427 0.058221107577395514
0.4537927717087342 0.250571295809209 0.053211643172232925
0.3816607115823274 0.2522279631495792 0.1185001874633258
0.415614960272336 0.2048173082273479 -0.008422358272198949
0.3322564085032127 0.2417429403984812 0.029273215131922825
0.3318557726372262 0.18314086038074606 0.003981835850680682
0.3999494255025695 0.20021226349551569 -0.011954908956795407
0.39155087008029454 0.23068275723426268 8.532224313739789e-06
0.3675250867067632 0.2250639952960256 0.0550769987609101
0.2474072685505604 0.17444293932985033 0.008905520858974114
0.3769695295215172 0.21309107293427587 0.04662059570034671
0.4066674984952954 0.21654516034590188 -0.032343414547213456
0.358476719328479 0.19519957050832204 -0.025660676702003116
0.3673634700682271 0.21685830393383299 0.025727907154760032
0.31058059872759713 0.19668177444378898 0.03170748444608762
0.37305485303370745 0.21049666647715526 0.038392805333756996
0.44023645704763226 0.22118846670039716 0.014971272836845628
0.35696195425290966 0.1968046901205014 -0.033960528572634985
0.42662628740717423 0.2533716059364224 0.08100954517826153
0.399455500819883 0.2301527718026648 0.03366360028215354
0.4191966622533272 0.2277229540864596 0.0076240062517740625
0.4807776769293213 0.22809205149692957 0.019019921315134525
0.4580059338943414 0.22912204460845942 0.03466673651359997
0.433274361668083 0.2434507778326065 0.06031188910802143
0.3725243541605039 0.23107515025856173 0.0828517228183614
0.4308302104297326 0.2165302833834204 0.053068006385629474
0.4018025050044969 0.19088272842465415 -0.01310858990753161
0.35383792973664185 0.1118131656777166 0.27353018217814906
0.5565792780667493 0.2365096598900891 -0.0019377831937958945
0.4045573227939485 0.2088543292389886 -0.014760231062552975
0.4050373953551798 0.18955596587093737 -0.0006423716384631462
0.1035957946780286 0.14754476209964196 0.1974837047063147
0.5027598870850056 0.21617009595887282 0.017561910850389495
0.3778619228708777 0.2282141875632533 0.04492206513245378
0.4051584615141621 0.21797239639462873 0.026294709456578857
0.4727360595420862 0.22393164774676677 -0.008911333576492098
0.42822063340065597 0.23019762911090424 0.03186048895929616
0.44119739599031504 0.2205887875205974 -0.03872803053607754
0.37683984903583223 0.1917949638667693 -0.08630621661001214
0.4065848206882663 0.14261495089522214 -0.0022164565361038058
0.4579861579196489 0.2016743873943483 0.27820463494117575
0.42198819157697187 0.25782509684765387 0.08331566700931603
0.282323052311483 0.23326090569061364 0.056943191268729265
0.39517954593043214 0.18502773940417683 0.06559349403167403
-0.14239137298608284 0.16689276736317993 0.02321048782818025
0.37053273298977274 0.26381428806402596 0.13649072234768767
0.35036587347566694 0.20081826334629227 4.615333523361187e-06
0.33682434987382237 0.33028634843270765 0.09125314127352624
0.38936425309532297 0.2853418073232632 0.07997596488215208
0.41619436858277936 0.2114381539813479 0.01528709410260376
0.40844941344910524 0.23808096367066867 0.02309922779198814
0.35178421140554406 0.15226507257742128 0.04553433192127443
0.3923643152454588 0.2765564949469024 0.07908475174700413
0.3566274771111182 0.24627975056867513 0.062341094607546665
0.403469172370734 0.34260292587026697 0.18741649254204162
0.3810967145432187 0.24002405856751352 0.06877922633239564
0.6207543513002065 0.5213446716649344 0.4219950658235234
0.40325635655716496 0.23626596112819698 0.03567444002615616
0.3613978481280071 0.23433404168864058 0.07125925632166741
0.3938907927538935 0.24212925010905906 -0.005103381049451627
0.3976035406709002 0.1946411645986359 0.012772254480580614
0.36945207122198553 0.2951107576064089 0.14674666362402888
0.39123589967749695 0.2068611285088764 -0.016009431657209916
-0.08805270438628554 0.40535138675750204 -0.3543443894809286
0.448801921025364 0.2195499014741671 0.04487505052090057
0.3940939546252764 0.24010373985383637 0.039755669258752846
0.520272503677802 0.14553201892135803 0.013421193014750088
0.39156207236001705 0.23260671374660546 0.043227740583233754
0.4202972172470254 0.22087457830591006 0.020593895790909755
0.4989142343467421 0.2898848667954894 -0.03234577091866697
0.39439380960831727 0.21988786540745764 0.030282970035244716
0.4554344017257108 0.18883688523914088 -0.0423906527410054
0.38733026258412906 0.17959590811209125 0.03533383770766818
0.413255065770187 0.2428299657553339 0.04195905361073926
0.39049392720929177 0.27127699010681283 0.1087738993016103
0.4241202834528792 0.2806963704456251 0.12939837604241688
0.3768071478497035 0.22878475484219507 0.0269931276359614
0.39108394098880694 0.23913507791890254 0.02520388532519746
0.49927257435004435 0.2930417867590762 0.03373011863899933
0.4083871577040554 0.21953094493413516 0.04804373458068767
0.34920350163633884 0.2108756711049864 0.017614268805090205
0.3740872573008289 0.24855671196060314 2.9893712238049375e-05
0.38810913708491057 0.44181737050197967 0.07016648471685016
0.34043619811694725 0.19900527229009413 0.04475428698538053
0.3210612230832055 0.19511699053606435 0.05585230023115173
0.41853794819658674 0.20469379066318538 0.02404970617804736
0.466427816344293 0.24625220419170546 0.036436796992106224
0.42909042353836924 0.22511639520998017 0.04930776270543902
0.4299654845494274 0.25296114082658505 0.05855728486818634
0.39455038350843097 0.22971903033615604 0.05424618823226979
0.4282370416493677 0.1707882629382027 0.11817723658691648
0.3046808094838127 0.22020964715402158 0.09012912721948396
0.39959493742614427 0.21760747086572962 -0.023515817397296246
0.3974713113744599 0.21935280148507275 -0.018762899357426477
0.48345686947780564 0.22363216808113862 0.012457131697615864
0.4602477161024865 0.24609059582286363 -0.0035525582551940715
0.3874297667481983 0.30459739974412514 0.03313187415344032
0.2690111671996078 0.2522023719904354 0.12493917382357722
0.3116276645484106 0.20353490489583237 0.015087267107759317
0.42574871082696575 0.28768081300273707 0.09218024798244073
0.2321249439392261 0.19430829447168207 0.14349980639109106
0.34519510892064886 0.22743527086798565 0.048768820082315756
0.42856273240974474 0.22877417983062287 0.020599156107010685
0.34396578131057254 0.05315836457748446 -0.05648664108460366
0.4307745338333149 0.20097866353620475 0.07966787956927135
0.2534961112018266 0.10851002256977438 0.10435689185902675
0.2082354336256742 0.3655663564714615 -0.16456527847890356
0.6796629524379227 0.09809985978679947 0.27247394311388007
0.3597988115630244 0.22092072358611858 0.05131213703668891
0.47369705384696204 0.2636100289942078 0.06067869934983605
0.4320656371403828 0.1947175211783474 0.0756336529558439
0.5104935496825078 0.20616710743398414 -0.008816199368254729
0.32682790314848376 0.19874771946842884 0.06518648544906114
0.34526254329313133 0.3124806659737658 0.07100426305882479
0.36382730042166145 0.19153278756999725 -0.00988751345704486
0.42341395233532353 0.209210336321064 0.04469141404625532
0.27618719288196303 0.239857449845573 0.12354863832361218
0.3746437459042653 0.2609815838865188 0.12604885587862213
0.21126225522607456 0.3231504236905778 -0.03696808191580203
0.3949919816213594 0.22128487572919653 0.025787360371566592
0.3544414588222935 0.11180524133683889 0.012150403431320456
0.36394650034438314 0.20199956939985952 0.04502382816764339
0.4098264246881058 0.2337306913778292 0.04829181340627997
0.24844972795565923 0.22482316948176617 0.12086555962383727
0.3582492136416704 0.2513906370291181 0.010251241492738927
0.22754436472345674 0.15783497206052743 -0.29546461706348737
0.4038909721079733 0.20444517979129273 0.006680024460479217
0.35545750236488516 0.2336910700716146 0.04109460073766513
0.33395347870127523 0.25757238892879286 -0.08546563279270458
0.4278736344384697 0.21008065336104664 -0.03492620927131895
0.3655932466408274 0.2952978576545604 0.0027921646713764403
0.5199465836849697 0.12059548674764642 0.021636666713760633
0.41129094053803783 0.2302079110994555 0.04514103950475601
0.40851304254334764 0.23985006811219023 0.0837086322340781
0.4627895146707601 0.15063996430592397 -0.09575070784967465
0.2993750228180545 0.16725263994712236 0.036486950377337735
0.48240069883246406 0.23865487940071262 0.11680096458354683
0.33249039209752596 0.2024469856948059 0.06076568871442589
0.5149630591028114 0.010253774093769152 -0.3333769708628722
0.3868178177793027 0.2107871902584577 0.022472949824489774
0.30497782763286807 0.22638719044394406 0.04353701604111393
0.41403521001141996 0.22754186505923713 0.019618940077648972
0.4631207882517572 0.20785138059282815 0.012322679488576682
0.4854660956900432 0.19338867123336456 -0.032794162653729586
0.5084723190399814 0.2364627675586064 -0.03749383323425093
0.5417896266241939 0.28719191330641536 -0.01861408495396688
0.13285980857843072 0.2514519030372355 0.06317434867460747
0.4127185966565179 0.2794087296062884 0.14766964065918842
0.457612323326714 0.15259987003082642 -0.1041877590425031
0.42454266356133985 0.2506235771691081 0.07520068090732934
0.4568179697261172 0.23852571918814647 0.03121025842153813
0.47386285616531154 0.2194994643354562 0.017086012032606845
0.335539930400401 0.23030762675716687 0.009532162145276857
0.4190593736659167 0.23898623452035395 -0.0011118063120960642
0.6338145189878759 0.19333215845605878 0.06926524167019465
0.38001540392647826 0.278968799317866 0.0686756674638076
0.6382641645581799 0.10545904787707627 0.3490271049881528
0.3643590623978241 0.1977623653566667 0.01776130282047461
0.5208192486794019 0.49046494094308457 0.04739224408822906
0.2696436328686076 0.20664956578178817 0.06463294901838879
0.40614455239575875 0.20598404382892 0.0037664714621143958
0.3739625288218065 0.21324709080516868 0.02012532871204087
0.31026643341488125 0.27853138944243483 0.03983915317454034
0.4628064366854261 0.27605165012542443 0.027948440344886194
0.41681780931688195 0.2771731721425965 -0.019201915413361803
0.415787240571035 0.204043492845841 0.004922701597649848
0.42035539472470873 0.2388024372044697 0.05830339497927639
0.404877143012186 0.346265930750036 -0.09705556465428344
0.45700848898184177 0.20276900861148306 0.011528553133530295
0.439090462085133 0.23555389940020177 0.03822150149511572
0.39659112703716914 0.23801387429320187 0.06607891641425567
0.4374220474448691 0.2209940712829166 0.0037874173931129462
0.37676668169989114 0.21606252052133357 0.020406384686680212
0.7228382059128933 0.5512139185456277 0.14391536369818425
0.3409679448121494 0.2536421637084345 0.12263796422750772
0.4511204494055505 0.2053128032843432 -0.004911343454892858
0.3502233101842478 0.24358063364880422 0.27074212877920445
0.4525872982793828 0.2190864850661285 -0.022580499558756628
0.34771465362082665 0.19184309228423047 0.043015327013876004
0.12509860834822462 -0.409605463583091 -0.12211219189072153
0.4386343616565114 0.19445041950416453 0.014563043400457332
0.5152192786507612 0.3376705297873741 0.11587035816202729
0.4071370702098136 0.24354488393933593 0.0701417627587233
0.3921681169701401 0.2181648114862611 0.04014313118742052
0.3742252888598898 0.19494718879766992 0.028245791397296216
0.4053633639990011 0.19643719826288475 -0.03862351087927607
0.39810396436574536 0.2580995299674811 0.12026158532268028
0.39802357059292603 0.2382330869002942 0.04426750144789082
0.3922795729805273 0.7736563440580255 0.16031204280648126
0.5070820286811966 0.40695133655309235 0.1138154681450061
0.37634441281258546 0.21777218175043345 -0.011398823487908771
0.4585592506934262 0.23314822867118323 0.02185481978260384
0.4008729642262807 0.23282534206811079 0.0443367949330451
0.3740110224009072 0.23950939860762333 0.07090670694036305
0.4290132736972794 0.23677530980339156 0.07788202998384008
0.4024859666790519 0.23167924702516984 0.020562187940413423
0.44313199404361114 0.2202169081475347 0.09438230647525359
0.34578568455270897 0.21076140346865202 0.022509058110159685
0.2971145406883693 0.1961510056457172 0.0380314964411923
0.3152879689598649 0.19472232159819214 -0.016224348841305414
0.4198483605283201 0.20963676812033327 0.042117200406110555
0.33383969227006105 0.25849164483869913 0.009593538960018577
0.3876141485182245 0.24314481447555636 0.09154903766723521
0.3987093742384218 0.24736334692431683 0.08637941798721727
0.4085080790919591 0.1949575323551187 -0.00532182433987316
0.4622454528935407 0.22616019656331332 0.02389226030464897
0.4229809419925914 0.24094671023220826 0.01592343827800846
0.5119200781099238 0.19274206299604657 0.014574190049046365
0.35907669825677146 0.23670716573423078 0.0583098829416997
0.38880320050930095 0.1999762218277965 0.02874445658594027
-0.07495215950277156 0.5336362060141795 -0.09518718109036683
0.3579378226545771 0.21856529834295202 0.006109744426225916
0.5151917779418511 0.25357398114434204 -0.049474075015666585
0.47837430308453577 0.26366746594686674 -0.014406581456782419
0.364794079614029 0.2723816873752014 0.05516191274989524
0.35220542529037857 0.157212089360371 -0.020502333805580975
0.327964109134939 0.17392411915162143 -0.07731596913613714
0.34504103883625703 0.25755873232049 0.056820053277618854
0.40974809555355307 0.25691316668280706 0.014254979322373629
0.5476552971259991 0.2649012992521307 0.02494821714896034
0.44282002894911443 0.2757248771578986 0.1711165063717175
0.380416771889287 0.19770255621168076 0.0011640254158606922
0.44420000430733353 0.25337062615818695 0.03867167287141626
0.5467083367839223 0.26337704089864644 0.4122999560166676
0.37511784672057047 0.22420211103582233 0.029910803991398893
0.48991055144738027 0.2170868588814301 0.01476603306252855
0.3179234225612788 0.22781537629296622 0.04284696647036412
0.39558488913169754 0.22388430230282097 0.008194366537509268
0.3462719525517315 0.19130814470969426 -0.022208624118974285
0.3547251160854614 0.25951396315130637 0.107660871492115
0.44099797610630276 0.2800508934809045 0.1691490592663456
0.2772395219609365 0.14936383743761894 0.17979826568873136
0.4279829487185225 0.24894439443286842 0.12031656437778793
0.29829229158193016 0.24589737312882676 0.038379896331150576
0.3851063932048362 0.2483621715696529 0.05580069866749682
0.3604450443290972 0.19844905706986538 0.0983156266118499
0.37145678351537015 0.2874524063244479 0.08790679564687309
0.4169991613040054 0.20335771140889847 -0.0034465676198038864
0.42609852999078157 0.1790035222909836 -0.011908107435786519
0.38784217018780964 0.2363310777223262 0.0625456250018317
0.32814390542336014 0.18797025444104065 0.03178238711623749
0.25248705353087075 0.2568518439977936 0.05857144473934284
0.4803162541567332 0.23708743255583897 -0.07000469008232812
0.43619068734899713 0.24661662542155227 0.06611691815342624
0.3248723625581533 0.0879419591160655 -0.2830033007533359
0.44326974862801194 0.2715070864228153 0.03692291444201601
0.3696097318400575 0.23367460272496032 0.11677737310172631
0.3953867405797098 0.25439894839340127 0.07469837963282089
0.23588904430775415 0.6349080216215839 0.5647837926645138
0.4128189421171129 0.21095971873538133 0.004583287371275446
0.39640917929266095 0.2819725925934904 0.10634670347504027
0.38799053392318683 0.18375743662636523 0.009029232690323852
0.129602497546756 0.37847548000598863 0.5951525665794293
0.452952339183085 0.24654102637353503 0.0667000156780091
0.6779030028385762 0.18649593277095278 -0.024007427896336253
0.5741507655622797 0.17179928763434305 0.02555260970412121
0.1496268067621429 -0.4137744767370748 -0.15496251732838573
0.33902036088059617 0.19326077000823716 -0.02248855384331705
0.3793084406803757 0.20944793511932858 0.008922656087193559
0.32597720501468075 0.2674895963097015 0.09981369490139969
0.31507681794755626 0.1779471054110644 0.051796573106216215
0.34788651707627594 0.1981599909488807 0.04953948031582911
0.36135720559400397 0.22775002131331235 0.034820627020025086
0.3903316804816086 0.24513204170105496 -0.002008999904617781
0.40270283529949324 0.21754846209819334 -0.02189316871621827
0.36598826893354897 0.21214209249987448 0.02589446405360718
0.5208539070493856 0.22819973246228642 -0.11474892950735693
0.46723495849543895 0.13650215323856685 -0.02141035198235386
0.39916005457305914 0.2427695670104697 0.04065009566627964
0.4611782377855036 0.2144860199968548 0.02397973656181307
0.4020405148645523 0.2003188064781085 -0.0013181568245386188
0.35376060774704854 0.2232920550541735 0.08139931116778598
0.2965413264788168 0.2503746569462777 0.07283753119122593
0.4549454505998227 0.20879367433636276 -0.0036308509880598194
0.3785164255826601 0.2251441174970239 0.03616076154992243
0.6124051233694416 0.09988957201883863 0.6501024992707869
0.3219020902332943 0.29155843057516506 0.14975517895342705
0.5999089058109917 0.07624447407553703 -0.19065676118407282
0.4349074062521652 0.2298044376694719 0.02228800445800516
0.2437413712048908 0.35253198042140355 0.0687520129198731
0.3893918759841313 0.1388599059330602 -0.11315418246707054
0.5277869331431049 0.22223592611288723 0.041124744022852155
0.48300499399812225 0.2008906077840038 -0.03862792018355776
0.3475644119082375 0.28894074558421323 0.04054792583835365
0.34883415953206054 0.22859260979345208 0.07067979022750137
0.31416755430258547 0.22865756150247307 0.085163286064315
0.4155397619192769 0.21774310640104488 0.026985829575991716
0.41431641312829015 0.2086042571816904 0.015064227289798282
0.39917401526425067 0.20465400313048576 0.04366027475364831
0.3728307679584191 0.2093510252016415 0.02497461623343611
0.3340451386198282 0.2021299700250836 0.011162871780186379
0.36316994477088826 0.20928720987174643 0.04237205802769495
0.41365836429727665 0.1963271982868946 -0.02293098134309446
0.34837223937725526 0.2380334216279607 0.05482497246720186
0.40826890139636873 0.2697314153770236 0.02519741163450817
0.3347973568199478 0.1997633892709274 0.1339410684977338
0.45745973803687434 0.21949963754659052 0.018050833605769867
0.3176284425642564 0.1858088344196176 -0.016727391275679793
0.34422072934138725 0.21026742940048848 -0.000597710442434618
0.3796629155017115 0.2548380797999812 0.08158719132552505
0.41123258370909355 0.2027530785622389 0.029056729435382067
0.3848249119122613 0.2135922634661398 0.009990693984576637
0.4592592054015654 0.20651261102366902 -0.0023660811635863865
0.2901376812836247 0.20457444608814512 0.06542946617977918
0.2087379922061814 0.21567053592099228 0.02483530483121399
0.38007466725839834 0.23803986733548754 0.03687434479405738
0.367438242621418 0.29551616109588963 0.060751844247093345
0.3352736609259779 0.24073868585149683 0.08141610772631225
0.5381377485756502 0.2889077983528807 -0.021218999883274137
0.27570499314754215 0.2490174955435407 0.08431399615272994
0.40276847025030804 0.2002956249232284 -0.04785487395002974
0.5298717168952578 0.29304400952000265 0.14899140474827277
0.39587795769371326 0.2107262814315618 -0.052048715697566195
0.3527967594646384 0.14541878077028514 -0.004422908644230006
0.4507768113262216 0.18694884195792838 0.005953841077882771
0.3547836283140384 0.24481438767671193 -0.010574164885639448
0.4613333474282939 0.23802203758077667 0.035291090209241816
0.3616503789036898 0.20539281886900085 0.0711513550592997
0.3343027019071769 0.21298689084005673 0.06604136155087303
0.3601464277879245 0.19200631479137087 0.01671585973443257
0.3912187662469364 0.22497815233980134 0.08071232366943093
0.3515081012313175 0.23525266356965346 0.022479254085510547
0.4129796532945136 0.24322423436053953 -0.039304169503651565
0.4607442701827864 0.24684717127166778 0.026931850581192407
0.362661045745881 0.23904267393565704 0.06106516905884973
0.44708159585547946 0.21078759108932843 0.015242538627930458
0.41124130957078364 0.23276469510955167 0.002325982454976838
0.3829211576616274 0.2681583993962988 0.06662434952238527
0.4160254767811722 0.19429115882888937 -0.023830884755383863
0.4012042730133203 0.22105440688122258 -0.001813453827182343
0.4260320413447545 0.2015372509914357 -0.05516646583612328
0.38575685004492755 0.2440695731346807 0.06139395527505087
0.33984325686287775 0.33349427139830823 0.13205952950309552
0.4099821709891387 0.2371721084988394 0.050494319468540994
-0.11209572817955404 0.5952768328116775 0.14582180989451388
0.3900931210741021 0.23945141973999284 0.007286609242228792
0.6801678669116313 0.207582120663389 0.390677183871901
0.3839198719742569 0.21013936353784857 -0.00881403917520629
0.40064211769323776 0.19883386374471002 0.07368041731037067
0.3505353783431815 0.22747080966226463 0.11891626752112927
0.4874820510744229 0.19025227998130845 -0.08707143944795348
0.4046220595355976 0.12682836609035064 0.3054671280588366
0.4241146990685536 0.2431419491221618 0.022940250145410346
0.4030521799027156 0.23717282794231664 0.06667562614831013
0.4002863388238609 0.23447233977702808 0.0323367938102308
0.4655317814248292 0.23257127104051278 0.02340810863745446
0.3811161423564897 0.24809457694075832 0.08361399908545764
0.31600931908434404 0.24139686249617398 0.0748304158241524
0.49232558769980983 0.23606626071949677 -0.006896575661528459
0.4384275789212069 0.2568137446267684 0.10026620493987082
0.4295790276276108 0.23614828382227415 0.028648416520184128
0.41120708713796716 0.22610022931942808 -0.008078378795005392
0.3814768230913188 0.2695144394875797 0.06585836331356631
0.4087562826192368 0.22585444986744108 0.0022457534046793626
0.4331049252427448 0.22856035888597148 0.024147424904526815
0.4446849619080808 0.2610158724282883 0.08758238252816852
0.3700736008850072 0.3181604155601576 0.08017515652267093
0.4519180955449258 0.1961757811658913 -0.041660314434523116
0.4514828719701143 0.2444673287913588 0.058585565666163575
0.4537958149986139 0.2608782175497737 0.1760526801231208
0.3952731515974648 0.22691166640272797 0.049086633757355
0.39011287828139984 0.17868476552459356 0.01551088601632955
0.3898818045148005 0.22725417079723798 0.048428632207958344
0.37864635465476226 0.20813678322249984 0.014811834621525577
0.35179288894750016 0.18979916259530683 -0.040880580897166396
0.37174540141779744 0.22773479641347194 0.05212523004860259
0.3734743267399949 0.21714422719436755 0.003055843542057346
0.4121295078301159 0.23402193147637718 0.03120992784772625
0.3418634656709969 0.2337279837111339 0.061595673415894225
0.2987077832121656 0.20802017438172982 0.013629910156467417
0.3816506764386105 0.22631683286994075 -0.07533458982658203
0.2934469451506203 0.254939593234667 0.09766811870520087
0.2646342507688928 0.22094351368917842 0.0520761053686698
0.41074849091815224 0.059648648647396385 -0.4505868694122057
0.3836006124501665 0.23490865463318755 0.0478524383968022
0.3673508388690152 0.22104309785282794 0.008296558464337522
0.3746151367799939 0.20881209930878697 0.017379907867507427
0.547754182135094 0.1924668349371217 -0.049237614741528546
0.38880333532038946 0.2254486400402982 0.051375291815816126
0.3876766650385264 0.18032864769885748 -0.033374607955664715
0.4074826083379435 0.1662165639077955 -0.0373543672602068
0.4585671100759612 0.22709421811583752 0.0839809490309733
0.257039721309269 0.30714228331102333 0.24699646270767062
0.37491318650754124 0.21457587597400618 0.018711007347974373
-0.13248611957149592 0.4391451323419062 0.16833238542179174
0.47984832076971884 0.2190745033742303 0.018300405728496116
0.4681481538771948 0.2706298264900795 0.09325543234629663
0.4198917220545013 0.21909474711938515 0.027481999737545948
0.39240960548704606 0.24125837060356048 0.01230538749602772
0.3718691846729598 0.20605338761497194 0.0362531290223842
0.3475923412689781 0.19793732744636827 -0.0051595299811992845
0.3341427959292389 0.22276945767919187 0.05678079204869846
0.32839103219373555 0.1481198114250759 0.006958859917176596
0.45278497517048777 0.2064117312114888 -0.0060026739475063096
0.3958918173404413 0.21475672990300154 -0.07773294004627473
-0.4550209890837351 0.9991987950341041 -1.7242754505809614
0.39672595767285657 0.2338558073374628 0.07532657878768134
0.42331166474814097 0.28711195537894696 0.10576494883704868
0.3489530895740245 0.20148041936155892 0.06561418057587787
0.3997756769830687 0.13265162778775164 0.042528342487088366
0.490613117418917 0.2935928995037216 0.03758076665515375
0.32334953144507494 0.2229345279211259 0.04586658424787515
0.6755063667132788 0.29115201038618466 0.25035079315122744
0.32741101317077437 0.16903480687739147 -0.0334598946347171
0.4234153737906041 0.22048735911297968 0.019193202080003857
0.30150841263778716 0.20879770637858996 0.21522663412724796
0.40210281532588965 0.22929391900773055 0.03696500927219404
0.38443796070644964 0.23750043261932774 0.0618554877681845
0.42368172508309954 0.21101311688462943 -0.05128077611360027
0.4092451359853442 0.17617663427249397 0.006028542184367325
0.4567451734287147 0.19131402337568204 -0.07520253765905238
0.39360324155344983 0.21396064919366609 0.044593601772945135
0.44792425556190096 0.22770596490911998 0.005294997214406294
0.4566202115371425 0.22015261067539882 0.017891729980561877
0.3483775742954833 0.27407661070898826 0.024810928853554515
0.29601718091403484 0.1889433988143594 0.09225799854775119
0.40886582332490207 0.22971699848739036 0.11899904326358524
0.3500426567020867 0.2656088252487905 0.03904471211120608
0.335750238276205 0.21481968826549291 0.037090927518377725
0.33433120162573005 0.15593882815286975 0.14218203193982504
0.4013023430306504 0.2672258527076963 0.11022177238926645
0.32428573332566657 0.2176739221116719 0.00882025925761809
0.20806941694837633 0.26687189220312746 0.01599725189961987
0.40026312157959865 0.22865055932061296 0.04865935352022177
0.43033730804064874 0.22034434034250694 -0.0020758868606662872
0.3766491579810918 0.2924909688036621 0.14237156702105835
0.3460123658410055 0.2811323885123045 0.15512720563447147
0.48943267586727757 0.33150733519772757 0.08139108252657934
0.43112090499037947 0.2245380156248018 -0.009379361597495972
0.4192424463603288 0.21834567273660355 0.029972209911335312
0.3454947515134563 0.18972879879684967 0.045454966272714614
0.3906221516399455 0.22847658631815193 0.037678411831109315
0.4798465272477017 0.31849212292631535 0.08387136968750042
0.4436089975686457 0.30707755600414544 0.15855892104247005
0.38296070166373397 0.2487833648380473 0.06360642546650297
0.43514426361866754 0.19650625255508203 0.1434767065310325
0.43492937996839487 0.18650143989360402 -0.03657503153488051
0.3847632147850959 0.22318691057724038 0.044806599467534625
0.3856488691644273 0.22584727426045959 0.027921207420831706
0.5295870693244211 0.48449544213764284 0.5939825122597995
0.3885103840545412 0.19154489332240132 -0.06386589485055083
0.3760862662045099 0.23728083916240905 -0.0021530696670026828
0.4647351482434203 0.25664987514565496 0.07329581004468366
0.42001692668019075 0.18611961151415812 -0.09231109235460622
0.4326032349707276 0.19786619538794525 -0.013756850690782585
0.3061986779013637 0.22712058858434148 0.041127801235603556
0.2057937743580993 0.22826444239572652 0.21807088344139913
0.3746151961191089 0.2436052899920469 0.03592232088077196
0.414391163542291 0.24949315492042956 -0.003947827411764138
0.5230630870551067 -3.207463583927023 -2.7581309306969786
0.4278371590153114 0.21481685179652743 0.11903450909989033
0.37928085871507733 0.24417406157019172 0.019895974518931325
0.002182179667300943 0.19221205298575228 -0.5069152671711237
0.3663280329106584 0.13654453052515692 -0.07786001446439172
0.380358682879006 0.2283760068850711 0.11107548941510004
0.4260616891150022 0.21712353319857414 0.01145490908697866
0.3619791110562005 0.253836923794708 0.14127206617055776
0.3664578988744722 0.20387968291402103 0.04741463924250411
0.4674763405427882 0.2605550712884366 0.03846839062344998
0.3076599462828824 0.2738461191834176 0.08147501912230837
0.43284105269607664 0.2216366297164427 0.024615693629954194
0.39014247773368993 0.21455249490512074 0.007325893751925605
0.3872497550138405 0.2214167556748805 0.0411519368354476
0.38633642560174053 0.276670565870603 0.036177147662314724
0.34817420322623605 0.21045880334197875 0.0910764676151814
0.4188849370911498 0.22536577545363912 0.02876579574011373
0.36671328197741104 0.2595061299280417 0.011495120734394959
0.3114511010124943 0.1845305305003535 -0.016389616973100374
0.4170076241253895 0.19696041373629214 -0.03094238527259563
0.38622715729968604 0.19476673832718916 0.03642226775704671
0.42289448345471214 0.21273234240500472 0.033529137532269715
0.4920044813579523 0.12393737959759221 -0.036543550826365845
0.4652543251950476 0.24646625581004855 0.08303726530024846
0.41274019672697193 0.1979938156097205 -0.011918860684033916
0.3942650258811966 0.2380732796327436 0.023101887001843124
0.3856143704880992 0.24566871150770453 -0.009641372659444869
0.385587349393802 0.22564970347033864 0.06908774411570562
0.39523180721721474 0.23170684330059999 -0.0390083294255561
0.3665540004104173 0.2116128557581476 0.018091927467068558
0.4648319115511299 0.18743049514985444 -0.03952040584461258
0.38389627196485776 0.20998244731379145 0.04455316011365085
0.4156849332293575 0.2586625197425576 0.06897981125590036
0.34905418961619716 0.21617983843253796 0.02998985417841027
0.40426573689902057 0.22732442237676764 0.03707483493087693
0.382863141147908 0.21861942411824486 0.014200748905636829
0.30779024810490796 0.19395472573131656 0.08267773579527216
0.346481776615704 0.2484203990691327 0.12568627251597775
0.417106693968492 0.250127660838956 0.04462699711096718
0.41460846655250805 0.22299749195201457 -0.04419580288714542
0.4001008143704752 0.20380031832996792 -0.03160416126249288
0.3335049579980307 0.24097591248346362 0.09052916972643743
0.4123363580910109 0.20949746026550997 -0.00942508008009213
0.3516093934872089 0.20475774991695062 -0.014420329128057574
0.39207460003825645 0.23567205165554128 0.060491547547968594
0.45248302722883693 0.2440599717858305 0.021834352521210576
0.38529976364745266 0.19936962918072254 0.0621638941121887
0.471427974248428 0.2737024027313737 0.039115034823794304
0.4095409134560697 0.22220761772766195 0.04164035141789668
0.37814414502278737 0.2597858078956108 0.11540826852430541
0.36902915257834934 0.2522141591621079 0.06949349515858216
0.36832448043580257 0.23684018921881034 0.029579372824699135
0.4244978959062422 0.26633310451779835 0.07319241216421801
0.4282138130272699 0.3147381564041609 0.03450769367526618
0.38486145277897776 0.3016823609425643 0.07483066069104893
0.43024870709356833 0.2148575314236041 0.021394250934449133
0.4582549492389205 0.09861349278573073 0.04683714821733531
0.26331919153108174 0.0896165679631622 -0.14934663971286
0.3866283349896378 0.2257269719207784 0.05046721652487918
0.38715356128349754 0.23179370475746452 0.031284001250668325
0.3540988339943283 0.2285078365951989 0.0186346370495869
0.46763310022265614 0.176072146616022 0.038465020882341605
0.38319170026875327 0.254383987457075 0.05506065918287106
0.45091067294357856 0.26683838533654125 0.022392032366298054
0.4144203404961928 0.23165972455635142 -0.011875859280166878
0.39722145319458946 0.22963805424183192 0.023975359386412265
0.37002067372606007 0.24205301869415052 0.06674900908319614
0.3354325250878958 0.2388938836193546 0.06386124147124406
0.40256039968650725 0.21108619522922822 0.03570383735910809
0.4704451589875873 0.22611125477817495 -0.03153342432531758
0.4107303071439645 0.2206162140016943 0.015891221661831878
0.3779995121998354 0.20110152826069339 -0.02610073424423831
0.375771229518989 0.19151616787871717 -0.013018413557134068
0.4587243281433615 0.23336354186726282 -0.0008831433301139668
0.3684339823970504 0.22300298339553137 0.030945958295035325
0.407468265953554 0.23233529113764462 0.03595794678881248
0.36744941924581553 0.23873399321152533 0.05522287508944146
0.2611307598741348 0.2810327334667022 0.06273748411371116
0.3922891290777386 0.26266565437521194 0.05954196859880767
0.37198466942817277 0.2597051882740544 0.039111190150862285
0.3373851564130348 0.24841384739687555 0.09494373593001626
0.4282188159220084 0.23716199483708067 0.03746520594216918
0.5777343391993668 0.15629087715383605 -0.03715655122954331
0.38235051447134083 0.2198204644501658 0.048637270698748125
0.5207948848112522 0.29205689204164287 0.6586086072804846
0.24029063685399876 0.21427162157971225 0.050535047636884656
0.4293803691954139 0.21113741458336222 0.01845308464352513
0.40066353334982807 0.24117120115988655 0.19785780416407306
0.4334518984142619 0.19432088419026172 -0.010897803937439221
0.36237841119202585 0.22666625002764818 0.016608928320778205
0.4178182925674321 0.20904104262547207 0.04617643906127
0.5906252252024728 0.2363979035037289 -0.10436439885566529
0.5150387018493774 0.19976114549362478 -0.13271818256868073
0.3736194584368775 0.23066021884312704 0.06919412364743494
0.3777297144092415 0.283383158587867 0.10944959333825466
0.4157936807792737 0.22384344888695296 0.022761479687019914
0.41472785478221397 0.22518239183239075 0.07431508853993307
0.46924096883603283 0.24433455290707684 0.048745391986301456
0.4255402995613906 0.22954364657094573 -0.02713454992007769
0.4649066721718782 0.22058966468736685 0.025019523719109316
0.5996114036530003 0.15098594538262944 0.006601221601812313
0.4129749451548008 0.2159940452839635 -0.054634803903582
0.3450251333370318 0.2062002303480739 0.006100335316176597
0.38620477419277677 0.22560903168653113 0.054730903360024286
0.6362270974605337 0.10701783584147506 0.5413735376995703
0.28393501893144446 0.2060265918594837 0.0788880467357842
0.3652356851736158 0.21735480327140522 0.04558756628517813
0.38338309186738684 0.23077233226192106 0.015595484793308856
0.4519051513347847 0.2549674986517516 0.005970304251192715
0.409778685310215 0.2343280540720798 0.03816388435043905
0.43701636889991846 0.2076111107118095 -0.016786085900122316
0.37805388746167523 0.2481302180289333 0.0897415160148256
0.3491968054587318 0.32826524522852196 0.05919064154063847
0.5083465382626571 0.18913216543353428 0.049947168124774066
0.33374907207920046 0.14745013511448235 -0.08858116028940799
0.5453795590736092 0.30411106382280195 0.05258989144275006
0.3825127992948012 0.24252592708121767 0.02788580867310486
0.36398947454043196 0.2042497422453664 -0.07528555330711129
0.3791452989685098 0.24267518334133342 0.032549799127622236
0.43753656216651393 0.2581694765068363 0.0516906175394638
0.34315632257977313 0.23764094325778728 0.03076660619485949
0.38350292067352143 0.2751908938984826 0.1013269384147577
0.324673451295709 0.19860154898080395 -0.003946669307964612
0.42755832089227397 0.22099876934908025 -0.02471099836255064
0.32645194863937377 0.13635602925570822 -0.031866524691793074
0.38220270808602663 0.18753711779061177 0.06101458848226571
0.4131326254971839 0.25304005487832626 0.0394133024221901
0.37110780426539236 0.23562572165280926 -0.007421430685838004
0.38919205126312306 0.2473932416494904 0.018305122964818565
0.39113147577367613 0.26339352540421146 0.03924743716129342
0.4113960753362278 0.20430514968049351 -0.008155239930388802
0.7160727189758376 0.11879498018939216 -0.07881907469584348
0.3829205863474954 0.26696409894523754 0.013866039712297606
0.3753806718884647 0.28371905953949295 0.10993457677018625
0.39323259307315084 0.22155203440335924 0.04343778649470664
0.5259160125824565 0.28811796524098554 0.036022533957208225
0.4445469933650372 0.1276456196796687 -0.10009778904402822
0.43080233948998625 0.17602076328311966 -0.05645508824019885
0.41549214576389204 0.3110069909891422 0.11860887733723757
0.34577156802910736 0.2390239666575127 0.06559580352781325
0.5173535649185226 0.23630528252252248 0.05052187075078507
0.41143722264610005 0.26137791784786657 -0.019068316910079375
0.44049309986723983 0.2515857609467105 0.06953368590049536
0.4336462440529658 0.23320991511981504 0.04723077874750459
0.3750761940150227 0.24656323124962398 0.07935007271987615
0.3772547823470376 0.2308778129232678 0.07997554032802157
0.3631889911411008 0.24180124609526388 0.07569998016472823
0.36302159905044107 0.23824265234966902 0.094813855320524
0.5246302153716158 0.17978530555780026 -0.09468941710164813
0.38557052208707887 0.22413693100958199 0.025001066068284672
0.40775088072376775 0.27474914882699863 -0.04944819248321153
0.3384210962400118 0.19266043698860358 0.10171322446967679
0.26900905870550673 0.18177836681834947 0.15930314956250413
0.4341899534225888 0.19356048752393917 -0.011528505470607797
0.4565414906414844 0.19119604522927602 -0.07200075331695643
0.4212529669755014 0.2399183007092347 0.0748301762799457
0.40523925529512894 0.2006303308124302 0.04784436304061046
0.3516946677422368 0.22442904781149764 0.13717856671593154
0.30847964003500294 0.2231141914526802 0.03099085116903666
0.3590206164034555 0.25139034576065455 0.15322995986936405
0.3837346940175195 0.2673772421026115 0.07721326894323965
0.4024427483044235 0.20881437057191476 0.0096759109755169
0.39601516510853685 0.2371643613048633 0.027749525801624486
0.33920376354950577 0.35829061174507615 -0.09441317802500748
0.3635268529385769 0.1632938946435587 0.009906223526428448
0.6911479809055265 -0.03061592771713606 -0.08001115094515399
0.4163873238334759 0.19765918103054503 -0.006221435407752551
0.3633221001217919 0.26521204192545156 0.13851381180620592
0.4499261610164922 0.21635943352798392 -0.010407915898724696
0.3839165159281208 0.24507755094211348 0.042421141020042796
0.31096810169003675 0.2063806681916418 0.022558149842325292
0.45737664851283455 0.22695820086121898 -0.026499209595755246
0.4012875947876182 0.22069415860470087 0.0632735134757354
0.4574789321809902 0.2281143478821548 0.05038486675063325
0.3733099608423913 0.23757581515931747 0.04151235463424996
0.33811183075502527 0.1910035684516913 -0.02281155259581169
0.4001336958026087 0.1987626771808948 0.04500060770256198
0.4026497837122349 0.26111028496472954 0.002760046283498241
0.43020628203433375 0.21107632895356687 -0.012330132670371086
0.39661454885600733 0.22648412684570474 0.035417765844798055
0.4135194574719776 0.2370555048342169 0.0230445044650196
0.39095470022162715 0.22447640859178364 0.05624475267772766
0.3867406401053586 0.21455198827966626 0.02832306454908462
0.42780074623752284 0.19847268103849558 0.08588538636300314
0.39941226069562674 0.19706115322820494 0.001310743113180024
0.4386111024438435 0.24253743588636212 0.0480372081360656
0.3410417933531278 0.28859837396565524 0.13067785458150638
0.4183760404401937 0.23131548186512418 0.03419216229917765
0.4106271941141131 0.17428141685789456 -0.06271295407293564
0.3986041644879208 0.20341385874149864 0.012633402716232922
0.38421323943630625 0.19760557293368208 -0.15201614551767761
0.6609033764389096 0.258819894967786 0.006654129549048093
0.40515094887256 0.21170981236232933 0.05189050274179863
0.3819372002587045 0.23322313508714387 0.03534803209436177
0.7638850325414808 0.5394096498328622 0.4613977003463958
0.3693992906135577 0.2428348030266818 0.016438823363003507
0.46935605235461253 0.22748395669981392 0.012060747514354375
0.5200727867529338 0.11316737998234316 -0.20603486823654293
0.43392130486618896 0.22251397740183165 -0.02079853446981872
0.3418242749928879 0.22828668494133808 0.07993198019177328
0.4492206076488827 0.23533565553069025 -0.010019954194547154
0.3622984472658004 0.2082547828097745 -0.00031999357310041887
0.3590926633650042 0.27570215785483754 0.06301995817020156
0.23620231175877393 0.1292554191197155 0.046620051957248165
0.38534277754170887 0.22925492252997515 0.05747618736029381
0.43540703847119744 0.22253619965238158 0.013034772759141333
0.4005630707010539 0.22592987630281414 0.04427559513766255
-0.354064031403027 -1.1637128073371628 -1.1833377646611751
0.36899369411591465 0.224352326820906 0.084696526572003
0.4341811445668782 0.2318017924063298 0.010645146831478769
0.37328282339896646 0.244027630626789 0.03587991408548419
0.2670157925597607 0.20159328396596266 0.1236932170952798
0.5125802852529517 0.21818847680043518 -0.034163925598676315
0.487009749848923 0.3690316137664382 0.07399094498011038
0.4193870931300836 0.25121621652020565 0.033879030437859114
0.42013799593549095 0.25657540929167055 0.08788912508821056
0.47008330208601024 0.27152978536875594 0.022888731379850924
0.37300553702547745 0.2179497944297708 0.0733806286356753
0.38461584928711545 0.20273879474081014 -0.020811440365847034
0.38460255876393035 0.2108678599874878 0.05099834597338315
0.4027807167261699 0.24969088516709803 0.041812018056589295
0.4652555469272386 0.23632662409849559 0.05522232170517327
0.4001079076746379 0.21840672563317298 0.028894161669569485
0.38110568020906044 0.22973143684293973 0.05342132694494239
0.440211287923006 0.1769050710909994 -0.08503860825544507
0.47114322964398525 0.10277610003049631 -0.05268266750186967
0.4253252352417576 0.1915274150202606 -0.03581707724973171
0.40157806545244057 0.22367195981918542 0.002540464168603762
0.35517127906683754 0.2669247220059958 0.05361601885749678
0.4560152586333288 0.21498101842433925 -0.013700328952424456
0.07389130908106267 0.3616642701560977 -0.4522733293553074
0.410283217516465 0.2418430882490128 0.01157646915208943
0.3360639081269312 0.19626627764611726 0.015057044741041636
0.4131007547249652 0.22341244885419087 0.058055144023285266
0.37403838318493854 0.1861148417065408 0.051318182379986865
0.4504836057737691 0.25909955578134714 0.09143557567205107
0.45141786649102755 0.23490449237471012 0.052973841059440474
0.4100788647273106 0.25170656139272296 0.03467419941661376
0.5894724624201615 0.3202987043964356 0.13075062858321473
0.4564303881857654 0.16882186050550274 -0.09124483684882989
0.49125258945207406 0.26508027794204736 0.046076198274789704
0.4161845721459656 0.22906086734101905 0.09165130609888195
0.4167112708001923 0.24368799421853282 0.09954987277106397
0.5033578605046785 0.19250001700606845 -0.03775563924381231
0.42285771889706325 0.23216907640440354 0.08319460462593042
0.2899579736152873 0.2454317626332312 0.11071062075862415
0.600433515925971 0.21564014923669106 -0.018449940511544582
0.28107098284932874 0.25952345057585546 -0.06305538256029308
0.31245464499230025 0.14602407283243224 -0.02707330518467188
0.39164335453878607 0.2091873482813753 0.06906693749238002
0.37009942411258123 0.25652701217748586 0.12086204752424123
0.3625950222530321 0.20181343170239074 -0.039175017054290606
0.47946632902061026 0.2573721742902677 -0.023745017234958254
0.3697871482317794 0.15706289713978094 -0.015044267112983789
0.40632468316300674 0.3145921764686932 0.11595282899331494
0.39228745307750046 0.22028330818406516 0.034920719099133635
0.3412061708085048 0.29420034138077256 0.09989862251077852
0.40502719321027314 0.39790640365575314 0.07413809181696251
0.3257657692095961 0.2163125496834084 0.06521357512070836
0.5076222344541179 0.2088289115886255 -0.06955612730595817
0.4480928157228732 0.17594306051574904 -0.042384579000497524
0.4399903254567903 0.19251255141537627 -0.09928320774982069
0.38723966466176307 0.10339145022221885 -0.03578452914570107
0.4325590637925245 0.2285349945171049 0.0037291517276969444
0.37067396486730786 0.24783189752108115 0.11977972674549164
0.4263101597421439 0.20405259008502696 -0.006089541333210491
0.2568537386115963 -0.6193507741743076 -0.23990258244901952
0.26019562861148415 0.31382052517938064 0.146283628517466
0.3419593960544631 0.26760723849270107 0.08240202485073667
0.3893548309222581 0.18352838577777675 -0.024238453703958385
-1.2508544906135626 -1.0502890220097072 5.153334061544626
0.40879430980530174 0.24250049678074959 0.08323337754086424
0.42292320939768047 0.22542861329756647 0.003873349550246985
0.3205604872596268 0.17896838234446477 0.13349589776176174
0.3533202546429379 0.2096840090250538 0.012706958948186298
0.5126381586643447 0.15333382127035122 -0.007610995249379471
0.4232719594189973 0.24998576299896058 0.09085786078736646
0.46484444925516755 0.12107959434419513 -0.08480451502134656
0.36299025883607783 0.21881553924066566 -0.006327591279045919
0.5001652960418852 0.19612692646813912 -0.09395115092760875
0.3504039447007017 0.2241732864927144 0.010846310554683214
0.3969331775670639 0.24028261789962357 0.014854350318927345
0.48971027862349104 0.21440412098874617 0.0024111009869045574
0.3467317849942617 0.18211679703381378 0.059531534915549855
0.5503481734650677 0.035654368201690545 0.049975003404313156
0.4585310356983001 0.2054378943594486 -0.06430776773267155
0.7821338766263466 0.419896139055993 0.30320653003840903
0.26168283244896884 0.29037502405833493 0.12214933762923863
0.009138532409622258 0.3687887609770826 -0.08725531776356377
0.38846438326146426 0.17969181016408697 0.04074503973842525
0.09279036028024734 0.2346674833537321 0.03868634261944237
0.29271361733222534 0.24157241983178324 0.06095595857976832
0.6348115813428592 0.03134212813809256 -0.3404185984834953
0.4136939772925814 0.22827039763036794 0.05148239967370216
0.38453035339492203 0.21674912282894354 0.07981983184464525
0.39356293499432127 0.23369685884874514 0.09534431926979892
0.5140556867133341 0.07745774170115283 -0.04045668464834762
0.4079407518375291 0.2503013173927826 0.04987779359127842
0.3845461327734654 0.21229164158275182 0.005386286982769661
0.4022603982480035 0.21807293817792583 0.03400488684054892
0.39228189030711746 0.2166274445115448 0.040837245582338255
0.4267150726474256 0.21414063683832296 0.05427517704427487
0.304774582897565 0.22362896090274376 0.03320050346664516
0.4107548994676904 0.195080661465866 -0.01802082552073614
0.3952780367120283 0.19180399126931036 0.03585483252639676
0.3206076535508373 0.21223273723613545 -0.011684460168481792
0.4587298149748307 0.19827458860605418 0.028854497602821993
