# .PCD v0.7 - Point Cloud Data file format
VERSION .7
FIELDS x y z
SIZE 4 4 4 
TYPE F F F 
COUNT 1 1 1 
WIDTH 802
HEIGHT 1 
VIEWPOINT 0 0 0 1 0 0 0 
POINTS 802
DATA ascii 
0.43063754629135076 0.2718205851873279 0.12609417143937662
0.38432656522515174 0.22407936907242743 0.04272080437728221
0.40039633131434016 0.20916749307323812 -0.0016743755871431176
0.39037539499743446 0.42241160241073317 -0.12793542734809193
0.377412567993872 0.23641985658706233 0.03963665339347244
0.464606787056141 0.16811130026738397 -0.029783203844928607
0.48067735344064033 0.173965281019008 -0.06703411053018726
0.40569463077223133 0.2474642753588654 0.08873045375250399
0.42630135906017586 0.2512080288838092 0.05032504008366345
0.24442914185341635 0.3584859027597389 -0.17104973775946064
0.41540743141121084 0.19246318628525216 -0.03296215662346924
0.4032062915230483 0.19210052334884153 0.00027109291670512903
0.3907797279138805 0.22854982435939064 -0.009405649224589752
0.6228361987458442 0.32015426154275417 0.07044462551526465
0.38509317784006214 0.21170289968641498 0.03144833305535144
0.41168379645830555 0.23605033826957822 0.008323667892909725
0.4142515272934446 0.22374098522450936 -0.025207173131008176
0.31237104368197777 0.20917540272691326 -0.05230592102788023
0.3691488150859641 0.22927082955547462 0.048095108795735086
0.35060884616163435 0.23660257843621935 0.18671484579351727
0.4012793161020056 0.18513529094308012 -0.01841263329598064
0.4201150704539174 0.2253480502694316 0.08791336589470689
0.38310569658344207 0.2180739631023414 0.053807868209901244
0.3027559377933926 0.21101702330878425 0.014256276703491721
0.3868794024323421 0.23404651672666432 0.07985749965641276
0.3695107497267145 0.17723666871245314 0.14246473622183942
0.4555199438681541 0.25172514093141274 0.05761014441935686
0.3179092903567664 0.19827872506439803 0.030557969238145688
0.4118960329172836 0.2013717071408223 0.0650591308400692
0.26375428273118473 0.27294735085077093 0.03197483553572056
0.36432825436199323 0.15161776132715943 -0.08050215652536963
0.37055638615889563 0.22179212907875012 0.03274660271745233
0.29286937106648736 0.22630676456657284 0.025765779617415774
0.36922183509496165 0.18665943798725948 0.12940781962433334
0.4302478855813803 0.33001475322998886 -0.08339099090096624
0.40124587618717555 0.23064586966665956 0.10780101373910611
0.3528055066091724 0.21923646552657772 0.043239390960224
0.34551868102495575 0.20987861292523746 0.045875993509596924
0.478837178121978 0.2142346395706909 0.025049338742860527
0.4375485100558194 0.20713789453955656 0.019420336105142155
0.3727993097930664 0.12294289353553722 0.042072009246879816
0.5062176960833824 0.203701672678406 -0.02855257488785412
0.2902116266276096 0.2825134456976457 0.007885943901996484
0.3528362493694033 0.24386125834909933 0.08947455323456666
0.37265534568369674 0.20439846896556446 0.016880614783602255
0.4541281691743677 0.26236806388332923 0.053082880534248034
0.4038932438136271 0.20590942321177863 -0.002485230760896684
0.3936967370760982 0.25937579594126703 0.041470197238794526
0.48660358389020075 0.23221989598161485 0.03531499884171296
0.3492794631217606 0.1965198435418074 0.04827274657739622
0.45756671668608817 0.22283234239881722 0.012291892087944234
0.3995827688950726 0.20815906095261028 0.04934976054455831
0.3587768813791854 0.19091186264932958 0.04858434425665337
0.5968627155755826 0.1238002280930175 -0.09182666962746566
0.3521145127491252 0.223316362584427 0.04739741373012407
0.36826367961839424 0.22160496038969768 0.029001666007332005
0.27798457863639214 0.2437260889376347 0.044816363289839956
0.3702335971077986 0.22417372189744356 0.05817407391555207
0.407544065305558 0.22130349384644887 0.0587411015426369
0.5912698858447811 0.1748656162148592 -0.09684003753389447
0.49529277973803687 0.1658192174897266 -0.11729158868334366
0.3748627215363882 0.22478526604780313 0.0027446689549606162
0.6867895822855417 0.3485023044672175 -0.062136302766916174
0.396746007078562 0.2252264440346039 0.03139200702972289
0.47682938846412526 1.1769459297901221 1.0827990169829604
0.4626699552102309 0.1740266480470467 -0.08616527628890935
0.31898758834550733 0.21446800493839646 0.07749754201122983
0.3895426916344178 0.24632955473138907 0.02085333837287351
0.38871564907375955 0.2761028846341276 0.1074955922775871
0.416996328569482 0.23005107007261927 0.042275633299226456
0.33856547481704524 0.29272196019942953 0.003406469576418658
0.40533239372128094 0.2169812133291913 -0.0010682765269791616
0.44435297654618466 0.23120515984567191 0.07928611122585494
0.3891980747933701 0.2658998731305928 0.09206274440063567
0.35320299382331655 0.1724959452382535 -0.07045616997947945
0.4219823290441269 0.2569448130778369 0.09380452579122789
0.444765758380413 0.30227111580667554 0.2128603935108373
0.5240339784288892 0.24589802215194823 -0.03925985441277646
0.2876029641881672 0.11084832227658126 0.1773498080079321
0.3553163001553514 0.22932901529844685 0.03356423709588796
0.46330026813518543 0.25476655508431634 0.12021494688252687
0.004439650239845605 0.26651089844696685 0.07435026624870034
0.395698844947205 0.25344708405984306 0.05724399038179229
0.47011456238990945 0.2809626413458943 0.034600153396056044
0.40912642964933355 0.24169035071074063 0.06930627298820013
0.5166865411730299 0.267878085366263 0.018278844148682083
0.4039797781015153 0.22722307846137824 0.025070601014391514
0.43863094754215126 0.2334301458090806 0.04522891781545013
0.21131546167792692 0.25061749882893025 0.06253492194076671
0.36205237889522834 0.25266825289486405 0.09324455358841988
0.42713483894868887 0.26024595063114475 0.07679637399593275
0.27006250411332644 0.21962963730651097 0.1830009484300632
0.9610190318393279 0.00206895182492417 0.3070619111954045
0.37771882934944756 0.3006126027732847 0.030537779540566135
0.3532137183349846 0.22568048942324026 0.11686862450736157
0.3975727119213559 0.24831191671808028 0.03316751347227864
0.28529252700354846 0.3246565730316888 -0.0036379469846679058
0.4017461641551847 0.2131482666128477 -0.028282159179951805
0.7031756246594938 0.15451712359748626 0.6126170928846193
0.3936778385622688 0.28617162356013637 0.1218460967955508
0.4871782394448019 0.29090284718550663 0.14682997901564931
0.5144885302528621 0.4412399692009217 -0.0736356100821638
0.37414387136425376 0.25938796247942264 0.14919911296766486
0.37477924802016105 0.2132573343289863 0.07133926655924938
0.3609555431325191 0.24045328964155033 0.06947214303897908
0.3991478045247874 0.28213607997261647 0.1275618462572936
0.28745429019741664 0.19478129937702704 -0.025312556300875144
0.40231115493068614 0.22658368108822913 -0.017521710516291478
0.2834012223075604 0.16182224940394008 -0.024227065634676137
0.48281497888078206 0.2368513411607296 0.03048921957707762
0.4631027846735094 0.21504576487062366 0.013122742182247293
0.41939512415092395 0.23955840057922728 0.1202373530355203
0.4221909462307565 0.20441940278088566 0.001019776322422672
0.22665816110358605 0.19411539027939284 0.05624295791355394
0.3497206862924429 0.1952171209780289 -0.013833210854656386
0.38680181541766956 0.2201673116651648 0.03918083017467211
0.3815829196723257 0.20619152087159875 0.05110785459874023
0.31146247815479455 0.27032295428344355 -0.03307392699076672
1.754658298984225 0.7153288553032127 -0.6123981172469826
0.4483952490089962 0.21340957089682888 -0.010173630308599968
0.391998940172428 0.15560698621985125 -0.12024796742370825
0.43246264011878566 0.17094603101448058 -0.0829451474485694
0.4009423045607434 0.2390181032766776 0.03849369780863299
0.518966942744953 0.28956858725719314 -0.015225085491877621
0.37343280368185106 0.22228967797379084 -0.05938899933792641
0.40211994031068343 0.2553814556167424 0.036496270723915814
0.40087040231588844 0.27425633649930603 0.05301255414448747
0.49006069662863183 0.13987389811128992 -0.0034283366552188
0.37344795145023113 0.2808177555734659 0.14539054280662356
0.399434474909782 0.26013682351694456 0.06859022852569296
0.2259784935660747 0.31962789272907344 0.13453386057381067
0.41800076867161806 0.1965098653770383 0.05736750281511149
0.4020320244247557 0.17435207783690032 -0.11080502979649509
0.40748355385481716 0.227138678736182 0.033053547547936546
0.5040129167761194 0.21559390801340328 -0.05129960840764625
0.4292330413308605 0.2311422851170164 0.0029572494859309018
1.3463190941487397 -1.2385952848424182 0.3435157896324199
0.44002957292443057 0.2253050961402039 0.062329611995210144
0.39479042936892483 0.2352975072902268 0.0601795825630802
0.4203106852773999 0.22626653974506894 0.03788013097150156
0.4387182252635853 0.16676120835386143 -0.10424424905403384
0.4138325034062973 0.2402436866632769 -0.00359029078768458
0.5361635730645844 0.23474472672722868 -0.009989403852586065
0.4777383444065606 0.19189308035046793 -0.027997994635626355
0.3602564979550209 0.2006136047478435 -0.005761444683429318
-0.18657393199823957 0.35147641636881133 -0.033620534035947
0.459669664406988 0.23997325260135938 0.0586713533697889
0.4054149555393849 0.2885975050972718 0.0808950552146257
0.4619412701406702 0.25180643111178824 0.012186335849492025
0.7725730619829818 0.1785587955458965 -0.1361059222135168
0.46025879357468114 0.2722067934766983 0.056692792078635534
0.23917385549910364 0.24499115963263307 0.0663827535459518
0.38373452131079944 0.1930161144156557 -0.005874387240922374
0.21955332033192576 -0.5267689180742536 -0.07976130841110773
0.39750823625496423 0.22930928846633947 0.01865221826881225
0.3902061211809382 0.2211899436484117 -0.007021070475218494
0.40402126269779615 0.2621699038250256 -0.011122472204831979
0.3842709660616208 0.22404390918887884 0.029761912612912056
0.3770131002378889 0.2364710786822002 0.029482796005240175
0.3551456291073549 0.18244845683911137 0.01154294149313273
0.41628987233875137 0.24185200411531582 0.06434494055989148
0.3598181852129585 0.14576166219768538 0.05020396585689468
0.38300234815389445 0.23441500975862084 -0.002104792369479469
0.4159032732989658 0.20048217465043194 -0.08509693269884622
0.432378755343251 0.3161078070984473 0.050029067278501316
0.4651395553875801 0.19751499225901625 0.12827489979925133
0.4020420100137869 0.1678557229459159 -0.040580514596285866
0.5080591171848425 0.19309479461162482 0.01316281806325037
0.46753472232299487 0.15697256653420766 0.06437760799425973
0.40036231100822306 0.22765455356406505 -0.01836390446797509
0.4061941103296647 0.2090679760456169 -0.0012522609625307268
0.40899974026501695 0.22455498129689033 0.02707876718623936
0.5306307648444886 0.20058834322182406 0.01516072609173591
0.41360745666639787 0.22017672977777636 0.01705834148404506
0.3988478552832646 0.23063871612268372 0.0368868893977492
0.22653912054673242 0.20986835249665603 0.09336055507776564
0.3315882150494218 0.20761119491660907 0.035609710916347126
0.3821882430175947 0.19911786603734072 -0.005544475397584847
0.3870218699472616 0.24347130560519759 0.022956979856843418
0.46457714393739025 0.15625341996006625 -0.026408345752685136
0.2785004039655803 0.17904274095381822 -0.01238382512435976
0.4380044065390507 0.21460404655624643 -0.001981574464281266
0.44238564020037074 0.21495839140432338 0.1064188522549614
0.49341137491040854 0.25131350029963073 0.09929733498472615
0.49365337451169466 0.2266666214352142 0.04762723602925689
0.40242265821161993 0.2856268205620722 0.08262821905515239
0.6009961198651865 0.21031749825311863 0.01247885546388261
0.395964042034322 0.22206981705556927 0.032407502312310044
0.38465944630698345 0.22500741404869018 0.03517679324173173
0.26821028202111563 0.17493231183112812 0.06393409365975344
0.4749089083553315 0.1959750091172907 -0.04978200520002929
0.3732753331294134 0.21318820174170128 -0.0251272975761907
0.39163188587568243 0.16749237408544104 0.02291669980819222
0.4216376364204848 0.3015320656446079 0.06466041578494242
0.48138647884533725 0.21264273833082825 -0.02372011578225397
0.4300522234530746 0.19291924492344492 0.03167244634228439
0.40188993763663916 0.2164331570121476 0.03152903694467568
0.3374600805900627 0.21597253672932482 -0.02265546555986475
0.41057723196928464 0.22940347792841465 0.1077204033463488
0.43950777854504963 0.17420905364252803 -0.008235186857902477
0.42194117007278464 0.23835434329633642 0.022299847708751486
0.45895830311584973 0.24842526044804458 0.025811342548266225
0.3082943670404461 0.20196125297910328 0.09873618746217971
0.3255519891477263 0.23143012768503013 0.08943221293273496
0.39264125884629664 0.24919362899774455 0.06389377503050753
0.2013533520141806 0.08968803730303421 0.0860896867419001
0.40246655145006116 0.21724245921447505 0.020765463234624804
0.4578962706960965 0.20544447748152095 -0.008603553541036035
0.43726899175561584 0.2475205543583172 0.022823191766391915
0.41306388489860524 0.24185507098110293 0.011752637492463691
0.4338858284469893 0.23293843177904705 0.04893056913786609
0.5084467858416133 0.24019727517877243 0.1113188880271423
0.39468814972025257 0.2321693405564531 0.07372945703157541
0.35848649763670437 0.20883283855253865 -0.12989037093709044
0.4129737240774034 0.23632844431176636 0.01898599217125252
0.4060863356535265 0.23062242305266523 0.04113423135586913
0.40695560719797186 0.21064311688368775 0.032054650654345096
0.3289136501991692 0.22801950523952996 0.020765545400777796
0.40248349511490744 0.15148218916536393 -0.11271517453890567
0.4447835899199504 0.21022313741735843 -0.05044270824355124
0.39174964354761244 0.2044442778811515 -0.027119998094335074
0.5147816524489031 0.27753826610593535 -0.06548713398493078
0.3014643202333076 0.2723843547538678 0.043874302888070815
0.4278372015847083 0.24077985126420742 0.049924549885091096
0.39653861239199273 0.23135793653071346 0.03651604950668741
0.33595238539354 0.1959297612129376 0.0018112731677888405
0.4536574668325528 0.2367309657899881 -0.053165876282577074
0.42087459738944233 0.14090518566609944 -0.06307429470811599
0.40218254192457437 0.22274179223546753 0.015240258135975182
0.4679076607865511 0.2663343251995087 0.10511587530817224
0.331000689110283 0.3467464052577327 0.17079715608048218
0.35972097979993123 0.24226190170672623 0.12041779224898619
0.4102513533790386 0.2686465792836259 0.06621586011777936
0.36048209233008777 0.2515113718351927 0.07846193879484531
0.3803444367051725 0.20921188753322895 0.014348257050414759
0.4014882695892368 0.19820764034381 0.03513555239472055
-0.01753332299045951 0.03671199505302525 -0.1492221275765928
0.3951452547695027 0.13871330881792687 0.049341942503616565
0.2704382940321324 0.19843545162305531 0.21253933701351002
0.39145931058595806 0.2296642473264967 -0.021114149972248697
0.3322652623255635 0.19500786901117806 0.00867604266848332
0.4732410613684124 0.25778406389991915 0.011649640353823543
0.33754079288829075 0.2014964174186673 0.02561149762664172
0.3891695358346112 0.21183351615979973 0.019243754220298115
0.40754447152052364 0.2098475454723001 0.0005086782503553877
0.18178078530361574 -0.19384069042988017 -0.49585639522589986
0.375325219710021 0.20335830192587423 -0.0020287485908454528
0.3809764061001317 0.23485359819105156 0.04292249802095682
0.4813544084466912 0.24224951009628626 0.018515457194084206
0.4255542837992152 0.19993963147140903 0.0395380045087137
0.41929390571382896 0.2520711863720493 0.05802385184156833
0.2665659488855283 0.2119537447064488 -0.08203579812747819
0.5026999586392975 0.3082926418082508 0.04852037851352975
0.32420445087575445 0.18744344102961463 0.003425960331355782
0.4141559570097826 0.22434631616914658 0.01950831774888684
0.4524848409528204 0.2903395189145215 0.09142922579337665
0.30706203074349503 0.14410206021213412 -0.05616616319846912
0.3937387314614966 0.2064418600241993 -0.02561416445168163
0.37537967719637777 0.2214630698049973 0.03417101069214823
0.39833352426978763 0.22398545637355483 0.01899285648241289
0.4563764467020235 0.2758378874487164 0.06646847660128685
0.3946465935930519 0.26213977204311334 0.08640058001344642
0.4055471704323992 0.1503516390906583 -0.01448398613663926
0.4036236295501823 0.23125531046382264 0.06535659001487204
0.42277013408038044 0.297932374689708 0.20039479896598777
0.41758263509257176 0.23178022760575345 0.03296630127996991
0.35474529669909316 0.22684803484807503 0.0522245898354754
0.30043566143582723 0.22700786439079934 0.07314098026827764
0.40978339365689465 0.23170151686019835 0.03364674921806454
0.41227631533743647 0.23698893484967698 0.02375073472552458
0.30479731832090806 0.19964336548798656 0.06702868555919395
0.39663477160672755 0.2674829414747819 0.057057069672453053
0.29204830075312316 0.26218894441623775 0.07252140803782936
0.423215711573647 0.22667193843480504 0.035262151999603475
0.4955611995942917 0.2749633556541795 -0.05539657267189568
0.3749837312773252 0.18509413158042776 -0.026835527493233258
0.6685841996743989 0.00900128006861678 0.22311691404519252
0.4394650193320615 0.23391168536429063 0.026049564340709708
0.4304449014182268 0.23190641673627965 0.023263753165863932
0.37276313253124727 0.21243491103393808 -0.010937511000605582
0.3672046041529313 0.2569155646425543 0.10127959978933632
0.44301471468978093 0.2561642005008764 0.049509137436103856
0.5241667304568836 0.22452848797627212 0.00559742827476839
0.47966747855831215 0.30629647407033644 0.11621328099414541
0.4509505493379464 0.21213015415477798 0.060374054574310776
0.3387040995497017 0.32801416295114905 0.1025592678726781
0.34705876437010375 0.23666436490204035 0.03123682292829244
0.32274399666314935 0.2450707468106117 0.06777359169188912
0.40653959322840194 0.22985042198230587 0.024743137678058247
0.42975256591120115 0.21673248202149864 0.0011607784397824616
0.4656838285989977 0.270276556303358 0.04509696472069891
0.36348884868553455 0.2529235191525885 0.11311999773934645
0.40953107346051354 0.21987973032662467 -0.004652783624010226
0.3871958581041781 0.16323656157470623 -0.032233968861135054
0.3833971077509517 0.24354506786247043 0.01397125300560731
0.4150951124242539 0.23874718656787763 0.035033963375539656
0.3430713847841105 0.2347440197006847 0.06954110026779858
0.41939819476476714 0.2531908643517511 0.08315436983687619
0.4066292998815584 0.2205171220859654 0.04767735982824206
0.3144295267645134 0.26458368786958886 -0.031486550956401516
0.4015451269801531 0.25908223819938314 0.06792524098881358
0.3636610553448918 0.17253067619611784 -0.019709908776263774
0.28676179643274224 0.19871497639357472 0.06933930314013992
0.39608827114690826 0.21241811600476979 0.036320089573109726
0.2948415280527854 0.19812827840894442 -0.01986486405881749
0.3875670185383058 0.22914571495968517 0.02052610877736072
0.2823088338978721 0.19766565680276926 0.06631505899804324
0.3752421722187904 0.20997709915423002 -0.0024233416170602595
0.3405934099660044 0.19271596537701896 0.056995726690345805
0.31127191781615693 0.26209914951670044 0.12588613132588478
0.4362773396078694 0.21506305760351552 0.006688532221716059
0.3342246305787455 0.2187493355014567 0.05365870522507521
0.3471188684193294 0.22518066649260504 0.04417254071678656
0.42351775729704855 0.25578781982228804 -0.07078399379770417
0.35780316866213013 0.24822588452200023 0.1621628409740481
0.4130762735573228 0.20985857328437874 -0.007113940323364432
0.2861602802561123 0.16881999768223466 0.001705880595011422
0.49762738403615003 0.19081540640773653 -0.003664425003265137
0.3596610194323233 0.2193885892355354 0.09381273891199271
0.27526177477231784 0.21850055611885466 0.14220923601440916
0.4079173713256239 0.18394581686274591 -0.011689786893683163
-0.13271087373145463 0.5317964281107521 -0.07117338040396248
0.3819721803256044 0.21253833829220525 0.02605823433592036
0.5147774474690152 0.23297168571193083 -0.012869283581750324
0.350136241789869 0.2414757038640971 0.10231665169912674
0.2914759650886367 -0.5245888192064001 -0.1076251888509745
0.42551704275139457 0.19633549579276632 0.0059906381728467295
0.40406692919353304 0.21438954105425978 0.013631937300516483
0.36636280397499377 0.21808841839246895 0.030063685712605093
0.4601441173243188 0.2751979279625658 0.08362834207846959
0.3966000761387676 0.2392661894183732 0.048327651718651055
0.3637500569194998 0.28622979338516075 0.049148586393641835
0.3794087887146844 0.21560138011923868 0.05914842093892503
0.3319885840449075 0.21682369777440158 0.04119728057158056
0.32885973224705367 0.2413580176671246 0.012820926753761341
0.38722033166195047 0.224679169191063 0.006978126093414971
0.35420120799361143 0.2653841233320975 0.06339317225632612
0.3042541430572214 0.20700444481623492 0.0508633827180347
0.3995813780955899 0.19611850904297512 -0.01570682203956153
0.34616351611060736 0.2446361108747226 0.14635774117240885
0.3594686919145005 0.21058125498302616 0.04089219770119712
0.4188278996263364 0.2752940031262199 0.014588645112539211
0.4259155994259487 0.18138541088970328 -0.061178367476912854
0.403310629287688 0.20681795869639075 0.02433725570458023
0.4248907937491708 0.2289602588726467 -0.049208926554001664
0.16836235076368666 0.2867798125003844 0.13509008449204885
0.4442161979856394 0.2339273165533342 0.01837874877483614
0.4044022977670352 0.23637617608821415 -0.06301210920469202
0.4033436866222928 0.22670646174654507 0.06058391953121145
0.35748542231476677 0.23953162877758416 0.05495565638108246
0.39056094565931687 0.23994870882654595 0.018487825940383118
0.43404958512130065 0.2527241332472556 0.05550954042161038
0.39126887136156085 0.248759059869883 0.07064145642257813
0.4194127028038679 0.2637541380113362 0.013941607996287075
0.5954579873473591 0.17520472096570927 -0.11956149401471805
0.3631929299896939 0.260864018098232 0.023345764218987597
0.42667484708671566 0.24447771489465708 0.04599608568545932
0.4457067928882168 0.25015377695855534 -0.006313885930566698
0.4565455195574941 0.1958584863361068 -0.0068140244241448045
0.4067989885990926 0.2716233767944374 0.10096557731030487
0.4147252180507053 0.2713287134811537 0.10715082391664055
0.4530731884162833 0.30057626896930856 0.03395205627715825
0.4847733040758726 0.254362591975962 0.012793235028567551
0.4150890470071431 0.2009258152177722 -0.01727083690263953
0.26348121329280616 0.25498031331014204 0.12720594777577787
0.5193432245414442 0.25796009492964345 -0.061169349799342854
0.3585294508590948 0.20779765117310944 -0.00420946836152325
0.6706515140219551 0.2820700572248427 0.09277361654838501
0.4075242132194177 0.2327663142537375 0.024592414244153815
0.33139010668104163 0.1948255841517721 0.07442261130707095
0.47078420445653535 0.09811237924202487 -0.11177045695836796
0.37563792890040304 0.17996021565063813 -0.053502361861319514
0.4040210354330327 0.3425823383885671 0.07519855594829039
0.6500334291871894 0.38384487749917184 -0.02269968341488493
0.49814090960327917 0.27511777834497764 0.04521854248656609
0.38263627846279746 0.2585366433473979 0.017946082351215864
0.5225192436885209 0.11318383193562909 -0.07007673297701444
0.4623575402419391 0.1680586441744083 -0.01840747557389477
0.32232611479383877 0.24229345573331784 0.07786606656527795
0.40124054850467417 0.2504267512577627 0.14495465798728446
0.359205477497909 0.250071256679135 0.09980885863825506
0.44972400560371284 0.2342951709974841 -0.033741566627540465
0.4117911980623745 0.21940776998809497 0.031798939370503376
0.18656202320856607 0.35531226252544457 0.07063862092053341
0.3410646342613859 0.19959872275188673 0.012800005636719902
0.4022488859651645 0.24159099124203465 0.0016834597304864474
0.39808451796045574 0.22074115175945508 0.030967107084677536
0.4007298154314185 0.23003130924860216 0.020575796719867867
0.3931438068879629 0.27185295910130947 0.0504935235209274
0.40912582107877427 0.22125683854994804 -0.008010114513737676
0.4605625125520163 0.2164148364980747 0.010599477602880825
0.3200870557080293 0.34738016027318963 0.08463066604035419
0.3248861748961076 0.18830047521913684 0.005987856355886834
0.44134962906477426 0.21957763059084812 -0.0068005136623412454
0.5605920066566767 0.1585338515785395 -0.012022369240114017
0.37831370124359864 0.24309813650117462 0.039229100840259434
0.35968484488057584 0.24161431923991472 0.06371027119348582
0.5062882186526423 0.20907135465594706 0.11427828237637527
0.2643639640778588 0.28281690229329115 0.008145489930171834
0.32588702933121283 0.2163508647337551 0.06007326700924409
0.3661093380025022 0.20207542459627348 0.0038674734827566226
0.4009967493161355 0.11150715778157405 0.24741258761622476
0.47292520983100417 0.20840014674362806 0.013046299392797778
0.5051807708649534 0.2619359427953043 0.022120235085537843
0.3426299904373167 0.22750506331911424 0.0335467039115116
0.34460921079588047 0.24286619951973876 0.05429227476676601
0.3857940060682097 0.2193817411429677 0.025715026200003877
0.37979163113735126 0.21700845358846266 0.039877025653339615
0.3282067502796622 0.12077711207102482 -0.07413093751321753
0.4008273977918009 0.23763685476509977 0.05122763679327136
0.3771932559658069 0.2152687127073989 0.044178157303988996
0.18279098135825222 0.3192865693169722 0.046604990674282476
0.4519036499355167 0.3578664852915665 0.20262817653411958
0.3804796016468117 0.20012481858060482 0.02651736543964489
0.35305654320244173 0.21400641430335554 0.017887571823393955
0.4430394037004248 0.2438660594514772 -0.04136025587931158
0.5434222643008013 0.2249970294492698 0.04519793408636019
0.3782629052877695 0.22079079799834744 -0.0045201641348313615
0.5461688052094189 0.2592770951537915 0.014832917207712626
0.4157389360200341 0.20753386449948152 -0.01031704025064073
0.42741196501135903 0.205853695954346 0.03922779716400271
0.23114598876077252 0.2460302131797647 0.07781907293322377
0.23381890143829764 0.1651594186076295 0.18497126684093246
0.4065778205107051 0.16301740577620194 -0.07781155692507014
0.45216501538440923 0.2350774404315814 0.03907864609941214
0.4589759301592551 0.22056846088349857 -0.04613416154444394
0.28829226651586737 0.2627535511560808 0.11587729290316418
0.27811493170648305 0.2217197089943852 0.10347964474127025
0.35484405468383784 0.22615006851040675 0.09011622710505662
1.3567997440594866 0.5167021386162958 0.8016610960827251
0.38470253868990767 0.21234427218215046 0.01429617765511182
0.6444162757681227 0.2552270980491613 0.11586872934516634
0.42135899916691244 0.21289743283851692 -0.035295836865714136
0.3667393669275043 0.21785774853208295 0.06480490023920993
0.40108423563249573 0.18989999478621655 -0.06823210519524991
0.3213891997749272 0.21767850946324074 0.031203976671690725
0.34669426408385107 0.2289659594335376 0.08491746510571829
0.4848141382811235 0.2234172498306748 0.07736709485848792
0.4502238370227758 0.20182541230259687 -0.011973590904744924
0.4041344344777116 0.17527987117415478 -0.021624301844596516
0.43310940934921405 0.24896931410373213 0.011770895929373637
0.5751541106336617 0.1783287899653061 -0.023828422995308074
0.36635641528638985 0.17950913969949056 -0.09851032903478085
0.38017871272973025 0.231750614590311 0.04208609157157639
0.40861361570406984 0.21247513103462268 0.020663046482951586
0.4901524315096566 0.2369916042920579 -0.058152476508723794
0.4636572875238585 0.24560462594021715 0.06736711428320064
0.4098577402625949 0.24966763606224163 0.06548231917764724
0.34467045410396224 0.20843934880619486 0.032095459742578214
0.48241263655776834 0.21210733722108444 -0.006644215575477119
0.39104841262516743 0.2509603161203131 0.09752488645744961
0.43590489293578116 0.2765462251448412 0.03724125995425709
0.414734638547543 0.2143117297885624 0.024451569957932406
0.40073863192782255 0.2394289829748999 0.041751572107784796
0.2816003360854893 0.22096014051916768 0.09163020176076486
0.488198126978844 0.23020825821785706 0.0359514557050602
0.4025181545617613 0.22612266611795917 0.03885708380059327
0.3239662479060712 0.2311042168617945 0.09054178288775461
0.4470876111767126 0.22903214108029601 -0.008368410749170607
0.40657122218779307 0.19163842183402835 0.000834600248310835
0.39888936375231765 0.104587799688872 -0.1139006327379235
0.31419095702727873 0.12317292431910687 -0.10063899565956547
0.39220704900687053 0.1620063687857396 0.016120181886961404
0.39552755766642633 0.18432635244653284 -0.02693200067079715
0.41013983670839593 0.2181969726091353 0.01981793494047679
0.38561527424656106 0.2933624630389886 0.19115335497662045
0.46996548242853464 0.16692632911002647 -0.12546346855749846
0.41101702792255423 0.2597640364689653 0.08115535081225289
0.30357138792922456 0.21620846055144227 0.1322257952246133
0.3777837474330141 0.30171545280919077 0.1359879497115486
0.38068443175714606 0.20245574334168737 0.042413930481956186
0.4205469548836902 0.21831968692410442 0.0030022006352936614
0.3877019815228664 0.2585545715086255 0.046269771602027276
0.3893893091817233 0.2994546501518016 0.16499627497407232
0.43677562174190143 0.14616417405920856 -0.07873081266842519
0.3317551610603715 0.14591401561614248 0.008428394638841041
0.38147155448734793 0.218223331171032 0.026968694655963077
0.4069355179584022 0.22190280302389453 0.02541081872860218
0.26744946957663274 0.20800158805883484 0.07898658766021072
0.4042805571282315 0.18735673545620557 -0.042065207092250034
0.3015762172444454 0.24658294369194778 0.08820734064144631
0.45915849594194924 0.23295783265615455 0.04561332274451502
0.4470356583093178 0.31008133389070736 0.13474669610305057
0.456825763001973 0.30199952816371933 0.06741011042473133
0.3927295646363973 0.2103725078784464 0.05524166943018827
0.2856500786705283 0.23611934049957028 0.06517862964001608
0.419645573905683 0.14225722511017125 0.2505100890318346
0.5409894786788243 0.1831690722180781 0.1255342693352759
0.27968184484373637 0.25316875149060536 0.11158594705491964
0.39083107758733604 0.23418085331201155 0.03369364963336352
0.3584176796167924 0.19987220440415854 0.03280577116123595
0.4008705570154518 0.24283163140354702 0.0551034301034008
0.26894044221992885 0.20685765643860066 0.11843750678636411
0.4290653604252981 0.20577808982156398 -0.05804802848584245
0.4591246142308876 0.2853146608644579 0.13740456699457582
0.47050384124429456 0.19874682841265212 -0.04842466691323466
0.4788340024639979 0.26242147157699947 0.09667395013067903
0.392556461270928 0.26836003314834045 0.0930885595144133
0.2339489367334977 0.19877902926930346 0.11697503627618744
0.5073180338345935 0.18455765266256208 -0.0948973307273775
0.29716192183890655 0.19261598074857034 0.024946088911946163
0.36660328335231895 0.2955432597137815 0.17061719480537363
0.3700307289548306 0.254724802265315 0.024826035382460532
0.3790946750921478 0.23361123618866486 0.03894304554745531
0.2203790048670271 0.2459455917886828 0.14772200993017748
0.4454944536763321 -0.13341450707980584 0.14746073476494814
0.3048394624430273 0.20189903009591603 -0.02494431504501904
0.3122798179040842 0.2171229986387715 0.10497554125601027
0.39851641537106275 0.22412892034910215 0.07203696448607388
0.3827295969193756 0.2332777310553098 0.03360345790207475
0.31480394436195525 0.267025856058126 0.042800580577633696
0.4392247772194082 0.24400782819455458 0.02814793404039051
0.3554777139457599 0.18245854327506095 0.032075607089382174
0.4514371050848922 0.19522789952824837 -0.04287833284882936
0.4899415845134172 0.270924720142915 0.04389978617402335
0.4199968735913018 0.21379071327785937 0.019701494744410297
0.35749547083116795 0.20443038334261132 -0.08295701570511937
0.36932743650731936 0.2229438378362687 0.04372939839439027
0.3355357191139774 0.3264005559468899 0.11297333102744744
0.36929135458096596 0.24879674205634217 0.0677213597294184
0.40043878559308155 0.21812824380651819 0.03081863025840903
0.3518023340882621 0.21539811345974158 0.02932876290412878
0.49522677257451164 0.20044862860618196 -0.03128549727082941
0.38101156784043155 0.2904592343300578 0.04155147448634011
0.448574446203196 0.2152860870239408 0.04410635353536918
0.41820145069159764 0.1961027224316183 -0.007554772212984062
0.4971153915665667 0.218142782995713 -0.047807378369071785
0.37403632870963577 0.2636557162126678 0.06817177954778231
0.38452525013067884 0.3008557928441462 0.05253707737833224
0.44927637455910485 0.2866268233566842 -0.007386371463923069
0.4650175961563434 0.24326923690279045 -0.043842115278920346
0.25089420530670736 0.268739679230265 0.20877915982811146
0.31827595601134817 0.18927503482343866 -0.07015847251676632
0.5006607897028204 0.2192013472138825 0.14489720012268492
0.4060029417759239 0.203470245350033 -0.020267133628578904
0.31427920546549615 0.20119685403858512 0.0019014342395848871
0.3836000455617494 0.30648416955929747 -0.05657755985646418
0.3988486147533763 0.23258335338364589 0.03932452680871279
0.4334252017532805 0.21161760409478347 0.017451039351470854
0.3836715956575034 0.24894771803269578 0.03246840726387745
0.48348610397744096 0.22464387601851854 0.0703903356169917
0.36296661400859875 0.12934601440301208 0.060278671763285274
0.3488863553698138 0.24801024801033122 0.06786004246181676
0.40462613160993044 0.2471018845192532 0.058760378475227526
0.40582271448630536 0.18547356287930938 -0.07759277713330448
0.581399823337847 0.30374267809395405 0.18588682585851757
0.501605607898739 0.26630518198513187 0.059066577830165556
0.41686989951766407 0.2859288594446667 0.07148236588889745
0.29128168785138087 0.22164187807553049 0.07377634500053887
0.3230016791618624 0.28663089519181995 0.06766165813597524
0.3593593519198919 0.290656240315343 0.16550346971060037
0.5261620779795919 0.15975077597681775 0.004792296035603272
0.5239129880879432 0.19684148393662326 0.12284808566718652
0.37271856011970783 0.21928734885509016 0.01976786915739126
0.3986826325327968 0.25085645083274244 0.04332707911513012
0.37473871224298705 0.23501470816796655 0.038689225827766904
0.3689502205228905 0.22782208447529229 0.02170313929468648
0.4925941412169834 0.16031638989304042 -0.058655290566122176
0.49899208688242425 0.23558448177548996 0.031321000769338525
0.4033132698014441 0.23875427811705663 0.08431567762359293
0.41823026728488344 0.2222140909679382 0.005398044595253282
0.28781076799349137 0.20075942875078567 -0.020764759173431457
0.24620647556008635 0.18316817826919873 -0.03841873996535128
0.40039867055909895 0.24079161412959138 0.17629513121947582
0.38849357958896746 0.23507596961903232 0.0398277832932763
0.3323980308863099 0.22260642308766876 0.012847116721502516
0.3885588353821561 0.21604681207207932 0.011885894559355847
0.1758047886985139 0.323196073376522 0.04786002725128924
0.39552459522774086 0.21858095633444918 -0.009654570134088658
0.3681893165826864 0.23066086351356319 0.03595226769462556
0.4987836998495254 0.24506173528054376 0.011595277649817604
0.47159328030646464 0.23546767858401552 0.021415363243377783
0.190046498091192 0.24242697441977157 0.1954441068809274
0.3286950615723043 0.1803635215357673 0.08710029132316777
0.3015199101544539 0.18590844335298584 -0.08544369119972828
0.3389163931593089 0.2420013339595073 0.08289762387431665
0.4002170051928715 0.22142262444765493 0.05564464415181192
0.42120357619295135 0.045531262919681126 0.015844857395023837
0.3482303584529518 0.23969239903347273 0.014223868204425116
0.31355668896181044 0.12223680402912862 -0.025465681477911062
0.357401511270794 0.21558824054213233 0.019923343317259423
0.3984253023413089 0.2561456593241189 0.06505967711217409
0.39716229788173507 0.23581741071413376 0.09477322211820649
0.5103911646142762 0.20983709750314006 -0.006771943886690224
0.38087991992588854 0.23352143498669875 -0.008132400143850305
0.41088765120504434 0.21536089061947905 -0.03481698770161756
0.36210124466941807 0.22653396612055587 -0.028895191210835947
0.40095266557079867 0.23786879685253837 0.06914815081168513
0.360571579869557 0.28231088696261963 0.10143749219696474
0.3358343542128921 0.20821366524552332 0.053755195835620384
0.351878229099043 0.21422679313945991 -0.024007476069968448
0.4540513115231306 0.2171177649560434 0.009798230709691325
0.36269858481580286 0.2529239748641885 0.11938420409408934
0.40173515604438137 0.24568161831112434 0.06560359986565345
0.3136383569035104 0.22492781376367077 0.07234513988518643
0.3859415292052546 0.22476112894088374 0.031181945190255078
-0.02883278627329844 0.5905703496370052 -0.0796349357085262
0.4128410392288515 0.23527511886311459 0.028236544034143662
0.42838242300454965 0.265670690674483 0.06868563556187723
0.3904330074271627 0.19466364619775334 -0.05700016592783186
0.42298967009269006 0.15905942550898544 -0.06250843532208705
0.6291857434227808 0.14775574456697882 0.09039646124128353
0.39646250254556037 0.21135976247279586 0.02032657844682717
-0.26420490933517726 -0.04697799756198151 0.43794253226582214
0.46674467448721657 0.19487520551965076 -0.03404326511892464
0.5209472065176612 0.19051969472162966 -0.020269049920585758
0.39906578446806407 0.18996022024711579 -0.05230560425297881
0.48700804359302197 0.28822901199487205 0.10376530909479698
0.42911154377856064 0.27353385820063636 0.025588238178443135
0.4183860370298902 0.18775630435695234 0.0457107574762432
0.39452130739334734 0.20031440263078082 -0.0500319932818627
0.5254464077804926 0.20045491389387848 -0.06628053246382137
0.4394451022429564 0.20590311424410856 -0.008667292457886333
0.32241356251135755 0.28452770929349924 0.07058175759777896
0.387720289714764 0.21130868260860325 0.020536091679659307
0.322518133329055 0.2768297965786246 0.010252323592482071
0.39101634609932034 0.2041126181012345 -0.0021114223643081687
0.44478763305751556 0.23882942013537445 -0.001631815098320999
0.3577101202013324 0.22710792235716326 0.03019140702963341
0.382504873308676 0.2274629552516103 0.027740793275683018
0.42639877796020187 0.2192352975631593 -0.0014973589771614115
0.3738753125134622 0.2248559029919761 0.04329644978317049
0.4421883735056156 0.24214420125963443 -0.00489517789894478
0.49513675838323934 0.19617227074874677 -0.03291387709310811
0.5632599547023744 0.1548576799036141 -0.07182750470643384
0.3214485227826742 0.16529908644776015 -0.08061610972788458
0.40925709279019884 0.26044313009768416 0.08232832466521245
0.3329890255647854 0.2603777288440341 0.064228447359298
0.3502703866840591 0.2916334675652763 0.07880449395491951
0.39051021963936705 0.25199316172526665 0.10973973949083415
0.3871808380559685 0.20536249870961854 -0.0161606290822931
0.39599811058953094 0.4015516720015171 -0.018644541378080248
0.30527578376486986 0.2507474621689596 0.08608101691552861
0.30957120046781483 0.2636730135659775 0.14959054244201297
0.7401734107901916 -0.198746795816092 -0.6526770949090803
0.4279243028576616 0.19078200787838284 0.06306509072467748
0.39436195274458896 0.22263947648713156 0.0778038281629847
0.4976477641402255 0.20172126374444588 0.2002808145325332
0.45421193984671504 0.28057926357058705 0.12015950335168668
0.4026817107967702 0.27616423432075976 0.1449435851885994
0.42878397465420903 0.23060933351531787 -0.08886070621281306
0.4402953886099965 0.25155010314642823 0.02330282090051128
0.37154704019101814 0.21361852115302327 0.013891823191045205
0.40939172071134067 0.18633322491405124 -0.08661784282983831
0.2885362418789583 0.2355531634665482 -0.011465141851033422
0.3868823968224717 0.18875889177934368 -0.04204640697966511
0.36759937708610835 0.2498514687607667 0.07910430372530186
0.3223249199370457 0.2062435707795771 0.0018854025548478148
0.3945922910050399 0.24042848310116938 0.0657413394621642
0.4440232264951476 0.2992734280242928 0.05199155151964874
0.41548447640373354 0.1510535474504877 -0.05462851595314078
0.39220562904344547 0.22348566120680857 -0.024093473441922697
0.41967876088534695 0.2331389553616816 0.013447075884755577
0.4223975899348602 0.24134856503232527 0.02940939212498961
0.3879919533163161 0.1830461646252246 -0.0225811127516522
0.4339704919401868 0.24960864124773252 0.017314555474612803
0.4648694969947087 0.22530093528922635 0.02141449759704983
0.9335149018515665 0.05415701964457753 -0.047541200189627375
0.4174138630785933 0.23414712296562357 0.04615275202580449
0.34653494922922334 0.24143118579740985 0.034892887111283244
0.38449271330127033 0.2015414105319735 0.04420100579284281
0.1968154005502214 0.1335859401812911 -3.833041191114717e-06
0.11253775988203074 -0.32208458730600853 -0.4123580180503268
0.40688998883962313 0.21622449527703225 0.04468366844290017
0.40127852188018664 0.2272382036800309 0.01591582826983995
0.4975855891565004 0.23931575544850148 -0.06958373990914879
0.31539396238366635 0.2461151993299211 0.08416375296667411
0.370623090099798 0.2618460408836967 0.07879824370235156
0.40186979293352465 0.21165498102567426 -0.15467174552830443
0.417553803293913 0.24891393139800755 0.031112770014317448
0.3778396378967557 0.1879172598036405 0.14989542347142049
0.378352324412063 0.20057997842181408 -0.0012381335424720419
0.4805950063109776 0.2287214056243556 -0.0018527166748754098
0.4836576328075921 0.3269464360743086 -0.43124414335147776
0.40134607195643923 0.21057703434914288 -0.0010896516831877534
0.29768135097023674 0.2663925384634922 0.10055858184784938
0.5008304351439676 0.18362761681285633 -0.07278029075720838
0.43705236221535415 0.22151915923728893 0.030377297156462646
0.37646374543608374 0.24098136298832173 0.02073578562587386
0.4138086376339629 0.25502407545411643 0.2501245095768354
0.4046324240533892 0.23704661883439826 0.03641076005328614
0.34466410971289463 0.2723978516422676 0.11107581368040087
0.42787068328331657 0.23102929322712384 0.03997460330649005
0.43363306018750336 0.2666235203356422 0.05815562874920488
0.43159317127599195 0.2124855627800457 0.04354059061310522
0.14784511843478754 -0.6028687187880735 -0.0516291147903587
0.5292210298335647 0.09138265784707755 0.044421928096170404
0.42655758697024737 0.24735254545610985 0.07945612284490267
0.37129421358768866 0.22144849878051787 0.024537745296782987
0.4289311773483462 0.21932112165279705 0.0031080938728962337
0.4198391948289526 0.1934042764554249 -0.04225140115011072
0.452968392475384 0.23513630789798867 -0.06703164128424532
0.39745310377682586 0.24036641423657557 0.043783514873609874
0.27276841884567204 0.23964247870361532 0.00501660162322537
0.3180474747097719 0.23091258972326045 0.0701416389973133
0.3527320399654741 0.21373475880614023 0.057914971587237574
-0.8063508317991932 2.4924691171558067 2.0769106235771915
0.4032763022981385 0.21116540207481194 0.023377997457131983
0.4199648289777258 0.24525416998591254 0.03645349729065117
0.6177835981742987 0.18713354203147503 0.11984876911557762
0.3121691167900451 0.2534483132782128 0.0512007116819575
0.3715588996903989 0.27657266386796664 0.06236974228514214
0.3423884575097702 0.2016974643458127 -0.04965561753942893
0.40419267786569435 0.1592081362215083 -0.006594661982802563
0.40152069024040316 0.2031336058889508 0.09683561289389786
0.5679464733520518 0.20970810706874943 -0.06854576417376279
0.41833710588191764 0.24424549189171785 0.01373728361740234
0.34874229558153047 0.23943542260937534 0.05354908387596424
0.23527359968127826 0.3086790615149795 0.0364784019899389
0.44469182999841905 0.330632999375581 0.12196385219090189
-0.003064182381976366 0.14493493248406253 -0.03732818162858109
0.4097518238083637 0.18893649519537803 -0.005513941215070872
0.43153100710469516 0.21209933467775954 3.086767449644867e-05
0.10722093603374105 0.13128032013558766 0.3041266612511322
0.2592322501787834 0.21199309963840562 0.027488497166046955
0.3582261540147158 0.2076316111213714 0.09523529447828594
0.42193449179369225 0.2443566512999098 0.0707391431936486
0.4414015203203121 0.2208672930609623 -0.0047783794372264765
0.38936421727933634 0.26943782500632096 0.06628986808860304
0.40909211033911674 0.18819622281284865 -0.008579079386194621
0.41902293299806104 0.301377817135986 0.10119456293621454
0.3640771119318913 0.22506515435257768 -0.11887681204075307
0.3841928876013867 0.17117999410271523 -0.048785622893092295
0.3092523351740937 0.24563628327436504 0.07026132486328152
0.3588610945345607 0.1837344923276305 0.03825901182887037
0.20257400669252945 -0.5584465188435104 -0.06741557232916762
0.37869446855039257 0.18649652249538917 0.03488487165566312
0.36644339756676914 0.2164047926328294 0.026156517907793386
0.4061747640883482 0.2220238092131268 0.027816243638795868
0.4006353354178884 0.2827039211169904 0.06192425879446262
0.3952828224051643 0.299610231896267 0.12311908626645618
0.40539593001849994 0.20509311931694185 0.003428937554403433
0.4023976774178095 0.25429827514909675 0.06148671660470484
0.3491314094084146 0.23663939278370094 0.03573854861181758
0.39491848529102924 0.2101463361737217 0.03536333722480833
0.5268184138131318 0.1788436878060935 -0.07282986563325267
0.37896012325307993 0.22040665465520703 -0.11011009610932376
0.3879194769651235 0.2105351041462029 0.031329908859504485
0.40802825356735184 0.19857864229634004 0.05646416563779155
0.3872913475033215 0.21308380777477964 0.04329855874993882
0.39505490137918287 0.21472264687443499 0.05131892724375575
0.403577773579201 0.25489357995193984 0.06335466429946734
0.3971424232320544 0.17698338951845471 -0.001028765940162657
0.2542786457077 0.1770257520305023 -0.02230782061570835
0.42205448510759425 0.24588184888924047 0.03023140376676281
0.33263498414508774 0.23871764245403426 0.05612739500931241
0.27772113495728945 0.21220454562589453 0.0028250449097271257
0.42443012919451917 0.22394686543177045 0.02838346543217085
0.49223975220317584 0.19269779046494762 -0.028692756317028056
0.6349075665872874 0.666036684501762 0.24117606862863283
0.4092255779782761 0.23136921599953553 0.014309713821717196
0.4929057211142265 0.1982076544220348 0.007713142343447998
0.3842883037002025 0.2201501367937908 0.07256399154334758
0.25529824087463737 0.22448677110119775 0.11014873089335708
0.38697229917437426 0.19103559999975062 0.03836162360519779
0.5133095983869254 0.26839588271332104 -0.016578093506353753
0.438021945502598 0.19741825924006662 -0.04807307124039539
0.4018149907362272 0.23475035420739232 0.03664222929656091
0.30519675199741414 0.2281008266996878 -0.014228921739729117
0.4016186933357062 0.296018106708118 0.11283971422784589
0.3382947539069363 0.24468697774418047 0.017373614430169937
0.4084502122906173 0.1909885629616781 0.012385507292776765
0.4446542708085701 0.23457597229420912 0.04006227176358834
0.38721717876735795 0.1701661122073972 -0.07126849052305317
0.4767455143837651 0.1585362920220632 -0.0373141102645036
0.45271802102442393 0.24049842776139485 -0.03487798912077267
0.36307092524100426 0.20570132279161157 0.019675627436640752
0.40619962081393624 0.22421530145101087 0.020573783950936786
0.4266530791620653 0.21641966600668638 -0.039623388168664064
0.35794232292809625 0.2480636828418028 0.0777791090741431
0.3324523060448712 0.15461161228347464 -0.02206209712963414
0.35749652309475266 0.21619333261722318 0.11184210259455085
0.39390266610368485 0.22503449904586148 0.09461594582418797
0.35190625220853633 0.17814803406888302 -0.0442043969321162
0.36147731522208915 0.2579299550445171 0.1805292304233177
0.38436375026284963 0.29365221409841524 0.052995996445829974
0.3203351118774549 0.22192925357845183 0.07508151557867393
0.43210243962053596 0.22394051357129285 -0.025514063695084133
0.36684187989555994 0.28650611318926167 0.06175925732486576
0.5177803178191311 0.2626064429296946 0.04562638014058962
0.25264591684234006 0.2336106686115329 -0.11307311148134147
0.40408462774574616 0.22234265442074275 -0.0067103788089752925
0.2798416880693537 0.27266539741656004 0.0024475667121919287
0.35837202578321126 0.23826565198314142 0.0760727306981579
0.3616558021797971 0.22181917593204048 0.02249107323540045
0.3463258266093021 0.1865105894864172 -0.06590073207652836
0.3675379316375853 0.23316495872145993 0.04263177886886638
0.3186200153022014 0.15760081623561462 -0.025494574269899317
0.28328209808279325 0.17226090314991893 0.15500561175275607
0.4581167490064786 0.1625120641647868 -0.021432255233037267
0.39703194903398753 0.3252165164742564 0.10963947327942947
0.3130533455047555 0.2289394213048297 0.04778538701908985
0.21661921692550834 -0.5405338544739067 -0.09029442927732134
0.4281110300558737 0.23628962356303873 0.05142828780867603
0.5537698898392307 0.1344674043143641 -0.11739577097310416
0.4403085644185296 0.24302491063969 0.06833058583237062
0.33569157563665897 0.24746587104073114 0.054822043369739504
0.4250589375145353 0.2629642287243712 0.07563333229073521
0.41924527223186203 0.23953170567398274 0.04531561361508807
0.44896030677708154 0.2411354202749294 0.045488883404772196
0.4245664096255126 0.200239992055387 -0.0068329381450666915
0.4135534821684246 0.1794467422707271 -0.017869334499295064
