# .PCD v0.7 - Point Cloud Data file format
VERSION .7
FIELDS x y z
SIZE 4 4 4 
TYPE F F F 
COUNT 1 1 1 
WIDTH 802
HEIGHT 1 
VIEWPOINT 0 0 0 1 0 0 0 
POINTS 802
DATA ascii 
0.391116456916933 0.2223519006299739 0.04300820382033521
0.4821325991652401 0.24262406705472017 0.011526305139113902
0.36080972345936857 0.2149197438854742 0.028888416362576663
0.4072925463375725 0.2062203484978795 -0.013112106281624847
0.25533538775773934 0.2437300152852373 0.02040119741855051
0.4502608385945166 0.330629963503867 0.015328114423809325
0.32262880530066695 0.20128958233843264 0.1508694980962133
0.5225386148368614 0.16337584373648895 0.006879889686587148
0.3884151411031951 0.23943859992883176 0.10711437346114394
0.3234817063109574 0.2320208774818866 0.143849765391991
0.49195385074884257 0.2057076034779186 -0.048299910450538164
0.5785579283378439 0.24702044084844488 0.02029251015900968
0.33074522944014006 0.2030957890593612 0.0390320548548857
0.39631234821183625 0.2313373915723389 -0.007813090541759493
0.37887772965254385 0.1993543298765843 -0.013994986683414368
0.43413110829081347 0.22569197971458266 0.09230885881834183
0.3903207762584202 0.23196978206044605 0.03691290574897721
0.44540162359145086 0.20697347796237864 0.0054255394261701895
0.402344719311273 0.22975336371487742 0.013520360261452424
0.44338316568556024 0.22352326968513125 0.02981680686664845
0.3344183847269875 0.24549008242418324 0.056846579347734405
0.4300186198381084 0.2803688171051135 0.040271671957128774
0.3176005278222078 0.14740401108986134 0.0743416542587454
0.3894499456712026 0.24677642222053464 0.02948167027575721
4.041637457112785 -4.06048975862015 2.292395106636633
0.3715069637282369 0.20648311751409665 0.03750543342928836
0.10208691394957725 0.1696335388834882 -0.24868889751490997
0.406654015460191 0.22051553423523274 -0.006991819560852264
0.39913182270902325 0.23488789921775322 0.06836449745941309
0.3358620639000378 0.2267240431539932 -0.004800171626612837
0.3599751866708232 0.1663048575271091 -0.013332640100145454
0.5380963767578635 -0.5256484989783701 0.0055137907131950215
0.40960951069277485 0.2394692390635953 0.08283801420452619
0.30996131856790043 0.17018290873276953 -0.0479847386432084
0.3918585901464411 0.3024673074453119 0.043163791268142404
0.4496192089796551 0.2210928808614483 0.00933003767627838
0.4564410158655505 0.5061624241588731 -0.34436501285173904
0.3544265670994946 0.25470835863227137 0.07859952955303129
0.3342174795506736 0.17136653163190374 0.14871416118411673
0.4797856259856985 0.26323514765653044 -0.015124480320523048
0.40887584190448933 0.2711316384065441 0.08723577254477277
0.3575781423777471 0.24435331185291886 0.040676418588049046
0.3535411652763969 0.20429677588799677 -0.023658564532638593
0.43166074961855827 0.22362398516705184 0.04610636981047378
0.41698923270922705 0.22134500503076993 -0.0217573073566939
0.4020383737818918 0.18086748253674045 -0.05086761740658119
0.3836218689088611 0.22791545165569005 0.06605499484635402
0.4177979574941446 0.21229532274776375 -0.03802001345803774
0.46275891157304727 0.12241250253094904 -0.17285665788982385
0.41333734382706666 0.19475368359724143 -0.12436371108549338
0.285844658887072 0.2260054281174746 0.05353714433812229
0.3406138073005138 0.2320026845439429 0.05030661632460465
0.35805720653982576 0.14690853448291818 0.11254251374631963
0.4134437651645868 0.2464807046072508 0.10409712192823406
0.4380747567600025 0.23016443267964348 0.035151244670444726
0.3757097827056839 0.1525398856707625 -0.07313269246944287
0.3651018334446974 0.20547868664563396 0.0707661981648613
0.38446658907437836 0.21000987553298955 0.008579004991375427
0.3312278107978983 0.21961666187564788 0.05504693138615835
0.3644430217177046 0.2854382380185996 0.15849937692011906
0.32436296223514205 0.2342273910494157 0.08570857557845102
0.3657240624806519 0.2248785312935695 0.0323205641725508
0.4071029489461324 0.22791960344208917 0.044640422469399255
0.35800214188563473 0.21435279335977953 0.052091243352236916
0.3706825160183058 0.22463128308557145 0.10684714729737266
0.3619841640418997 0.21892938441189358 0.005842922655730831
0.4029787573394117 0.22997723946613746 0.02164454554814199
0.35899657064916823 0.2892889353398118 0.09350447251463834
0.3044680479297881 0.2270214214768771 0.08981544501452277
0.383366478271725 0.22143108460397798 0.0595743420321071
0.4265281820699869 0.20881172100678214 -0.0039012396137820815
0.3780072087105566 0.22783424533710672 0.05246020251766481
0.38002233650445305 0.1456357315464345 0.015733599635041173
0.2834085928871133 0.21086381470261983 0.03560313792056036
0.30620283619056465 0.2168219195297354 0.04803509087378188
0.479626119475256 0.08324614533658803 0.0795951124625418
0.49505330552675275 0.31222518569168756 0.09842482058263613
0.23251280238494587 0.23553521448130255 -0.008483195918131514
0.39286591999714915 0.21336265144418576 0.016166975079343615
0.2196797141206588 -0.09470658763049755 -0.2900274689804405
0.40432021556367204 0.21712774777302002 0.021929275600882647
0.29503600650795647 0.23606173915510453 0.04305176302464986
0.40305568343373466 0.2390762565270279 0.016874151593512465
0.37262488537010086 0.23664889927290744 0.1286479549768842
0.44006815402464383 0.24164613853828598 0.0063096113090921335
0.3415717409730803 0.16088011189751228 0.05749599600571287
0.5947455847562537 -0.04086535706308325 -0.0033711828976663583
0.40986643669469913 0.21190124717548997 0.02468371496431132
0.37632242393308957 0.22667089586757072 -0.0055506970798830935
0.41083383197367596 0.22035406798750046 -0.02046280649905441
0.37992643581824836 0.1606311549221573 -0.025191969638754586
0.46430598100606346 0.19859042379417247 0.04568550185260278
0.41900345945585116 0.22938326200593906 0.07822618907617596
0.4217261693967771 0.24686415871319412 0.02466546411309878
0.47926165068412274 0.29196931010238814 0.03711099355197689
0.35058977382860235 0.22973804252134755 0.055960867316827034
0.4521380228493115 0.2752315186466774 0.09750367559905726
0.4136736908311036 0.2114592851688144 0.017177972413776388
0.39104275553469847 0.23139349892574046 0.06750481124723251
0.5829317317040363 0.554475823043731 0.08623351034583493
0.32654890482191945 0.24137459016006346 0.04290627361373822
0.40439162087945135 0.22742989513814393 0.06632735437602832
0.39442147668239613 0.2284190975314715 0.022156051906733865
-0.2451222225743379 0.28914651151242765 -0.1803069046208634
0.5158303338370445 0.28584701115764233 -0.051054883086422365
0.38736603711524253 0.2185969273162982 0.017165346160027184
0.38004878156314703 0.21116514822483623 0.024482702143842516
0.37263710351693646 0.22600827683295677 0.055496041144877495
0.3862044754008309 0.2410379824964508 0.058946761521980306
0.34388827618350604 0.22600462059386928 0.05231039917183011
0.3803017044159276 0.2346181771526119 0.08883061222923061
0.3599849840338294 0.24110056033092064 0.08714485598009958
0.40401609887265977 0.20855950849643534 0.0008645181677024993
0.30391040317672946 0.24743204083347337 0.0009571492843605256
0.41599536431687056 0.2658297718103029 0.06673727972727761
0.41264470215081417 0.18672210545662438 -0.020809955036199312
0.4233588736171612 0.20368188195318737 -0.20316064215759866
0.47122055065821655 0.22225551462500448 0.01379300124652616
0.5311643069507568 0.20101606363797941 0.01400273299529431
0.22159739746135187 0.20813297734264324 0.002214569546765688
0.4072612177857309 0.20626298919202668 0.027793350581504228
0.3633064505120558 0.24722159324525705 0.08054045702020574
0.35702555261028124 0.16232515155495264 0.02758589576174586
0.38010368225290847 0.2329175489011277 0.08024846007268138
0.43387942855167694 0.2368850788512873 0.0503206125114275
0.4149841142591413 0.1725471530478444 -0.09377415715506743
0.4386201438883006 0.20272578379547213 0.03888083518282315
0.4368157540111781 0.2104564256998458 0.1096570979840692
0.43608030275379406 0.2317767780712927 0.04562235963410899
0.45482032834593156 0.1959662302620444 0.036275547272225594
0.03460279447870107 0.32983473793134976 -0.060814635052793165
0.4527638758844148 0.21169418654027083 0.015682212979271526
0.40271524394120206 0.22996254714519182 0.03369487286929029
0.4165582824922467 0.20232016318020385 -0.03044048726371784
0.38628901004389604 0.206135883120794 -0.02912555310587095
0.2731552232054639 0.1940236764124137 0.020342854749657135
0.3509737675161375 0.15101906888844496 -0.12140825778752173
0.3850809510821591 0.218210909378854 0.01783642999103563
0.4153620611926243 0.25866589300443366 0.08721053506070575
0.3576232685225875 0.24353551284875152 0.07259172535798086
0.4273039743251985 0.21166961093258863 0.010254603475331692
0.36259492897914924 0.2817838325286459 0.028808148667934574
0.3693543741866847 0.24996698653828275 0.07362843560348153
0.5394235083113017 0.21298691782843093 -0.0434409859316105
0.4063223820750892 0.193320942242309 0.0025536974360420572
0.32803671427700465 0.2205109909607188 0.05318259924413837
0.4751993808280588 0.2666294098573303 -0.054175004230017976
0.3942346772922747 0.22951094110257486 0.034020346464075146
0.5456318762812771 0.18690962064206929 -0.03173716020104678
0.3710416388265969 0.18397698948542995 -0.07026308996175601
0.38959154360367165 0.2934279206699273 0.11265118454639378
0.386547347193698 0.2689354352163775 0.05880323740322524
0.3604554098187691 0.23992781861866774 0.021683729029234655
0.3937074306334978 0.20752444898809586 0.019119789343776006
0.3560873167280647 0.24628002589892617 0.08406184930016991
0.36424780681434754 0.18330790853863732 -0.030075879490794932
0.41313617283620374 0.19984030776303996 0.02250008262569736
0.4280991790113262 0.2178722273488063 -0.015464225330902082
0.4000477795047601 0.22544086041979483 0.07660422966064573
0.45126488782923957 0.24241936873990255 -0.019401139124198608
0.2610584714128237 0.1983240430801061 0.018570044416321707
0.43537413069986997 0.148292512419971 0.03219060361118409
0.40458838711045075 0.2648760410163504 0.07136976442133403
0.3760396030094739 0.20122217114210628 -0.026780870744943286
0.38894555719295454 0.2517704489581831 0.11554054042929351
0.366200273901228 0.22857258829401417 0.09282416767059942
0.34653088386517084 0.21696183270310598 0.044860698091468976
0.40672657890101505 -0.6731615852008019 -0.08812356995454707
0.415051968535451 0.22697808057053237 0.04707570902297675
0.4358673943028464 0.21703935562482002 0.03210827293955276
0.3574493924835451 0.2989052409472919 0.033201407816520145
0.945974049083091 -0.1107514809327057 0.15093050697177546
0.3948258365726929 0.23926480923215365 -0.027318679498279153
0.4329905444729718 0.21786786851993156 -0.029462364949125686
0.30994225065299474 0.21445331519018396 -0.04712295028986091
0.36889456387842756 0.22419961726563997 0.033566000325720324
0.3801785959633719 0.2219310068229987 0.060651183643955164
0.504322137038514 -0.0001545645385476746 0.07574725225066459
0.4519895621580332 0.2213289358666941 -0.03259119069062422
0.35806870151776593 0.2665948134902294 0.06851018907332218
0.3126394978922207 0.2972125355787796 0.04987901784417659
0.369674882742828 0.2664051381385093 0.09189533503160874
0.3720261845577113 0.1835975252275972 0.029769594870828087
0.34486674692882957 0.23137358200511926 0.1276797488953889
0.320069500629387 0.22472583070964447 0.0034335452985203574
0.37930887279182457 0.23490748110391735 0.045994131241116065
0.4850251641218932 0.18587008395087423 -0.06435931590360155
0.40470500008898114 0.24091983771785408 0.03513938215563428
0.4187482077055904 0.2091357312377795 -0.048987046221952824
0.4855682090816913 0.22159666949613666 -0.029580672000122377
0.26850083813235415 0.24051093972704507 0.06689856597640187
0.4771398708305128 0.23205617309842808 0.049600775639902395
0.5329293474361236 0.2631397245331186 -0.006160347703627167
0.3837230402528462 0.2128345760953323 0.07689121145588729
0.3913496978025961 0.22872530954194303 0.006408877398968116
0.3432327863104092 0.32300251626224963 0.07378236253630632
0.40565737601417595 0.25060427520770645 0.006930208556553907
1.4762620379477198 0.6084095036179207 -0.2361550445137084
0.5388071068142608 0.19229646293327107 0.07841533443003357
0.36927109254145307 0.16481319484717005 -0.05367676354865125
0.4405833930565848 0.026292336382255144 0.11539142975408367
0.40204951577123893 0.18015141402153745 -0.0034431030797179574
0.42769316973162574 0.13853446852014883 -0.07720746219533225
0.2713062826546917 0.2146009448152597 0.04454536268247011
0.30525120410379714 0.23240925999772344 0.05394226279035763
0.14029433420259352 0.8546263375199885 0.6422586352020687
0.4401834699216778 0.2185932418556149 -0.00620525468877986
0.4348728122489547 0.167194735621905 -0.12555279640056938
0.3805307730748382 0.21611831370478285 -0.04218142304280548
0.40441185135696855 0.2599508476516945 0.10406454586205882
0.4096229585893525 0.23253203340888717 0.01841133862950528
0.437981314841835 0.1861627383922695 -0.058149990568210796
0.42736861339567156 0.12283156928128847 0.021972173722772936
0.3559361469143312 0.32903850888774855 0.11145436702173583
0.3509106878192654 0.26528569413758873 -0.012503434230822563
0.4921293191213323 0.24838397087081887 -0.006409473418500511
0.4108318488209619 0.2048593840779489 0.12412759730375456
0.3676288024110903 0.1895666320467626 0.05294115332576155
0.39934985688363156 0.21557561158621752 0.010257773082003041
0.45260171969110274 0.20562668822779528 0.1253869605885285
0.3921205324466541 0.22289021920084906 0.01883748903844662
0.3600369205969258 0.24506982586726167 0.0945377164944432
0.4343939530408534 0.24761591783362746 0.0317573135085496
0.33802013130878095 0.13925650289208136 0.1609703556191704
0.3935569599836981 0.22296692096128368 0.0346483690728121
0.37124517695792747 0.20115861864431395 -0.0036970842903798484
0.274649383480039 0.22945384164350457 0.08129829217676843
0.41344069399477235 0.2316401334319096 0.02383677615469537
0.2231821775866223 0.2218394573518765 0.02389179035816369
0.332017654004801 0.19307382384874927 0.11261059670187024
0.14316314020840082 0.2294351479756358 -0.2595178442466448
0.41611992427080224 0.20482226408273618 0.07370995309622685
0.48351621276040646 0.22934727787651354 0.0035380505014472874
0.4812077933641916 0.2229733918808421 0.03517918104935802
0.35990016473286346 0.18754760846496765 -0.041130970480452334
0.35610247635187875 0.21644621781661044 0.044035611639387184
0.4132952429270489 0.3015649705270107 -0.008555223008443136
0.3596710187250949 0.1955210072163709 -0.08387570864205429
0.400801037594789 0.18247500241980674 0.043355269916190764
0.44163705526891306 0.21411736503486622 2.5724441798047337e-05
0.3271820296881174 0.18826285204019655 0.03293855992836825
0.45510134546890413 0.2854209571983688 -0.0038553000332370857
0.40467008649758895 0.22320430103189892 0.02847799797245898
0.40747912773062467 0.15593396808205284 -0.008648238924024554
0.3164181921885927 0.21759027781389761 0.11704800157953343
0.44129478179394255 0.21773460246353693 0.005273952226644951
0.2013337614946238 0.2569368705008088 0.2095369123730535
0.401187255400032 0.23057590768937075 0.019631002984880297
0.4041719029968647 0.2604306008573616 0.05864989988219804
0.46308254008630456 0.21019788289902408 -0.007948309076112992
0.4144315071753226 0.22831003200413136 0.11511578900993413
0.3843403207237941 0.2663706463052762 0.10062888923326341
0.4113179587717042 0.24091081057601116 0.054439628953076635
0.3754848394378598 0.248242827338629 0.024624906204451236
0.40180528812736327 0.23767351981140905 0.01621356194158352
0.3041033861498761 0.27818550708312273 0.058664962313599744
0.400964907603111 0.2829099717168617 0.14606701755653262
0.38346559140987324 0.22709005951266192 0.05691699934354233
0.4278687206484193 0.2730483454744217 0.1202190450392493
0.449699982909749 0.3017534719238597 0.014856547077243931
0.4080333610118174 0.23220443169880411 0.03675398311106903
0.38550707794617267 0.18233687037634638 -0.04770464830617982
0.33497668092812205 0.22411170763827215 0.02676388915013206
0.4459061831057056 0.37679470284214744 0.09123009226121326
0.35295212857977276 0.22844906569179102 0.0718717580822954
0.3752478247993736 0.22909501120588516 0.04361427521089922
0.5408671298399241 0.46183993216065744 0.11262639252639417
0.37836392216902937 0.2134263177796072 0.0038833842509120586
0.3548146244458792 0.26426624217045 0.0869101403317245
0.45412017885877276 0.23156766654761896 0.0353196555305999
0.44483217092646044 0.2540539492882772 0.09215460326538505
0.48276405372612885 0.290566414922381 0.0464348275992279
0.4611752808571339 0.2494630394778028 0.045428372051787846
0.4711391493311936 0.24775456667305207 -0.03232115240875544
0.4053428823853409 0.28459646671090866 0.07515499656201996
0.38956676940011903 0.20404466928852116 0.06208679622309887
0.37638748511369613 0.2456791473905895 0.10210180209229236
0.4428656304529852 0.27363024795677404 -0.031631542878557184
0.6427211381669622 0.16538705376130736 0.42915257362190573
0.39099795382348645 0.23033106193102526 0.1706955273227777
0.19244609294874238 0.19382092777837556 0.1533933588302432
0.4719416116125359 0.2248492734477736 0.019929360233021498
0.37396706204769714 0.27203686436223506 0.04814529302352355
0.47087158367921234 0.17914819281037353 -0.09183793449746247
0.4891990176172527 -0.01379014682822799 -0.04612777023419312
0.4017382243352756 0.23340975353309545 0.018027696048733333
0.371712821693734 0.22422868615930724 0.03764849291630412
0.418527511204303 -0.6712301532946015 -0.02515907347176949
0.4675376042665107 0.22674794576857948 0.001585002401299107
0.3756506758370506 0.25393819025545383 0.08821470268934206
0.4373488127676808 0.22437196912449053 0.017217209565160374
0.3238523959695385 0.1795192746927512 -0.08576936993921436
0.38198375802969053 0.22055846766187415 0.04615797675211297
0.35901631092538366 0.26370335278301127 0.09793738563465126
0.3826619362842223 0.23572792435612655 0.035085872983472655
0.3781153222583242 0.20792448980246547 -0.042444622301985646
0.38357084776302486 0.24498291377864234 0.07193013693776606
0.4073938835094566 0.20835114544283329 -0.007446073326946134
0.4720706333826712 0.25728641001384744 0.05929433623322211
0.23972888638044765 0.24880727577625805 0.18460145383249937
0.4714263662079361 0.24096824937421957 0.0844961548718004
0.4572023435263475 0.23946872301402777 -0.013430817109735926
0.4075336103220195 0.2211292874954296 -0.03376654339626839
0.40763425644288986 0.18755733687598308 0.03238824932482487
0.3537307724694472 0.2858797790681251 0.11376910721153877
0.5383440360705265 0.2807227940866426 0.012300931701275886
0.4012312202330577 0.22686042464621892 0.002071300468870163
0.35530601182414046 0.20787174248130214 0.004630218360688332
0.4095539487355211 0.24854744533348594 0.01633100621262429
0.4652400825741836 0.2892323074470653 0.12170924197829436
0.3878773317985633 0.20352851402641647 0.010288703651809783
0.16466424247425948 0.03558285810950679 0.2466834547178678
0.445613843509193 0.1924826704179452 0.01373071096591616
0.5170476769844186 0.2571564162126663 0.04798965791349019
0.3263426642508023 0.15973383345999537 -0.0744817044817836
0.3500055070478254 0.19635216093072927 -0.06391088292454583
0.34999401032972344 0.22011298607115748 0.08754873199035274
0.38388972852001757 0.23417750382402858 0.005367108627297057
0.3418943368525049 0.2643968776000065 0.14488633019135477
0.3864776699962107 0.22240005068368873 0.01899584649500241
0.44497773255827155 0.23079364300534166 0.04841541608814737
0.4259873946446362 0.22194259099441638 0.018727567534710943
0.36023584067768866 0.22117923244070425 0.10623159221344736
0.3650649937271311 0.21744004111538118 0.044179739123677564
0.351466556460565 0.2525158678420496 0.08372623848052285
0.38384677726786265 0.19751820582312973 -0.046429287953841936
0.4741498098541399 0.24391989293960137 0.06117084559886621
0.3882665280752349 0.18543910772262961 -0.02641092111953469
0.3838013953695594 0.23070394046567344 0.031534136068671614
0.4584220025097636 0.2296670399043279 -0.009456471907668629
0.42644165216454155 0.23441925923424378 0.042699255268658476
0.4015633943616024 0.22597571239981562 -0.016380353290699645
0.34094895235867284 0.17663857305339548 -0.07656817849863273
0.38193112077979663 0.1925017719086668 0.017896021750374302
0.4103170346502054 0.23914607999873283 0.02745051130401066
0.27879424303435485 0.22763223064663407 0.08382111662265856
0.39877220041285 0.22933792862454538 0.036838270641084137
0.44191869877715817 0.20835156440807623 -0.054411912483118385
0.380999873936986 0.24683342001065967 0.034188857418115504
0.286831655196778 0.27988533642036373 0.09808064590242793
0.36235460446869183 0.23609457330410066 0.04369413239953701
0.4041160891585349 0.23913217706386547 0.0672733988355958
0.40617064079495435 0.2715192497272767 0.0803513813725516
0.34573589091978363 0.21795986192935857 0.014390083162652445
0.3935816402678114 0.18532411860202558 -0.0035323732911649586
0.3254017443284738 0.18318209574027833 0.05295012308152991
0.4934131620153721 0.19112400383983186 -0.034069822013520934
0.3892875368469788 0.22117326967028816 0.05858936436743534
0.5236036494652581 0.315367342608198 0.024921585315198058
0.39318987450587883 0.19758654744478577 -0.039744640737765735
0.398560983053045 0.21537887260438993 0.026899136637382526
0.31291191060861934 0.1336992053439161 0.04780081510017453
0.46198678469718857 0.24553348563887312 0.03252120221992527
0.37165190985894014 0.23513856165239133 0.03292737960137515
0.39845596575585773 0.2298971848753979 0.039753615454500846
0.30913611301761534 0.26447649280534336 0.1339379214230263
0.3919543469278892 0.23236804621046758 0.017184148531526944
0.32965855827771406 0.2680895920113926 0.08516186505764267
0.4248241959308814 0.22304486699312065 0.017779401184782273
0.3910231108446425 0.2471917976234863 0.054889847218788645
0.4117118066091905 0.20565625240200802 0.030018774344625854
0.40089950545703346 0.2105684075416434 0.03706648868568152
0.3844203447974337 0.22005002058779155 0.002409024299808493
0.35262281486653535 0.2112663101954979 0.04082492684301542
0.44291044727116 0.21506715834865986 0.014901267853190348
0.48880051603768493 0.19044146368673864 -0.04181388047933865
0.31822904646335815 0.15494777307517893 0.0923732524769747
0.38678591000332574 0.21742099182344532 0.014838266793645971
0.42639956219278474 0.19438470029933796 -0.07292964392217982
0.3868678094666791 0.2280999120268632 -0.04142782009159873
0.4126089239585724 0.24487975170853815 0.06648881218706038
0.26639723882584576 0.2115718779838005 0.09717934789330229
0.38787581588179876 0.23190751267208043 0.050628759687072034
0.45494212963629366 0.1899677923632339 -0.041093204738189115
0.535074403849336 0.34356900035456306 0.12928337291739922
0.40750903102642155 0.22334266793802726 0.04921217597063787
0.5343720146661184 0.20771089062338888 0.04223516776428937
0.41447511589203145 0.1459022769066678 0.05207525184638939
0.35522836950249825 0.21634115743768234 0.028770708700776026
0.4242544989692192 0.1991892874031862 0.029674377091112092
0.38545566233396755 0.1628408013552871 0.0036410322845483734
0.34000540606859886 0.22192473369419474 0.032464811673719396
0.4388340431323172 0.23500870627395898 0.011494991464701343
0.4388381770919523 0.2921475021496036 0.02249771143640089
0.39184075467012747 0.2122568029255376 0.015882696657016027
0.4123595821257169 0.23020323835125112 0.02736621773782133
0.277075086332232 0.20929915232422047 0.0674684584899552
0.38508907654693303 0.20942306339753713 0.06198419607756023
0.17987152233489212 0.2733002803649498 0.21091476476210858
0.3649638113023457 0.2063537435137306 0.022122441528551917
0.40924443596657056 0.22493698895127068 0.025545824998033595
0.4105036494519254 0.17376264214554737 0.03306947142911554
0.2629686474986954 0.25691967727908605 0.09595747549944633
0.4804607544657955 0.2709754784893619 0.04623154829349119
0.3431258232741641 0.22403690907134433 0.05260437473720003
0.35784429651978655 0.2642878682564742 -0.014012502731389986
0.42361108337557596 0.2455351866137363 -0.008420453043370912
0.37430282112842406 0.21546298802878994 0.045134634713889454
0.3338920755442416 0.20835965502114107 0.0425926085994206
0.4145909966345869 0.21035424278143466 -0.03646431201377709
0.39739801781774986 0.20259363464242597 -0.005786489426157004
0.4174539023411512 0.2323852907613002 0.016008673301030285
0.501425925639154 0.25197964585441923 0.0016689938002230065
0.37431784639920807 0.2545465683024162 -0.05432782216720966
0.3103615193721936 0.3110293351300868 0.10294179432349893
0.36910019680769324 0.267123889219107 0.040679426659380624
0.38530550338967373 0.19512274411815156 0.011843278531031842
0.41731725430662436 0.22252978487307473 -0.012310554063873269
0.44482890856878043 0.1164978922672617 -0.0010541027235433376
0.42842071229851797 0.195702764307498 -0.014550480214808204
0.4134203229875766 0.22851112734815615 0.042491518409207174
0.2010752545772192 0.34364998139970737 0.03537129060508448
0.37582423108707985 0.20650500253587722 0.007541856114642087
0.4451303957703914 0.21169263905819946 0.010427827240391707
0.3926783021741187 0.23785168630905673 0.051995222730255364
0.38004002932305525 0.23833549151456168 0.08674156400510924
0.40418333028588904 0.22094659028432773 0.03073683529980542
0.48542332420473144 0.21787787128511127 0.011019306703246912
0.4377333659205078 0.23106601445775254 0.016581639760033795
0.4235515739206477 0.20323579075295584 0.03348822750280078
0.39246601842467044 0.22653811873342988 0.028602534543580305
0.5072174664089601 0.2140457399272293 -0.035521646226172265
0.46893620355075427 0.17514465186560813 0.027016380300921128
0.41362478951111825 0.22298315590495577 0.06101515705745442
0.3130792920503893 0.30681940536322827 0.13267751294280572
0.3802289884188639 0.1882803605827803 -0.06381299143603769
0.4240926576194113 0.23358450312665013 0.07182102488131648
0.4579785922660875 0.2458127804037531 0.006380233350924414
0.41397968905889115 0.19704840724435257 -0.032544008208219566
0.4409224920568846 0.23064775298075801 0.02922137982551476
0.4246364834185954 0.21184940744268488 -0.018628013616748262
0.4667778637337534 0.23633377429204927 0.006380079501070668
0.7130617017344036 0.3872219813885067 0.2711312750948309
0.27788537770237554 0.0644389257017366 0.269882938873792
0.41702563316790986 0.20842439697162263 -0.015010052704965915
0.4030633485141095 0.20958004767697958 0.019344629473991404
0.9138702428724201 0.22632216850877285 0.11800675364378321
0.2723574337473451 0.25833102202294356 0.06200320722193453
0.4750227812291854 0.21472981849710493 -0.04446020380217419
0.3112941670946725 0.25983587518926754 0.137512840630734
0.4226365609393099 0.25127736895123576 0.11386512385078618
0.42472542984518213 0.1807255830961907 -0.0721557110700104
0.4417645468398632 0.27837920922752346 0.026025166945771616
0.4512946263363631 0.17865840513519515 -0.0309485091480326
0.3495494256735441 0.2053335633369784 0.06114858124787759
0.41829328159175816 0.1891306118475029 -0.04451139319482422
0.47421469962726803 0.21395744373819525 0.013061873097484522
0.39219181219709753 0.1866425633232609 -0.06323118961246621
0.4563745098359675 0.2463128765850513 0.0027683067941666195
0.45579403929393436 0.2659190005465746 0.006296585662255438
0.4217132424371357 0.2287811457819089 0.16190482794193883
0.14722482640445378 0.3257475561444636 0.028753795989516107
0.32749866022201957 0.2348951152519021 -0.0962704261010856
0.35168120088864896 0.23842339602137486 -0.0013061196813595188
0.33956980448262186 0.22377087394590944 0.05476482802703231
0.4029811103475822 0.23917280538918817 0.050567384580219255
0.3209734832028204 0.18439780984985532 0.004572151431659677
1.0403105808781845 -0.12608550149019493 0.06654209427973967
0.38828868215317414 0.17505359740859205 0.04964242265549501
0.46206217858880905 0.22673235906580658 0.03644744946774381
0.4036204824857208 0.19538688689507921 -0.05075540849884419
0.38027406973682787 0.2209374431909623 0.0362229468573787
0.9444621523825276 0.004235898056762721 0.4232640314073848
0.413890643060455 0.265572481106787 0.053906796733542706
0.3892642644568127 0.21216652528747204 0.021250353444756342
0.32023164617021393 0.23677517901938927 0.027994203936813733
0.39071233532087035 0.22662230435707897 0.009412637590628492
0.4345399224096127 0.1890647215228256 0.001138960009029688
0.40378823537059816 0.24913163384130144 0.01313000645454565
0.3882329552442485 0.21778791646065088 0.03207915335408984
0.22553780322355976 0.2237983617079351 0.04704828478122636
0.494997855048652 0.16587165728086006 -0.01558358509817026
0.2431464827456864 0.2353589037115995 0.0499245439210938
0.35534129675104964 0.2275669556871236 0.05481961817686454
0.47789466022665295 0.24745323973834843 -0.021349387889387117
0.46861084712030276 0.20488168038468757 0.02130084001942123
0.47765477541982193 0.17827000139720894 -0.02234640111612407
0.40205684150512866 -0.13741599501568658 -0.5271735956041539
0.402811997881372 0.21307799900363023 0.00464619777139319
0.4440892312216249 0.27752659963366 0.08079304169177703
0.8341850251518679 0.16600866450863805 0.5318026417099873
0.6329716674578663 0.2596318271183975 -0.08346456066732344
0.5734512165159629 0.1559884366859592 -0.10202330884669664
0.4175151958440324 0.24881289837230725 0.010716145306574276
0.48223441307447956 0.2373914445441443 -0.12998677301504813
0.13672911752760797 0.3956509198413869 0.17962058637249356
0.26311181590386923 0.16197172465287224 0.05868689085164647
0.3859293500126455 0.2519863053941549 0.014384720925036731
0.41654676434148996 0.2483090772344667 0.018757804034095216
0.2908387179972749 0.2504450336724915 0.0977396968309705
0.5777765122792289 0.30298027814154693 -0.11846808171043222
0.43354574587363004 0.22044766616056677 0.026754039942971986
0.3728269750622104 0.2599716513058752 -0.011498896752016208
0.43862154364751405 0.22437120011332468 -0.029707364510500156
0.38900607852963276 0.2268352670864715 0.032464166014079865
0.40622843718810486 0.21078411673639152 -0.0017001707072665795
0.37557185106769 0.220382684422205 0.0800507256795413
0.42634555530580087 0.23367897267468152 -0.026714790664200905
0.36524814983428655 0.07637468721387108 0.08434361586333239
-0.14084275926757073 0.3022789219650406 -0.18403524461039922
0.34338130665958033 0.21736711547868026 0.049046758976032834
0.3820500234000974 0.2222520769669245 0.02375671252023892
0.40254896937619833 0.25148621468271415 0.028215909423323637
0.42821464937841824 0.2542049290617001 0.15366848878478834
0.39493110187750347 0.22109360542705758 -0.014517950111198274
0.41586917968719206 0.22784744343168484 0.04040720263390085
0.39196452504000945 0.22079702127976475 0.045011535729557295
0.3935187927896493 0.26166335411932096 0.012982438755997805
0.39444589792053364 0.275453653387558 -0.009021366330998148
0.39662069171430403 0.23426591603276847 0.06280524957401212
0.35756668206738595 0.2668769080345328 0.1632529779790275
0.5178790253154375 0.1280612177102256 -0.1110837422512958
0.38119445152696585 0.22499714032377938 -0.01939749930608059
0.5050663484972517 0.18848539457218294 -0.07782765214724918
0.4676001586910843 0.2541930600198157 0.03219955187154255
0.40087205339190746 0.23269293853597617 0.05923086746938111
0.40949566855090325 0.22208724296577032 0.03351675774010232
0.403050363435014 0.21861278962697384 0.0360324066307669
0.3881783517788051 0.27231658030405015 0.12422005016151161
0.5203854787699669 0.145421129490515 -0.06980770423800209
0.30695144019468046 0.24679560324923955 0.009039563297505993
0.3248677785316829 0.21573715728327159 0.037450494841522186
0.3736002967368961 0.2567354957134569 0.09216722209434636
0.37248736935441684 0.1730512585429267 -0.05530157874784436
0.3904800149516916 0.22268423442108087 0.010462910763379796
0.354269835096801 0.35090152412553266 0.024120691312617737
0.41121910688229946 0.2500986894715993 0.09407333709992827
0.37117980108081383 -0.8140151449334354 -1.9556670190896455
0.4176001292941294 0.1849013743693746 0.030818109778380176
0.3105153308087836 0.1381662973865332 0.05159425057634337
0.3508316302342678 0.2170882930192306 0.028461919646261435
0.38420637589291573 0.20863617787099997 0.07344886819376484
0.4551923042160695 0.2150172462460631 0.027477689964655383
0.5207778964932999 0.4276148370751969 0.1419233096629
0.4315182764190979 0.2600995995592257 -0.04358057522321701
0.439694166102754 0.2446228292068895 0.1251470068886107
0.4960563479165785 0.26354659454669616 0.06016151266368297
0.37748868261013513 0.25951954089578066 0.08932122954655597
0.4223613254462606 0.23076269156592844 0.05389587162900966
0.4659108061596271 0.23387405766760594 -0.08301770548949605
0.2611076693982284 0.2297884438712572 0.06033919021349732
0.42193808294513246 0.2361972975434128 -0.0598172840325617
0.4012980338995362 0.20911347455454177 0.002269119923795415
0.48586068029327123 0.25961153764922074 0.09853651072594971
0.3440182281868829 0.22226534447423774 0.09580089699483096
0.38836074112398933 0.21846184424808257 0.026211399607831254
0.37416765035345634 0.39137860813167435 -0.08174006361811337
0.4177009235455955 0.3022468087601453 0.14476968795071343
0.297804611969255 0.1847110877077256 -0.0035267665728611064
0.03230074581131248 0.2579016292396261 0.02505865738213231
0.4304733898533897 0.20819456342101716 0.05472980018421936
0.3666504983178811 0.22691903249906886 0.0532107834831379
0.5251229577441734 0.2303987012241464 0.0045946718479967785
0.453246789131839 0.15954375642476748 0.035394242193092396
0.542346752307779 0.16348563553951578 0.004546425855522784
0.45707458726329264 0.22898565957662242 -0.023346645438095948
0.39476535015435843 0.2181127356577406 0.03425472102055949
0.43820817591247874 0.2556235285193509 0.04287548581334022
0.39876008751426184 0.24550887935858157 0.07641204996230044
0.36518290942235865 0.22418469139844888 0.03128208593723514
0.3633594234813273 0.21697542337548725 -0.0013798569945038253
0.34318590693456485 0.2312493098677635 0.02467083269252157
0.38165251795430777 0.17955472501594727 -0.02030664017138406
0.3310230032205794 0.21264975148730514 0.044542744142916035
0.33374282214234086 0.20028339240488435 0.02588998065192527
0.4237650821629586 0.2072410294985616 0.0009158603852199576
0.4146208487249794 0.2099797664162395 0.016941883284658843
0.4192871951664614 0.21936550578311653 0.029814314352918814
0.4105388923477449 0.19649785498508265 -0.003940983371165885
0.44041156697970507 0.2602005260536373 0.0033864426758896116
0.4460133441957339 0.20745090527496757 -0.0559463737078687
0.26295374133258065 0.2466732805578431 0.07963209343310496
0.4319058520026289 0.20869698396226966 -0.00041074916067884715
0.4523236179646233 0.22629932781023854 -0.0015456115697247697
0.36208033200935574 -0.2680429450263375 -0.1304190686269351
0.40202181263848047 0.22683989483496703 0.005469422147143632
0.3891999694548929 0.21565201384379407 0.09678437080346214
0.4829989207475762 0.27105548555414316 0.03109019575285288
0.3933272640747134 0.2134398465340155 -0.035516958158410716
0.3746710334482799 0.2543041070385357 0.05313591778802618
0.41016700450917654 0.23482112464876082 0.0036075648236817415
0.38451457525276567 0.21396050154976365 0.033809430772123505
0.38755505995223416 0.1539842413615986 0.013129471004987181
0.4850084355976776 0.24210036629878573 0.03283599836203166
0.32601014666600747 0.20266060465840496 0.04276726089167937
0.4159273971972084 0.1842942730930872 0.01321260827174342
0.4100804392259647 0.22642053602922374 0.009827023690561987
0.2962224777321012 0.1703587665450499 0.04588268190262568
0.3882597906280978 0.2102478995739716 0.028201794065722652
0.4122686414749097 0.1481171004550106 0.11767009573046039
0.47553197674253056 0.10344222656611635 -0.04126575868905036
0.41162647718601875 0.20555919421623514 -0.005184176728178613
0.31736274248859786 0.13112201775054189 -0.02937736078277453
0.4808198062944342 0.2873233100176549 0.11379931592523462
0.43346280030102946 0.22558253510123905 0.016658393209695532
0.33073155421526224 0.18848871822336832 0.1938311630523799
0.4030511567913493 0.16666250302915842 0.05014450979369656
0.3987090104277229 0.23496172487229217 0.046340861286694235
0.4485424160836686 0.2484922882993601 -0.021553928601846906
0.3571312267275175 0.1820093642594287 -0.0071415567610984
0.30776076926969154 0.23216985600575413 0.13646217619005085
0.39722793627765896 0.2672664155264215 0.1626591096453751
0.33982565544110344 0.2096669051523321 0.03684009534859456
0.3994922671912491 0.2171898025346195 0.01547527544407501
0.2610493487281076 0.23823154224264442 0.06978889443439584
0.36231810108189677 0.2509041167033672 0.08282183668693222
0.407281312643363 0.23816527002506405 0.05056737434972547
0.43687662215774026 0.18765766954736307 -0.09054591463811335
0.3728149741574498 0.2762789272809698 0.13631832229508234
0.3525362366684419 0.18200950263666016 0.08253163119286455
0.39388798378706724 0.2714093868473526 0.1004018829811173
0.4568072304591624 0.2287319799907408 -0.029520752719065513
0.38598219747066764 0.29639335496931096 0.14728266587516714
0.5053359635621888 0.27245940836621685 0.06919355371050528
0.32988196308663476 0.2746130629947032 0.03464391887692386
0.3877475605575853 0.26145823020701187 0.09896834410045585
0.29147648089826816 0.25085342819065204 0.08329375586717447
0.2764111831016862 0.25099440840048715 0.05648279540091039
0.4923546890265982 0.2229511268550084 0.05679230544288316
0.4734884943788984 0.15850704497566426 0.0009362270744190937
0.3972239003360585 0.20837007463899226 0.034029895794873255
0.4148066207490757 0.29085846529140724 0.06561953112215235
0.39872193627218167 0.2190219170370824 0.014157679104272347
0.4601460615665047 0.2503106501216621 0.08137852371166332
0.38112065514201277 0.20632285541199735 0.08585628303582382
0.5565385976745745 0.26355272546936703 -0.042769059157862443
0.3619227685801576 0.22424665455163506 0.03898939913540289
0.4366605640097134 -0.03005807797856619 0.19892949078767685
0.17052936141888608 0.35672701545297514 -0.036437649951608364
0.18659153314582966 0.2788416395667923 0.22955616579285731
0.5767962304639269 0.2528453447251877 -0.008445826277835522
0.3971015288874469 0.20610778061904966 -0.011721794891116133
0.5001366191862928 0.32557547474029036 0.11615105542921356
-0.14315577717607653 0.5115277210846045 0.8304087687321271
0.43949992441592656 0.24421287162822125 0.0013271120526781033
0.33780054537248816 0.2170147352204026 0.020210322905398925
0.5133110027016414 0.1568375233533459 0.016733271206987865
0.3718952948184153 0.1798536737884291 -0.1047704319915681
0.3691444144830598 0.23157384305947915 0.013956905198739378
0.4930501375455094 0.19654085463069748 -0.03868590138911543
0.32664954173719707 0.2844698885408974 0.09679133418353558
0.3621476692272836 0.16017039025282997 -0.038471222357941315
0.38610539960095025 0.22514744444799817 0.05303999497573386
0.38463171797073414 0.2625343547806125 0.057331852753151225
0.4015159363831913 0.24227238914420468 0.03823788279296991
0.5085732670055592 0.22804007516219826 -0.014665340301874608
0.15173507397332742 0.28272051562251477 0.12204742453279493
0.4041959902075405 0.21684449958331697 0.012448840635755687
0.35311762700996496 0.24107855923195132 0.1367081223035882
0.38575009785918724 0.22050540546354114 0.005727835329111031
0.4709945519214216 0.19125879512446886 -0.005965943955970943
0.35588657708382243 0.25929609027221545 0.11229876509506198
0.3362212214512965 0.20556368136895742 6.387576875965806e-05
0.36363529582864373 0.21578665825182952 0.04437941058587569
0.39858217643930516 0.20648215135830128 -0.0337217698173049
0.26456370118827977 0.2717638542767702 0.02172761908732923
0.4242417488649579 0.07749959972051101 -0.046300450860087494
0.44643522692811644 0.21563520391346458 0.0056165345888246065
0.3832930339142422 0.2417630299857194 -0.010919693263687691
0.44396818410788796 0.1276675597116821 0.054722986235631765
0.3464916263527442 0.12881893126535715 -0.08742326059928018
0.4133101163197921 0.20082441808415297 -0.02038057679064309
0.4325569340192601 0.14115785235364342 -0.061057461625239284
0.4035208269696966 0.20469660231285047 0.0021904656890967544
0.3952623059441862 0.1938268319006795 0.010074767245782823
0.4083329452654709 0.22216396980171282 -0.0001858466052908625
0.4333359215031294 0.2298568245884951 0.03298071926488433
0.3917050506005779 0.2249067431244498 0.02464398725663841
0.36267909386762653 0.22459514285117166 0.0360086375484201
0.3570521197843277 0.16065913470046667 0.028174344926213735
0.3899976388194517 0.18991413515982458 -0.007820508561252382
0.4368372038020567 0.26466579880600705 -0.03701388287299778
0.4258811949308665 0.22229546045517168 -0.003665125839461325
0.3710872582486786 0.20199525118610495 -0.007778115122249574
0.4635228510705076 0.2695731958968395 0.06198099240609167
0.37113641195509217 0.11585884169717531 -0.035314513100033196
0.40700848235650255 0.21991574735400832 -0.008737738820002505
0.38597585779555743 0.4099665890432078 0.07606526645784584
0.34568738212581707 0.21690721766037768 -0.004608682858957991
0.4353723083334273 0.25784905458519347 -0.03752300364430994
0.4295057170651546 0.1704994636387056 -0.005823264209880108
0.433618175544197 0.22744693921143266 0.044950080532402126
0.3761265404394578 0.22565748424892718 0.021872665723464024
0.4012316985341329 0.23796891782180296 0.029477968773534258
0.34461331637406545 0.1819583322588585 -0.03292114069755314
0.3498857908313653 0.1886487269097472 -0.00018999148261400478
0.4606513663087526 0.2529410597549031 -0.052470027063506564
0.41057148330281734 0.19518984620458468 0.000914623573805784
0.3387602759666066 0.21262521529644118 0.033833463771060224
0.4211180673798367 0.2354638470781083 0.07205058596659342
0.4032359678014501 0.19859098088150517 -0.027222589275964992
0.3489791759057965 0.24421064768486644 0.05778552318247421
0.4768732966218181 0.24009843782221196 0.0010123823720391556
0.4307414066672095 0.19396668893853075 -0.018817704002856317
0.517933184429836 0.21691932706804096 0.02694902691405332
0.3966943127128246 0.22069274240436698 0.02348803800005328
0.34352428635182264 0.22220177721550272 0.003522041427856948
0.4047522247151818 0.2429575160816455 0.05311039957771868
0.37699495356548596 0.1873357052505753 0.09745078843502597
0.4088935058390746 0.2351134944494646 0.01034453470984431
0.40755408268857707 0.2684441123452359 0.0461195017361149
0.4408748033762464 0.228558667702913 -0.017183638242059374
0.37996059126255943 0.2148502543027604 0.03188189661671004
0.3123414569317333 0.1839097474099276 0.06246589388837265
0.5105433474861911 0.2513136682734256 0.031571116756623496
0.38305211613231904 0.19745761076509893 -0.048926616240322574
0.4784993166910425 0.23152156533711832 0.03246571021477962
0.43566694648306736 0.22301056219666293 0.01937318169289881
0.4015802941951563 0.2316255847533455 0.00236532595170047
0.4059658509353028 0.20610800263953877 -0.0050545914295980765
0.3919431371257929 0.21668139831187716 0.024810879359549176
0.3884828133192144 0.2580849667490952 0.013026290526710227
0.4933422926728639 0.21402124215512686 -0.006388477861307251
0.3969050077415943 0.2570391531868097 0.10424816341037513
0.20461286478189322 0.27571546258951685 0.15363606602151947
0.3277888289417348 0.24719012977092802 0.028226516107309862
0.42596134508713135 0.27897170935771953 0.11663425290694818
0.4048316732054218 0.19954099486551513 0.03391074342994216
0.42267792043736563 0.2422283632583344 0.03260830893330535
0.318006437895491 0.20070537255905663 -0.04310061918906172
0.41563016048772283 0.2411982529405492 0.0661792464798765
0.5045570992622004 0.22627226133218414 0.0014440997136802025
0.316003841558711 0.24614076744640556 0.09106752987275968
0.47703435110653913 0.25059364356070546 -0.03456510844016236
0.3311639578234775 0.18094372859647478 0.007658361003620939
0.37119653746340475 0.2417869574883582 -0.022861047491886666
0.41825076429353203 0.21679624624360372 0.016744009081321565
0.2660805760438478 0.2460276627078457 0.10287744108460117
0.4395399108787501 0.14287096196403581 -0.03256930488485921
0.4877435802123955 0.30332103842886227 0.060972721798805196
0.36227058330803175 0.2678793682742082 -0.047361601127150266
0.3700630052350391 0.2309168239039252 0.03687883467644326
0.39443845654341203 0.1838308178936785 -0.0077544021630302495
0.3989755371955539 0.1621954405775341 -0.07279415416977031
0.4624112166567613 0.2368664328494816 0.05223398727378026
0.36311702386947786 0.26168814235236937 0.03057256104838757
0.4176997931133144 0.2257570766036281 0.013463369472987097
0.19328567975284727 0.2932726112386632 0.12350682333556051
0.34198219966559407 0.2364309742065558 -0.0554730835232391
0.29620885996992286 0.21187493718298356 0.10408438042335888
0.3007072543263405 0.2612565909072373 0.1576786963412644
0.5175557289696258 0.24169610697364874 0.05479980500498982
0.4048764466188288 0.23456723774518196 0.01449627108067375
0.36441133830854255 0.20161641778224748 0.03929652673095063
0.627833281393805 0.3137541980427727 0.01463828968219616
0.39704743400494635 0.2094555033756933 0.01598715986631305
0.37862929929707434 0.29709612832786547 0.03770977196670344
0.33821811880056885 0.22822305983720526 0.048890647947843036
0.3805574509324714 0.21550672640026391 -0.003121688315744109
0.4664636699315139 0.2570283504745703 -0.038117557016533965
0.4812706327963383 0.2317934459854314 0.035119949426558605
0.75589891270441 0.40173037896698816 0.34823320739775454
0.3970423669666303 0.16095543874803298 -0.042914256504303694
0.23082325242096147 0.3146910552182618 0.046886826409007654
0.4462720399086493 0.1839182952555376 -7.3874698699683e-05
0.3859309459666349 0.21208726638334952 -0.003915676578856164
0.405020832914758 0.23747607952745398 0.054796059796842655
0.4060109335065931 0.21513047643468042 -0.016965549288642023
0.3356789108730993 0.26856120404821127 0.061026360240305166
0.4377427862002605 0.11709285556491977 -0.06315233892053129
0.2766982523210686 0.24732749533190201 0.040994954074577095
0.5037359618541615 0.20723371008328684 0.014110186600504449
0.4048302681977418 0.22383499612064384 -0.012563117936636559
0.41239135196917687 0.21715942682607192 0.009831686208215729
0.42546004768973944 0.24206501571183026 0.010330346792500222
0.32318084468950303 0.26367318556967234 0.0238739266236081
0.3693062970075971 0.185467026418479 -0.07415668312071944
0.44784976506585394 0.2291831937858575 0.006271325699742647
0.39194523010925764 0.22232777338587084 0.021457797000991263
0.36170845743214386 0.30878005904452266 0.14839421662392738
0.39419791685799055 0.23839987162311616 0.046016097177258075
0.4095497960088892 0.2210183136990338 0.015914466777005032
0.275620788175047 0.16578094711584868 -0.00595449441622975
0.45788756214896864 0.19969579361114143 0.007712879749959711
0.362691743220509 0.24437297791581614 0.06544703024678711
0.36340238710084805 0.20680288103258704 -0.06372914357922355
0.37834968810307146 0.23699216002813728 -0.03205283873420228
0.4196405316558014 0.21292945955487141 0.06281560306847211
0.30438619545816437 0.20576596764360033 0.0814809223798818
0.45842263933725746 0.21747395837594752 0.13030872687937745
0.3297056021688718 0.2347250279318871 6.986646312157063e-05
0.3923924794154914 0.2318365177245596 0.0180120404559716
0.3927503060973834 0.012134043352830304 0.46971518307660176
0.3752781411103001 0.23856758629256092 -0.11326472160793344
0.34570359267476647 0.26091087853615136 -0.002753379316459359
0.3112642203448388 0.20161711477067001 0.041518516639996506
0.3439271684683547 0.22259904145626308 0.08297117487975925
0.3546154288359844 0.22893992647684058 0.03827042776502765
0.5028030022841676 0.2225006341634952 -0.0033649255857426397
0.26863854644290086 0.20940622908563 -0.05011161681053977
0.4900764981474879 0.2367311824818472 0.02436877328310061
0.401418125294299 0.2481474830452015 0.07174813060925089
0.46332134821986415 0.3134249489768308 0.0015745335423389406
0.4014504658927791 0.22711398276203454 0.051560037671833925
0.4224343812682605 0.2503032410103998 0.13161278277365795
0.4106383015203221 0.2138141389392274 -0.07486324466469796
0.27484292635966767 0.21193810423203274 0.08527291067443343
0.39127248878850196 0.22103182774651486 0.028168942827505816
0.5099933813289113 0.20415096914310027 -0.08691290665554163
0.5117056744062438 0.2566705151004669 -0.0954882858231656
0.5551735765544379 0.17898444690199256 -0.10287377079181681
0.3584898412903357 0.23189325099957614 0.07862214517763277
