# .PCD v0.7 - Point Cloud Data file format
VERSION .7
FIELDS x y z
SIZE 4 4 4 
TYPE F F F 
COUNT 1 1 1 
WIDTH 803
HEIGHT 1 
VIEWPOINT 0 0 0 1 0 0 0 
POINTS 803
DATA ascii 
0.2493541058538824 0.29518680474350845 0.1514718409408431
0.471408088628948 0.2224087395808425 0.13988105922715022
0.35813763575964686 0.20865109200906318 0.021192212693023293
0.7411038825476339 0.1474787532824564 -0.07029979695843735
0.38171549599951504 0.2395797859224018 0.02617324316489089
0.5125036455227985 0.26556676916035826 0.12495536820509301
0.38745292036730916 0.1989039691710559 0.011634361116136915
0.38901588251223984 0.24502533733996756 0.06894369986278548
0.38804662333764384 0.20053739203697774 -0.02813175813113844
0.38630640318118026 0.245968136615474 0.03524219658588379
0.45405734129950304 0.26859624022732476 -0.03775632588144617
0.38171876111827885 0.27281981887209383 0.09581109650821418
0.508813490253317 0.20755566604674414 -0.08031692356087206
0.39853611659432886 0.2359304483589284 -0.006574903121403963
0.1419703352042916 0.34052610861482435 -0.039093503729418444
0.3958998447529325 0.2477659773619223 0.10104544432422813
0.4418169468081885 0.2159728194837669 -0.017144335936549737
0.42000402069857046 0.22305595375264886 -0.09296697768505169
0.33135283655064995 0.23657473647833172 0.03390801957034739
0.41351874254607424 0.2488473167908296 0.07446364990536836
0.35114035728423687 0.2233751016613752 0.0374136506295315
0.41005873524937897 0.2440620281353887 0.003633541053204681
0.3096818287690013 0.25110919052247027 0.10228666315180135
0.34363939885751904 0.22994124658671922 0.04715532525005983
0.3834277430002828 0.17448904050510805 -0.05443292983076731
0.3373477589746585 0.18389805062264486 0.2783054480375142
0.3560635245046342 0.24550584663721509 0.05958508169977961
0.28136528547739204 0.1893691360154719 0.039286177175355874
0.3394617707902938 0.2548246412897015 0.08462086542603231
0.3341629885826194 0.29747694020245774 0.09038935325104092
0.40923354336341333 0.21362552577748772 0.030093761456583934
0.4221158452305076 0.23391605430788331 -0.00030414257183508653
0.5137233361811866 0.14906194777918813 -0.12113756575683965
0.4036677405070179 0.22148951703366038 -0.07966201536507356
0.3780560012573062 0.16404263242556283 -0.03365531586223369
0.39836833091160884 0.1511978753136134 -0.04715918739270819
0.3059268205238084 0.22912481285045772 0.08912937505630225
0.3946031080029826 0.23994480884776692 0.09473579003318378
0.35927405458191686 0.23128939177439634 0.08713112404842605
0.44159193492865256 0.2657542881790107 0.07905619510265183
0.4025339287726126 0.2400484961095799 0.061521048989519045
0.40247184578703354 0.22568676118001463 0.006271855786806668
0.3151419550465846 0.273688210840362 0.1450015085482903
0.41471900749860424 0.25690240763444194 0.0023246558658769345
0.3811096695388869 0.24176291863878419 0.062295253112665705
0.409413318340512 0.21345251946144117 0.01819511081686187
0.400818037009401 0.1846952808280804 -0.0032636098851526185
0.27119374807439556 0.17167560492539735 0.05862303494018306
0.5364813167725799 0.3115464314111023 0.18465600635994406
0.38079847712128867 0.21739826867204215 0.016568918959990242
0.3987568637141976 0.22493591433320148 0.06107461190076435
0.4027873550855503 0.22397581448640835 0.020708804523309254
0.36118752697186096 0.3368655845492583 0.0867483939301934
0.3311223545144202 0.23706983445100605 0.04066289110699017
0.3943782099867974 0.24799813555921446 0.030948474598602616
0.253852632485831 0.21072495543688774 0.04340284245473924
0.42772810168426645 0.24195585043023016 0.01130336474966498
0.4269192872324794 0.22661548389106656 0.04128716596368065
0.4806614902521176 0.20603368912179576 -0.14848040728617207
0.15305090357659878 -0.0178122249589876 0.27176181998632387
0.35881990146056353 0.28898339893682135 0.05415558456731162
0.40140395119129835 0.2586198503443313 0.07979434836506982
0.31619436494415254 0.20867209141982812 0.12054024664914209
0.405350220334725 0.24427214690331311 0.04299177210806704
0.3928427608994127 0.2161844781271327 0.024609538654516427
0.3636659470643906 0.21819602343448707 0.0196025174686838
0.5019745815607735 0.239878022935045 -0.030792861586888876
0.38298997925743095 0.20752339582683987 0.008718028150951795
0.3531262901216792 0.22567796530287865 0.035716973078137926
0.38192449508133564 0.19023150962912894 -0.014524583211482422
0.3893724011182371 0.28141644916729547 -0.007895683525816821
0.45025380411300375 0.23511226416106012 0.047320452982901884
0.5004382371699592 0.21802986351799802 -0.06074713246079
0.37756668607333665 0.18427747614333612 -0.024345318187243947
0.4296045550597114 0.24714426106066867 0.09358393943736587
0.4603089365892288 0.19429031220042248 -0.04072046626289705
0.4512035373786887 0.24855257443302037 -0.01103119584081469
0.4079605761026812 0.25602614183762284 0.07601311516330611
0.38771699591684694 0.17044175913918025 -0.04246150107795188
0.4095455708327478 0.15084836269976165 -0.020095468083610513
0.5058446543367126 0.24863262969182642 0.05364447942619677
0.4316051589683525 0.21863565622906833 0.021871969990939988
0.40626714205212977 0.24693977138825574 0.04517314252717597
0.3544176226581328 0.2637805332209666 0.09695321976468563
0.4242332827661812 0.24766928500514496 0.13588378498658926
0.3919046393023109 0.2689340645123508 0.12058946714113006
0.37051971544524065 0.21519190330354832 0.05196960599110412
0.36383774335695307 0.21340098761118043 0.05808615258314376
0.48788519584851997 0.20931042550358825 0.01124222388895646
0.35769405391124565 0.19033707188897608 0.04125188101346566
0.4959303729283704 0.22428063758985672 0.030185458528592335
0.4707872274031786 0.20251368000569414 -0.06327212434214857
0.25320222099404077 0.23474192331585186 0.04152690240870527
0.4415581996735938 0.18669339412991803 -0.08141086452874902
0.4615066335842357 0.2553792199405507 0.05354725167779861
0.4292906550756328 0.2734969565486267 -0.10015180346718466
0.3515335884150659 0.2035508312460479 0.04126260710597762
0.43770094647184976 0.22531398621165977 0.021430685703336394
0.37346494562450516 0.21071910593406074 -0.051968766388384324
0.400104660861885 0.25251028694010813 0.05624690420060574
1.1488689815978148 -0.6214800001722836 -0.3841706344911131
1.1449014831779891 0.0447544355797902 0.19217166949695752
0.46236452805760564 0.24096741971229108 0.04671490928633659
0.3143608017526418 0.26531593424735433 0.28465174826673945
0.613916913297615 0.20117866211126056 0.05122417962803638
0.4220113013900857 0.22041943593413293 0.01636068966119808
0.41526293759393695 0.23112179330396998 0.04517847670666697
0.4509342048282292 0.2480781867113535 0.06652634733423213
1.7050774814108252 0.3824934137478806 0.9214643140139458
0.422924337705993 0.24537711005345386 0.04401448424736998
0.4134277725427751 0.24156704514712146 0.048098593296188596
0.46317203723893385 0.1934726221491161 0.019597456391380774
0.23354713326293108 0.25348312108863524 0.17126417546511163
0.41913167659426165 0.25197867677098884 0.06459839127093403
0.2758900025048092 0.2459454102781109 0.14748914060493235
0.20816516743428792 0.13296342465885402 0.1557895725626537
0.44022001985115367 0.16908608132496283 -0.2941434270759231
0.5430902911149929 0.17348031900903038 -0.15952723180177486
0.33736858952028115 0.18090396105174023 0.13937952423218292
0.4017421808495669 0.3239974373688028 -0.02349267732351734
0.40391117575623525 0.21061745469498305 0.006047619440749941
0.48436999566608563 0.2507391433831856 0.010179141536013958
0.41246301842389244 0.2077262262956765 0.05461315399514888
0.414059481528426 0.24539235771359813 0.027251965730627603
0.3506323904132955 0.21554371800097272 0.07050463747336266
0.34837992268640505 0.24896818573907353 0.0901368272251375
0.35873066802226106 0.28476707345332386 0.09895772446803619
0.40308069495168297 0.21841245356378636 0.004313273918910454
0.3418946876365112 0.3032189085919015 0.08839849234760777
0.5796021465623369 0.4231755757936071 0.2203426085595197
0.3938003544238029 0.22139650135729028 0.04102816478933846
0.4628787796298326 0.21779194246173006 0.005628443626164881
0.38247483877842114 0.20402849279732038 -0.02344577014820004
0.40056910849949645 0.22354704600154207 0.030306146400533862
0.42992550890977554 0.24819457589069316 0.00910678849932367
0.4022825063056388 0.21441711715594636 0.0278318832462503
0.4079324620524716 0.22823683291227326 0.024009198205646953
0.35730947940811575 0.24554300769355564 0.01776515496629827
0.3569063956244918 0.25470853707787455 0.07283339725550775
0.338254947312123 0.14251000395663027 -0.10761000616844285
0.39379349713567535 0.19341010484566823 0.10065680736695981
0.0036671117188973312 0.3536223735870152 -0.016597844907721537
0.3413752465169466 0.24990520044619302 0.07663361718451256
0.37652116917338674 0.20529484526679198 0.0697900558995741
0.469070635717884 0.2705872081496494 0.1207323369784774
0.4497667566569703 0.1872907436950868 0.0008821283292945736
0.34329061180554277 0.28684890336805324 0.06602858891550056
0.43936984515660527 0.23239404643078387 0.024442574684258034
0.3844083046572848 0.22725057645132551 0.02022103407875875
0.3397414404545174 0.25807579764585853 0.012624738768124644
0.44744288178006286 0.2619959923215731 0.09654212203223267
0.4246213378855259 0.2990467668453505 0.16347110421602906
0.520242410398879 0.16789364407368623 0.13447709411511255
0.3540692417947895 0.1681797086811514 -0.03620467087151269
0.37613813405272367 0.20094756328205676 0.03046071002566464
-0.15609447451601 0.19358381507332467 -0.2842237245712198
0.34836769653875876 0.26884609277018967 0.08542965360908283
0.38382950480664135 0.17412337358265972 -0.011953833775635303
0.3298160159516499 0.6283067776252835 -0.1894702318335959
0.4251239647142313 0.2006611512943266 -0.028658274870821288
0.4367327118719686 0.2305376633655669 -0.055441190014136055
0.37696163394254256 0.24405942800240155 -0.017840844901115815
0.3990957729101865 0.24336669537677835 0.052270417048688955
0.5138896629874097 0.22527179516555407 0.05293732064798462
0.4566195083453408 0.2575352779418978 -0.005342483969116074
0.42571243614544585 0.254600948962576 0.021570984733102705
0.47274342175008144 0.2666237244044112 7.611665756712682e-05
0.2878729111048415 0.29875199770907557 -0.02720689949362054
0.41063631979800164 0.22626113952705396 0.028639675719034585
0.4325086362476327 0.2130092642056951 -0.012482122637010207
0.42224882187903745 0.2757182918440151 0.07886889514605855
0.3706130031209227 0.2565950799552894 0.12234518461077926
0.42667991045634324 0.21229031766401363 0.0922618481650801
0.35199128006880187 0.2517800099127214 0.08231608023692161
0.37834797522938857 0.20850932616562545 0.006126906930262521
0.33235021733725034 0.279643095126346 0.047551461619747215
0.4438261548161364 0.21961689488711045 0.04889408041086085
0.4264440834258494 0.21826624517794357 0.051069946495260865
0.41069240522625705 0.23158255906605518 -0.042255679644142674
0.420141525288102 0.2528517870050848 0.0004995635239595231
0.3208934419972138 0.20132237824888932 0.00983197058820906
0.33544812358928766 0.2800226835483386 0.013898882741045782
0.34401119989612994 0.25588065825249373 0.046552491898751214
0.3382981927123865 0.20705585897783862 0.049548267971630366
0.34933535609087585 0.1965114063001181 -0.034070278401515
0.37587714899450475 0.2346663726723648 0.028528718765471694
0.38196042260790364 0.23261121595317036 0.05143644103851841
0.4187699178913533 0.34366729587966915 0.12318646597631755
0.3926476331749029 0.22908495071114032 0.01810151812972549
0.26209099297301464 0.22703833468055734 0.09910149180331018
0.46493998071483134 0.2114469386052633 0.04364290629359857
0.3975849143055967 0.20204103008683205 -0.08805973799057654
0.5050343299759703 0.22391951106406793 -0.03569695673672868
0.3356779413525004 0.2068531372846394 0.023554685654801233
0.3589848959173878 0.2193453348057801 0.12143928780972146
-0.575935943681344 0.5181490842340537 0.4108751536137589
0.41029219093724123 0.23266991553057892 -0.12593313005234563
0.3221786769345272 0.2023450691754647 0.16047779205518964
0.3968187820305218 0.22064091165788113 0.04185938479150764
0.3993820159289925 0.18174619258746816 -0.0008388212962131547
0.38793779999443245 0.2132599511134856 0.01570569392146126
0.33481259027564647 0.23473756959478465 0.04097995454134207
0.4067410919986969 0.24200413121465658 0.03603561771407726
0.43173327875712175 0.22795655810769233 -0.0423065465369632
0.4045774800678146 0.21221077811522093 0.03581670576394913
0.8749004808604326 0.4278850204353546 -0.2558287126428951
0.4020580552065667 0.19500000699333953 -0.00317712721160035
0.318088259328988 0.24000952158172595 0.02136717243382691
0.32406180321933675 0.25137324477137213 0.07765842099573206
0.4239830618332121 0.19028273449207234 -0.0016499833144649756
0.34921003200987855 0.13177596818243842 -0.07927598611988174
0.39866205126386944 0.25604169034042457 -0.2666708882040325
0.3750929880070544 0.1855674499659017 -0.00031404693486081214
0.4556615541928579 0.26108767368948804 0.03649731036320247
0.35118107575399904 0.2601592508372903 0.16072033414559428
0.9434938964069772 0.22088858511627052 0.1298921300309246
0.44375406803717965 0.24208080356321204 0.021121975126249026
0.3068461657357773 0.20957824907770828 0.10370545032419898
0.2768915921718076 0.17451507445406378 0.10122364189419386
0.2842317876851439 0.15456400876192333 -0.05914581563919796
0.3635702216144523 0.2770101516287298 0.0563827990315815
0.24870377700318613 0.2870907060064951 -0.03603675047546062
0.42755361080872945 0.18001326979197074 -0.10176528683510355
0.39948473402668583 0.22694986124480465 0.044527726764300724
0.4886794906322507 0.1912062627692137 -0.05743823329073905
0.09584285613831867 0.335414794752495 0.4008038571885919
0.36997422632757093 0.24481173605491335 0.06506697119046123
0.469386500475963 0.2236457270548442 -0.02549427748417088
0.417669289855354 0.1406784405097028 0.04450657459912577
0.41773395719785356 0.25225020468963066 0.02508198500569847
0.401857158311401 0.1653964727109951 -0.04639317979614077
0.03185215478569603 -0.060913548576081666 0.21269725982830323
0.3968258935110782 0.2124549828519946 -0.010466212479741444
0.3674850697990024 0.3197822413570748 0.09680786147839626
0.4382902882058488 0.24175884158353256 0.0556195850616632
0.3198043545127973 0.23759296565353338 0.0644664235392014
0.4067164942838559 0.20676844346635903 -0.007577894068290902
0.44858198085097456 0.20801188064589837 -0.027416995168366043
0.27421618288991567 0.20580668316208062 0.03730835033078961
0.39611044520910355 0.20032985166551498 0.001861558068242175
0.39350272058311475 0.2274156964389249 -0.008567040370820678
0.3898610059359413 0.25139822647324195 0.03903632149902592
0.39013927130633874 0.25686574767011905 0.07314740190625457
0.3770984943629827 0.28341472300202497 0.057085397542650185
0.330197269762067 0.36749498285794857 -0.27205832400633767
0.44641243067745506 0.22419197066616903 0.010933267208244501
0.3880106072467271 0.18837689243986233 0.006292960489133748
0.38696675986423656 0.2039958436264584 -0.015151047453940691
0.3495063744361886 0.23625475775097016 0.06509556463700505
0.3886289601465194 0.2461925598922221 0.0033186698013594196
0.3813113255378653 0.2540542279849376 0.04415987235771013
0.38320449288391956 0.23443430203587923 0.05332733354399011
0.35878004211167536 0.25214297375976 0.07810541886942701
0.4218463806793977 0.23892916591616142 0.007996439598599636
0.3935752397771779 0.20395665006870445 -0.071527729770267
0.3949731519088573 0.15498705260137058 0.000518491656777087
0.3759927816588089 0.2448863946857216 0.07694042854441818
0.4612745314695985 0.18778717290032887 0.013686106166318268
0.3971541921813184 0.22007666667198578 0.03964216626712869
0.3849113897755956 0.2757105841694738 0.04272145286428497
0.4684782179700733 0.24731415406725432 -0.009510805658578647
0.47849865387566126 0.2095237080030472 -0.04474291487508708
0.37735635019912195 -0.24124059724464075 -0.07056504353343485
0.3321806471908815 0.19957692169025165 0.069797419596199
0.43084044706429836 0.1654929853763747 0.02139854628697435
0.3831523179387659 0.22035749463825027 0.00035225458438503665
0.39944738077824127 0.22568714606488527 0.05250958525846272
0.41966044957516146 0.20355630235691535 -0.01850871337285298
0.4235607455601098 0.26322126614030594 0.031079112930740393
0.39534777647131136 0.2313588850583983 0.049509036408636575
0.4427883528328209 0.2251669433111232 -0.027902696201920207
0.43305070951095104 0.2405410913409014 0.1219286401592683
0.38001949640209887 0.2011328719704295 0.00297113156142359
0.38762743914489306 0.2569721812235457 0.021879258558584525
0.43385377514891843 0.3079724367260752 0.09166016722818426
0.3327913599879935 0.1918851396220873 -0.3831009682603508
0.4323426756980666 0.23035440263664952 0.02159134328880441
0.5571467984355536 0.3549970822339503 -0.03469516615740531
0.3700744635583817 0.25263511474187794 0.019368546584445312
0.3716990062133618 0.20603096735372617 0.10952528329548272
0.3182520852079165 0.20813344998617822 0.020303419731632744
0.3074440911755971 0.24647542843800352 0.07836161427016464
0.36541719406631046 0.2331276167590488 0.08229064398796027
0.3669544314536495 0.25908640945114314 0.07297431707438307
0.37469094965794625 0.26574963494151405 0.08545133006313677
0.30447131531731486 0.21112968862053094 -0.030446298282328144
0.38399584057859215 0.22573865238098278 -0.03495714416230555
0.2989658461726208 0.18512852916720135 0.11908870788434456
0.39392914232003307 0.20238966234070688 0.04238157671909448
0.37672645010940187 0.24185316238067855 0.07361964408094934
0.4260573893737103 0.2215173490122453 -0.06709387194516125
0.5716927306621358 0.14858314662586736 -0.10272342413924207
0.43687988558095014 0.25315104175373904 0.06593071566726394
0.4052662158867406 0.2180846380352648 0.023043962350044467
0.3721842919409255 0.24304972411158587 0.0668257434463726
0.2385300932065917 0.16224936371168042 -0.10072304541978383
0.39546675212159244 0.23084682210881624 0.030954709048216955
0.3887349867474086 0.2810294257163548 0.15987723506096074
0.5392814362247975 0.18820377949231215 -0.0659385740107723
0.45866528734514134 0.20396328163459998 -0.009261760121034968
0.29112968571845954 0.2271978278300253 0.01888133179960505
0.3510250085017077 0.25080107953380093 0.10660270369380953
0.3572956879481808 0.23347590471647095 0.04824706926120825
0.4036660539058943 0.2048672219448946 0.02441095409150762
0.3808969874650785 0.2253278251008055 0.02304524008940234
0.42186619515315726 0.20324979457225822 -0.02815701908619417
0.7723566856005846 0.35025062718088407 -0.17323668113823487
0.3733569613901153 0.23478294030306301 0.032552505822280864
0.13825662807843742 0.43030950613830043 0.29652369170807447
0.40691492474418567 0.24438799875221662 0.046021335940366725
0.3930190035849961 0.23150126485148803 0.025617637351956546
0.36042655484095576 0.24451861979559908 0.06061892662987134
0.37167942920621044 0.2107822029263673 0.10450901702758131
-1.0861842978676748 0.740262602086176 -2.2020193734544193
0.3639842613728206 0.21531850889103055 0.04240694025611447
0.3687421266484421 0.2221132674197861 0.04515116522324547
0.39481518167266927 0.21976993806319456 -0.03698028476665627
0.1996723330825887 0.26577534887297816 0.2538784886233145
0.38385733764495455 0.2502289089495662 -0.001993137822267954
0.41174472402317974 0.237269897359198 0.06001036966321749
0.4941164100557103 0.20939648348289097 0.05016033845058132
0.32507073734799974 0.22848550118916933 -0.04731569734758523
0.41376753543775635 0.23810977667716315 0.015512554683269286
0.41111031673679577 0.2517482057428282 0.09557299819876164
0.4443903991760436 0.2596481545166114 0.12595591317648314
0.4269738172945807 0.2522875083082994 0.11086312657504038
0.4337786645119195 0.2574531801900264 0.06363452158338134
0.38802899068539887 0.25737903913238824 0.13158591754344684
0.3897955311043262 0.2753788171957581 0.05325587944432186
0.5628187415068453 0.20793948797816597 -0.03833266600746299
0.46661874287718774 0.21546196333105172 0.056088295535232646
0.39853622036977754 0.11824483220257775 -0.1255360927901279
0.3045958569401819 0.16877087922192402 -0.010495246080694187
0.21555736296900818 0.10994367974191732 -0.040902281781384886
0.4349679629832224 0.2669308487073181 0.1164423008781057
0.3958309494749983 0.267259001247794 0.11827529616358845
0.42811776667477375 0.2470718012789206 -0.036926613431433
0.38184808575134355 0.1985827573809047 0.02409270715216394
0.5963160982846176 0.40903207063738023 0.6523991082303553
0.3791076129257078 0.2270778838260128 0.037010113644640796
0.3644320127832117 0.18843923553936293 0.06669574010061297
0.381609801402476 0.2306387697512804 0.04797519675781814
0.4490729392356769 0.21057051669615134 0.004275474008011315
0.41649747183538466 0.22711579142460891 -0.004417737270188127
0.522291425487623 0.2724831407665107 0.018103235722847444
0.4290466045203516 0.27505398866438213 0.11495205335603487
0.5366915681759963 0.11543459581133675 0.05411644366040491
0.40673255972004085 0.22938534371880337 0.028227630885751864
0.23240537920237614 0.14271387208012243 -0.024076711041914223
0.32673781039133587 0.3113947458394932 0.19919718801514819
0.41095401750257565 0.2374553651383451 0.06422984882692617
0.317543610587947 0.2550984380875718 0.08275227758804249
0.37064992976849 0.23164194442759367 0.056069694848190466
0.36239467323301255 0.204218450120635 0.04955984832078286
0.3914978472550956 0.20149923131415903 -0.03679729453438085
0.44797746049053444 0.20800234574653587 -0.011482235875135416
0.4560391478426027 0.11902839201113125 -0.06488882102927107
0.23580217214706067 0.3365445422812172 0.07952843297960044
0.33153706713699194 0.18556092650696598 0.06407065595180939
0.39964486734315585 0.22464152795950554 -0.022751378407321
0.4273666001738974 0.2583638440593745 -0.020160886725790306
0.41947418821209226 0.22343328082754965 0.033910326231819
0.47335719923306385 0.22730708479981843 -0.006088893909705462
0.4099587960457711 0.20438198438625932 0.0006039703279583364
0.29237705124192814 0.24122868306193368 -0.013283856951318285
0.4289432263815911 0.21939042100692063 0.02046909554388776
0.39015111948341996 0.21972921565071601 -0.0013597513141974105
0.3729193237773245 0.2371747492541374 0.03161297089437198
0.36860927346074845 0.28626502926613284 0.11202522479526067
0.4715072437325034 0.22982670027758445 0.00386742808393592
0.5291709094689452 -0.014770436489243366 0.3143615165830056
0.44583335240047006 0.2450813615344316 0.0447355556650848
0.33924079897980164 0.22607846106205898 0.06411434529323401
0.4043517258015754 0.20740774657804195 0.019750845992902555
0.3886968301430045 0.22540533598910883 0.039226752962832734
0.3848858369251502 0.20264837640856115 0.04927148758169153
0.41448380819102226 0.2425475548596694 0.04452085472759393
0.3487792163873564 0.19448150099694317 -0.00787862266830075
0.3752998907432925 0.21931242682997265 0.04273754904616567
0.3613476082836371 0.2024123629284702 -0.013877923161544459
0.5088296482364285 0.14845988461189563 -0.1152720289498177
0.3542138028527688 0.15870732549075228 -0.08361690691016577
0.4005959959443999 0.23942312551652378 0.05155656342053305
0.37332987552943564 0.2457379962326911 0.05656124932474427
0.3465804492066127 0.15033870971534213 -0.08279072444723568
0.4166884537597326 0.2832322855138045 0.09823910622498033
0.3973954802273596 0.2325916538071624 -0.007428990254680912
0.42624095711313714 0.22170951978023368 0.0249702161552392
0.40426481183305896 0.24084444408669015 0.09814674895051212
0.39876010672448103 0.2378827058625177 0.013504211280206846
0.4108627808852532 -0.2638694295022077 0.32479777845279045
0.4644381299645204 0.20454675086335783 -0.019136362792579575
0.4237310878751259 0.22280373808186482 -0.049463033338341234
0.39042053968991297 0.16470615172886482 -0.06084736160013904
0.4290759161262372 0.22318426817274428 0.01599470198030417
0.40168215165004995 0.22071922631045027 0.01067757712223738
0.4019915065945412 0.21999534621298267 0.02067649246198755
0.38351565332965265 0.18130342226470475 -0.03038725805862441
0.4395071980323735 0.23529905001102236 0.07028122426108041
0.38398699180152107 0.22350479657549727 0.09533873581648322
0.403237586947256 0.21590220490104173 0.06991256340148766
0.48290631045962584 0.17717634409001448 -0.06260794232426292
0.40931387389137797 0.2608143292618763 0.020325872788816923
0.4065763978357637 0.23890002636868246 0.011614550396444656
0.4052105741824903 0.24104091053698085 0.026749968085212572
0.4308836243001224 0.22405427971420977 -0.00017632606710549226
0.496048078866977 0.26845464039161016 0.011572497854899666
0.44208987299461455 0.21439755533374694 -0.013375278954612213
0.42398364467034355 0.19170012235878175 0.01572951593095695
0.4457896327014055 0.2435316204449407 0.0021624544051945804
0.3180644618650206 0.16566748742934578 0.019102513227352347
0.2794141705818731 0.22351915798920174 0.06446391426977982
0.5069398215294996 0.20515129101448792 0.010292952406160794
0.3962325577479078 0.1922241113033465 -0.03694275842153161
0.4141102014864373 0.2156703419935866 -0.005796988131010039
0.48578516785462966 0.21244009188468738 0.04296281699016902
0.3501553691015431 0.2294662501625453 0.056786202624849125
0.4048894431741985 0.23103805878221806 0.05488665267752424
0.3666958253922985 0.23807041560151276 0.09544900468169715
0.4289157376504136 0.26501978379326374 0.14796521689979159
0.41844014601922197 0.2239845264668645 0.00469904399901111
0.3878311949971618 0.2413058516519868 0.01962812755581922
0.4316283565502772 0.269056933991493 0.10549015096026437
0.27254410409960883 0.24802957009600846 0.10769674086682812
0.42742124500006184 0.20865320828249878 0.046981622270607204
0.4339361775610797 0.20918517929958114 -0.0328924157556969
0.3909107283947719 0.21156806625651825 0.04039939668925285
0.3936143660765481 0.22771479989350496 0.01905042943258195
0.49938814183092006 0.20669202829400035 -0.013675081065059658
0.43447968012461047 0.19318525906007267 -0.013255256329514964
0.15004514341586628 0.2190134432074018 -0.08165590282266066
0.37079997742108617 0.2440635218358551 0.04695298191261088
0.3964383918193164 0.1937608158323627 0.017653693778882484
0.38844932611368677 0.22505416698342628 0.014492961704860363
0.3802074492205634 0.2328570554849705 0.06088907761916573
0.33042725387497285 0.18003567684645816 0.00897252666783288
0.4251761781207364 0.22639865508789114 0.02379746708382413
0.38638132748832277 0.21266948111394868 0.04793773709963034
0.44293065022841915 0.1911191146128317 -0.06034691345826104
0.38914716528528004 0.20212035586732213 0.034692489603486365
0.3467085675794124 0.22604357029729272 0.050643319486937344
0.41714450718328067 0.23320054060249618 0.01518786381710413
0.38353353783907096 0.2225068270379893 0.0289069166489071
0.4011199512196413 0.22520102233117711 0.030156799471569684
0.5090628048290569 0.188163785852538 -0.08797121573707045
0.38217611270738416 0.1909469143477054 -0.01755388039211425
0.5015926946195322 0.24311754415863618 0.01148380651301295
0.4157417249538753 0.25512120536981797 0.06674795219907992
0.1858555341552517 0.23944650775888476 0.19419291298243024
0.48957903017668514 0.1470349810983862 0.05562489906549217
0.40112316573970475 0.21676886254739713 0.004674797301220224
0.4286094401297049 0.18115924240265713 -0.06678536836842852
0.39037757386977034 0.2532815916582223 0.11161450150009955
0.4634727163976322 0.19249535427044862 -0.02871094925245643
0.3518490748036811 0.23284608722279643 0.13581016482569908
0.39246268088601255 0.24525879089109992 0.043755795670819
0.38253234550666093 0.2351772516839361 0.04044101385755994
0.5112682671423556 0.2962972969899056 0.06145023610785927
0.37842327651070207 0.21384301771075798 0.023394761250045804
0.3975432171882147 0.24878755301162414 0.03537492893850924
0.36933059211099817 0.21731584394703418 0.06425236502067833
0.4306895065851677 0.2339969444062575 -0.048543600322418
0.4018425630822833 0.25665286865057624 0.06439646954842715
0.38057839744328703 0.1863383959671836 0.02359278003920906
0.4098900928407545 0.22623460703923115 0.017812125279249358
0.3244883915924959 0.23251749647006648 0.07130546232974666
0.3712045646725244 0.16067829128009237 -0.04643199159733058
0.4300936802511046 0.2184016771970505 0.07180526623980654
0.36310162390508083 0.26658812659619 0.06354563511899869
0.32861280689169803 0.2027375023471052 0.03631420873429647
0.3723898060665931 0.22183524879780236 0.052007473476919586
0.2909771925135374 0.2243306289762188 0.014129541806624957
0.36676958788441993 0.2311832239878413 0.011957225921321424
0.535607653486494 0.22738501533791577 0.06928092522778684
0.5618221064724622 0.2113265346382036 0.03572166707712654
-0.4930435227174996 -0.9695472517444728 -1.0323582244174645
0.4125213479961616 0.2219665296681228 0.0598804832072517
0.19593014409466036 -0.003001381648999768 0.1730594990916785
0.4192907389312097 0.27731099680825366 0.10030443753220197
0.3413042521462444 0.1392065370947222 -0.020195925077757693
0.35118983145065386 0.21886616644823675 0.03367060658808896
0.4360141988730959 0.284393123193297 -0.02451342985023075
0.386758874177616 0.20401754015784945 0.009962604199358793
0.3896335362779837 0.22435670038652233 0.015457054892124233
0.3745539531768429 0.23948701493526414 0.08826775765902539
0.45766772126305 0.2411773375416999 -0.01420933230477317
0.4030969823115811 0.24224702701059186 0.03579557420131607
0.39437016672556524 0.27853226729820335 0.03530757297043863
0.37972071178378997 0.26650466581048704 0.0683947490543062
0.4480358778455127 0.21139976329106958 -0.043821414793768554
0.3261714349333289 0.15324390504231644 -0.04818377621081993
0.391086194506741 0.2405491390969985 0.051867197203392834
0.4007469184643355 0.2162269452078931 0.04690496656925802
0.4422625239829756 0.261461554927493 0.11255558687179246
0.32359014080702764 0.23292875862233586 0.1003136386704
0.43552406117652254 0.2290857718336099 0.0012395154624726956
0.3925662226314728 0.3009372894445903 0.1054751430771006
0.4128513663172271 0.23302130007861876 0.038657659052347526
0.3772857354838379 0.21725107381799091 -0.0016710588274690963
0.4832679355417042 0.22294662592942416 -0.0384524708206726
0.42020643444885764 0.24453868400146916 -0.031346762299421016
0.41822747430948937 0.24112621417147295 0.01759391090314466
0.4248941682076577 0.2322848659881629 0.10316617870162759
0.12014907561032828 0.24678206767590893 -0.08736035213586035
0.3737101778008878 0.2379940167281518 0.03774241797725608
0.444364601492623 0.2469831610885933 0.11086616135810345
0.33051238877763467 0.2356752214568445 0.07274711636429743
0.3988056253060961 0.22234943032216847 0.006987695992378917
1.9025955260071186 0.06319777737941479 0.40926045355152496
0.4152763095487444 0.21694982524101647 0.029529220722068317
0.44991982303179157 0.24932666763220368 0.020271430313556493
0.45114920426652816 0.2704960201262452 0.047946815437285295
0.4660934165411277 0.25625952219739645 -0.007115872285169189
0.24806500010518562 0.18163708984943128 0.01928649017665407
0.14250400763772575 0.34871817177347 -0.07853249597155809
0.35793282620973343 0.18571143004180612 -0.08491182933462937
0.3285887949348876 0.21951289299704513 0.03969825629124557
0.37969492181107967 0.24360999303851827 0.05480673576960271
0.3892589962782438 0.24807928284324987 0.07595236479988898
0.3047388049284905 0.2407605396280985 0.065684368611727
0.5025465458046767 0.1381565527869668 -0.13680044951448167
0.4091524538679181 0.1641781202093 -0.07306325892594145
0.43476038474969414 0.2836211155833439 0.09355734388475412
0.3763974326649304 0.2577667291702852 0.07603597396555983
0.35561202824762006 0.20650645823133118 0.006898553304068855
0.3560540792999234 0.29074911580062235 0.06492888126473417
0.24547585168735964 0.08695448824622076 -0.012449579824249213
0.3804875397918295 0.22021964717696108 0.04836939788259542
0.3821337964300824 0.22317605479565827 0.049368955634264466
0.38444672552353154 0.25723757936216884 -0.06574189555917087
0.31872475156163205 0.22717334360143582 0.08123716704987771
0.40408902054403484 0.22154125336085428 0.008474675453342684
0.34947939847839393 0.22817023588879692 0.06349977355102965
0.4204130499883263 0.18631177881695749 -0.01605711082753203
0.3334867715352203 0.21392966402216018 0.24046363192179854
0.1916047975219044 -0.026577170057436206 -0.17058740069623468
0.4671432674225855 0.24879727750722225 -0.0036189044080003896
0.3953988127905319 0.2580777694025187 0.06876047774761673
0.2923087128930604 -0.05357940422207719 2.861482419016113
0.35694953801699114 0.2355003233521984 0.019002689469886036
0.402391679963614 0.2092642599309329 0.01628440278940957
0.37948748232000185 0.24049366078050127 0.0451209334361522
0.4102029638565057 0.2612385648782123 0.1083647498264213
0.49738017055207706 0.21961723217324902 -0.03738923047302478
0.35033135669145565 0.1999032562745242 0.004603132727382331
0.5245863491044105 0.03627416885494483 0.09306063445609425
0.2855554728199934 0.31311822872493167 0.06625007141758488
0.32744841351554044 0.2387748120645199 0.0728458630791664
0.39668051681209704 0.24827521214314174 -0.06948444832539735
0.3316880070804018 0.21893377498636823 0.018143379049334385
0.23733097775927092 0.3386784361580055 0.09323474085628902
0.39998521923877206 0.17641567902123256 -0.048883813025383915
0.41556695295989243 0.23721148745840992 0.008897391464103066
0.43175084807579367 0.23871151705009197 0.010466789515533037
0.4439338845267855 0.2555325202665699 -0.0003242434976016284
0.36472720526633395 0.2898715162537826 0.03615801815112718
0.3259991721358233 0.2323463728945967 0.048867143138494384
-0.04000264116082519 0.3145393602008255 -0.2132473658387255
0.44846169968460003 0.2477810176538071 0.05775237084338869
0.40235765789941524 0.2515880747011181 0.009158102181189065
0.3565084031005483 0.25059189020666395 0.07581691402261015
0.35881566680281196 0.28939455996476227 0.12712331795157183
0.29978001258189124 0.07592076286303495 -0.036976761112129
0.44301443434397925 -0.7415092076549712 0.058773602805032965
0.43011462033878445 0.2113837309750295 -0.029705043639353335
0.3957371276561048 0.25841983319352835 0.17491557345552167
0.3046116930431708 0.2080933039895001 0.09268631873192135
0.32459168743832834 0.2191484293830115 -0.03643895547129716
0.3515592252253441 0.1662466565121008 -0.02572097167185916
0.34119828570183586 0.2191994327498321 0.037367137671708406
0.45280704821999507 0.19044708513884245 -0.03134241831435247
0.3507701759960469 0.19502086042240308 0.04417114334451355
0.44136156926640524 0.4213018947995124 0.10108691708924766
0.45083437126058357 0.19200974216056466 -0.043665410320485876
0.36920430492440914 0.2606221784199647 0.06570529329690089
0.39228779861770136 0.25095479889714056 0.023277180327639257
0.3841105675979861 0.16855842347314365 -0.07916352317566577
0.4275166597213058 0.2251970340736591 0.07275446764569438
0.3906958285593305 0.20781550093263945 0.04612166552084318
0.41240426902285776 0.20523047474904388 -0.033919706536380545
0.37811357124896006 0.23720747565627676 0.021324205375279348
0.4283055439559149 0.22274429920955185 0.00019951840364740292
0.29999744347293245 0.2767289990793529 0.027556233714435052
0.4049232447866018 0.23083258663312733 0.052984358595821845
0.3351721907810088 0.2613061438268858 -0.06670047259473222
0.37765294583529396 0.2323944039361976 0.035048169669252616
0.35431189372982885 0.24646395777978114 0.07259046171105865
-0.09204800770523036 0.23367652675803186 -0.0016455564789623622
0.3991511137649013 0.22962093671087302 0.01621036421576605
0.45176325995345223 0.23211458612721003 -0.02266252033412286
0.48718996395496106 0.2405801398128915 -0.02951577282283324
0.44324597175011604 0.2035677432174623 -0.053908946381113765
0.4011165353147561 0.0860163385169983 0.027784959536546694
0.43932468170517325 0.24854829898448827 0.045710489601219706
0.43271186335576317 0.2252715198648758 -0.04010993240630967
1.0054009731397855 0.05412577622627168 0.1574785971428554
0.4433132413638532 0.18326919273229691 -0.0209080089900624
0.386077095641582 0.24938047061363022 0.09018105627563955
0.3470755473692293 0.2931254299950581 0.15053826420226812
0.5556933671205684 0.1260258604420983 -0.0647166612094594
0.4531870261124453 0.21191316805602867 -0.00659435829734889
0.36086113529594854 0.21445482275959193 0.03213849899368881
0.37438779786066334 0.19053195082398133 0.17526062662916786
0.4156112095455029 0.22172452850205104 0.00948436800186414
0.54002453187735 0.10285845880066802 -0.0788175898179162
0.48421119303509386 0.13935998578702424 0.008970940597180288
0.3198201809686054 0.29611800839225566 0.06260828693817189
0.3185300655955814 0.21853374130401448 0.052812703846043973
0.426516304442373 0.2877576355413254 0.07283658260553239
0.2959724433455051 0.2197872693910341 0.0912327244740112
0.3099762689565182 0.2029162190172542 0.008097320341860836
0.39419002872010367 0.27808944166488914 0.01317658817511358
0.4154958347062774 0.21010353542317262 0.006828356204451325
0.4599528378492437 0.20394405023320417 0.010555674810177607
0.3974952649804777 0.23338374724072253 0.06189089258097624
0.4018613779202269 0.22930247007664661 0.050739363439788576
0.31401005048806496 0.24852729134141782 0.05459487649520156
0.29706498814884696 0.23159273171498285 0.07166129013528177
0.3417557692885964 0.22534424338181225 0.0205562142265876
0.3852092783581327 0.214308095564121 -0.002690493567655494
0.5494475920746993 0.17866782720969354 -0.09169075465368337
-0.07681384233399058 0.05728764187847446 -0.07329600256863955
0.3870098903562962 0.25886920323063123 0.09111829298882412
0.39550829871097903 0.19489410925005757 -0.04314611219697895
0.41060633146685177 0.23656566348319075 0.005928983334854365
0.3971581508731674 0.2236997880535796 0.03164471140991054
0.4193496567202999 0.24015690365025932 0.0623808629944449
0.3068688310914496 0.2433868811589548 0.12288956973745258
0.4818458922559614 0.20565415833758038 -0.08672611516905704
0.4633868493137925 0.17472801272271 -0.07768410593378405
0.44692673851110953 0.19483091295094823 -0.102700225910624
0.39092437319833095 0.09443313129321496 -0.074132891738941
0.33166546967116517 0.27229154098603203 -0.05550386050549605
0.22991222282038848 0.21397605604636283 0.04342090327330084
0.4265576043765691 0.17187475185033918 -0.07436824922152141
0.8104422662353841 0.17373700915993595 -0.13659429894600805
0.36728843829587277 0.23716484408248562 0.0821373925915907
0.2805585236592094 0.23876856379953892 0.08594179095675258
0.4399165948076984 0.24834428615557158 0.06146994508341663
0.37417964201179643 0.2992790186787033 0.06374242226050342
0.3875193112997124 0.2212288875752364 0.05036075504588666
0.40689912138910245 0.24539863384238458 0.15344749185442197
0.4128930181881856 0.18271173333170054 -0.03876944691083395
0.4444834015146597 0.12450749532399641 -0.12356243076709461
0.41770008454882657 0.2069438322457131 -0.03319981331837596
0.4463797942735539 0.22630787239639005 -0.012662328746927187
0.2649341731626009 0.2861119607182445 0.07795136946623415
0.44436039292853025 0.1899203964749745 -0.06477494761922742
0.34633341462763667 0.23615320113790972 0.05834164522978824
0.32400452824862214 0.24993410963364227 0.14346923205377493
0.32663048509550663 0.3551638627201328 0.06733866707681102
0.3784253951335188 0.2112366548305431 -0.005648900849450911
0.41074882706143967 0.2322584455243799 0.0036099127241442375
0.4124616519786457 0.2424214573543111 -0.047652884912395166
0.4029556725794521 0.22518980874002636 0.025035685213396164
0.39291553676235935 0.2312025865271039 0.012329503341106829
0.4004855491981516 0.2150202082829793 -0.004806977538208912
0.46837473050521794 -0.7021555372138835 0.07999444963047608
0.43598496517111585 0.19248545227635816 0.005378342164704009
0.3544125876856441 0.20712096275565273 0.06494379139269313
0.2689296855731982 0.1939001521668331 0.16372364170692322
0.49995719428963525 0.21201156468100635 -0.0035652997748343296
0.4487347054682118 0.2255542224796585 0.010767253645866504
0.3824122519105657 0.2084653437307793 -0.02754833837079218
0.3049906947281329 0.19579524825427086 -0.002515373977217905
0.5123859538544764 0.2506204120502247 -0.05339620608248197
0.34449748501214117 0.16759793235775078 0.010040610060713107
0.42486986308088603 0.24904272470919864 0.1495203524170421
0.2619351248255555 0.21168048416294027 0.05998461256140786
0.3514019406511011 0.24800021549125972 0.10382738854232798
0.46358440749659735 0.17011587841996345 0.016603032342189294
0.2757005419083214 0.2064083342390859 0.0397167054092904
0.3938651707724148 0.20879907680968302 0.01367361286401092
0.37252862561018674 0.15517774809978846 0.0074657532111359615
0.29149222565970945 0.3096911089165246 0.1935306443034932
0.4185683844699781 0.23665551544641517 0.025497482611584132
0.28871213274018714 0.24980834026243315 0.04064635508456149
0.3102947511555385 0.2554897544029018 0.06566195557920196
0.44853994774260286 0.23970422397212587 -0.02154930429530566
0.3611723305004375 0.2385725846268798 0.07425565448035343
0.39762653135505843 0.1790183170085129 -0.04119582180409509
0.4277562157367356 0.21123221351049892 0.02838502512973662
0.34830850096309973 0.1810877795806789 0.06917845419367552
0.5173553086244453 0.12433988210396762 -0.07198969703131297
0.36360104618040623 0.2512796076149755 0.07060557306647297
0.4031430121805215 0.24537121955353314 0.03268966762975367
0.45136667458695 0.24642589136237802 0.014380644801946119
0.3670973695294606 0.25671201118800013 0.07872287365506736
0.42611766100978343 0.24707571696401942 -0.06328731511081287
0.28650652904913443 0.22865140623531488 0.0005817234957987694
0.4516301130044269 0.24261180085920842 -1.5454454370456006e-05
0.37127406363291016 0.19267858433356366 -0.015320220878820123
0.5766625636101708 0.165112219537491 -0.047335860077353686
0.34741122942583047 0.228807789474331 0.03664829719359375
0.40231593282594247 0.31546604531014566 0.08729428536602768
0.423617435272547 0.28379120230118815 0.14781236973686873
0.3766012313863314 0.24577152645866818 0.052663937236843594
0.4029617443763982 0.1932105202907337 -0.04343070726207543
0.4105779309606703 0.19268045679676504 0.039653250378364646
0.4663354087815321 0.220183318647301 -0.02790757216074269
0.4780049513623794 0.20185532135366202 -0.01668375498320529
0.32814203174297063 0.22318684419599322 0.023511397072070395
0.14083424716932313 0.1938770133174188 0.18912735841603023
0.3936378881165865 0.22032214660754335 0.030789712325741903
0.3910317752811068 0.18782194136139196 -0.018950575843774686
0.4205918714250174 0.18196726885923908 -0.04353622733890461
0.3667111288728222 0.23938021792653785 0.06395660529551606
0.3770772882532185 0.24123267659348357 0.005222484946585837
0.8534876181916218 0.11710403622682009 0.4624834941167535
0.36770391397763547 0.2078274963150477 -0.1378634705511388
0.46742596100666844 0.24285431760233678 -0.001270698530760228
0.39757434686103466 0.2280669910388724 0.010064905929141332
0.45883830690132754 0.2527417422291336 -0.004102423776629394
0.6574826506962665 0.18261395057396612 -0.18026524168601554
0.34426749940683976 0.2908828375439185 0.1524293667029184
0.3551890685713772 0.23866424564539557 -0.2854342238223069
0.4010044953433436 0.26362828415889794 -0.008292626353181731
0.4605241756493115 0.23122476876952192 -0.0020036067961939352
0.3649591226320297 0.2684796024262681 0.10293398141621424
0.40508170898914386 0.21411384103039666 0.02864205723628288
-0.25416053544647355 -0.6397676493318869 -0.4437682205481366
0.35232587256652437 0.2598401474496086 0.09267825076818781
0.3745067021205841 0.2754865135935347 0.1066713545998681
0.33646588783059883 0.2539063758449629 0.07206303408160863
0.29567671708858256 0.31561552014019867 -0.4010721237315096
0.45912134988910225 0.25935273937636794 -0.013035419733270714
0.3710343956190343 0.25702595695724995 0.08307405362536713
1.5628171299507585 0.42904296979520495 0.8200058233105949
0.29600493379885506 0.38820084539324284 0.06110642941352751
0.4138885721367842 0.16304903029885054 -0.053381557362996546
0.37758819765693374 0.26352651559832907 -0.046007658157336095
0.4274965968745619 0.20030430407095423 -0.014269111705715432
0.37371726593792687 0.24020056718678973 0.0596626363315238
1.8756613039332137 0.3093875216821971 0.7296176050601844
0.6396800439832617 0.23766197637186792 0.043524880857489734
0.4419673955197254 0.239732680707192 0.0819492187361277
0.3934775858764823 0.22215684885249232 0.03490910934552005
0.4399440311396603 0.20263120550569624 -0.017943858562432524
0.4193196081687063 0.21344929282308556 -0.05002985808501137
0.4131483822514497 0.2389476430710289 0.060210484067070524
0.3725668164818785 0.1926382790563963 -0.11079365041067035
0.4371422649892196 0.2537393096135787 0.04450994524550822
0.40284230237348595 0.2409976774476945 0.04374012565720875
0.4327758176836767 0.1070772188867295 -0.20885295146649696
0.46175464501303054 0.2646494319463102 0.11415840691330459
0.9673572841234517 0.05404954485756264 0.5289152028409916
0.36165338567010963 0.21909593128947336 -0.00779874484042864
0.36035260057506946 0.2836085365912595 0.1631309140528714
0.4026962040848332 0.2025362294071016 0.03250131822143487
0.4402898317766102 0.24464837748564605 0.04342678503988395
0.3323467350686542 0.2150336003272031 0.05101790130328254
0.4113777993790677 0.12403543014539764 0.10435407029999055
0.36245967077238106 0.15018173200050455 0.11945833317599863
0.5548925994928169 0.23856549404854377 -0.18875014565975334
0.4265191014693812 0.25574616182946386 0.03841203394961212
0.4807534934601989 0.23337325477145043 0.05376556128808829
0.22676559129263296 0.37701726377463274 -0.01425347867932203
0.40637712915241764 0.2752229873451313 0.026417543197794657
0.3145807564260963 0.21230687776306922 0.04551656728369835
0.988046529867745 -0.06097441962833727 0.07179241105291112
0.37196004082798595 0.2461107990450273 0.03879110542692388
0.4307652692152999 0.23541373966756396 0.11097776278147364
0.42328156017367746 0.21766765436441915 0.016455074194013264
0.33069689749834197 0.2616905805048759 0.12381605741451551
0.39643891487179417 0.2244832383343578 0.03922534567405478
0.3693459285210281 0.22830012267095867 0.09465947548093823
0.34816218527811316 0.19534575815617927 0.012673722307198432
0.3883247507379224 0.22150604678824948 0.06724259665597287
0.33366977268859443 0.27140483172181007 0.17602308115706933
0.3625349821868298 0.19940131415889084 -0.0669520438320319
0.41682421434177286 0.2493271923808038 0.016428309560723164
0.342965727693624 0.1994733465636216 -0.08831017610890513
0.402887585766166 0.2531129115407964 0.023350699017868237
0.4010380638248989 0.24842225892354008 0.04770172167314968
0.4016752015198506 0.22561226636804577 0.0342557987539891
0.3759437307089115 0.2304066089853336 -0.003990795312830642
0.6357788621693317 0.23840819973383987 0.13201508557904162
0.42088477041677663 0.2754222984670207 0.08159574098999656
0.38922111227053335 0.2486136523141056 0.022320238052429886
0.3897310848581128 0.2049636811674418 0.029843405743633866
0.4077959805614597 0.20039879901793256 -0.012580634908644583
0.46426950905265585 0.21548144226561305 0.046215949178034066
0.4175664920129236 0.2354137103757239 0.06110571276325061
0.450828239250626 0.2413675485905742 0.01926992612889933
0.3672467071476859 0.2297673994160334 0.07742386890772934
0.35778190698289336 0.172234003079609 0.007593173802519004
0.42111374262040613 0.1751450316771752 -0.0271903074498141
0.44393379190748306 0.1989711630585589 -0.1395393489937362
0.3421454773693995 0.2397553257601146 0.07052425745891355
0.45285052551689375 0.1623694535707898 -0.07678440485051397
0.47110222223942344 0.16296950445934044 -0.011547052191062335
0.49279226633581175 0.2247666779870059 0.03873351750655729
0.4342014221438717 0.2704767567729789 0.15493732478103084
0.4181706765751869 0.22265314572442207 0.01381131237346267
0.14128700648640802 0.2281978974470178 0.08808453076048295
0.30738237421103065 0.45168510795372185 0.479569442421905
0.4523206822031227 0.17023552711910384 -0.040562454436837925
0.38721060546306774 0.23290705869615635 0.029483077334475638
0.3662477579356107 0.2943290587133447 0.1287885644091631
0.35510910395480266 0.2765737796262471 0.014797167360597996
0.30763804465252065 0.2449023294484789 0.1680423003828082
0.38915074366624935 0.22032595257135767 0.03520253775567994
0.3318455444710935 0.22537463122247914 -0.030956808615471232
