# .PCD v0.7 - Point Cloud Data file format
VERSION .7
FIELDS x y z
SIZE 4 4 4 
TYPE F F F 
COUNT 1 1 1 
WIDTH 802
HEIGHT 1 
VIEWPOINT 0 0 0 1 0 0 0 
POINTS 802
DATA ascii 
0.3793909162892817 0.2014899489724371 -0.018976327922672453
0.431985817820717 0.26082664100454167 0.7235016121572357
0.43983314448215083 0.2195938278246672 -0.009448181608036066
0.4545860324572857 0.19919557743072858 -0.018452646855280364
0.3777308435240343 0.22471230721038182 -0.0829024657489299
0.41003351113292297 0.2346738109054627 0.023050565305283044
0.46945136070183935 0.2197366898853943 -0.0810044432739403
0.3486183449708591 0.23806113383793104 0.09127640902175926
0.3091580188237799 0.23286085713611726 0.12284538582446203
0.4363009780799274 0.19609176487131208 -0.10022469115016008
0.3499940266235342 0.20926384172381063 0.0581173303587974
0.4372141059839123 0.23179636274771553 -0.020693300271432236
0.38036893401843486 0.27579070107591974 0.07531758495285601
0.42872483164771324 0.22169059404532732 0.05578534324320117
0.39754451095996046 0.20099448129209918 -0.03004337052314554
0.28315549918173133 0.13136107330396385 -0.04598170987185313
0.48713325341179825 0.22419459120740726 -0.02435554099920978
0.23387070332950088 -0.1864274195379636 0.09081634345022849
0.38019979931084436 0.21564662533658918 -0.012982533295797793
0.3911725607056269 0.20992229733957402 -0.008051693460600973
0.38256789691621407 0.21424657070733133 0.03517095340157539
0.525062970599464 0.21901499534592972 -0.2044910812196008
0.3560350256800433 0.16507451771101955 -0.0437711776084484
0.323909832071962 0.21805820743318804 0.015335810844618436
0.29477534053506815 0.24613148471615887 0.09758075538400135
0.39385036467095347 0.19650529199878974 0.09387881760375194
0.4297858869699809 0.26101477275940965 0.09815936883416043
0.351658973492718 0.40066311186159 -0.060170524266681014
0.5099396217477903 0.22584439147058788 0.04955518222095634
0.45248052716362963 0.2834484930519068 0.08635324303536152
0.39243986458274094 0.17527987848197313 -0.06920940588699409
0.4744886597134723 0.24538201049077202 0.008627954846446073
0.3763881946779293 0.24825743416357682 0.013304038575896016
0.2821383361404628 0.2757993337492195 -0.06385750467985929
0.40711317540748837 0.23980671517981023 0.03511994909146665
0.3929867374733078 0.25759419506837844 0.08193646105010544
0.35785652116211963 0.27180705431553065 0.020250826937953548
0.44519169237130995 0.30824245483488255 0.05216962074328535
0.3913730028008331 0.2050353161797034 -0.017748789465059644
0.39086956618854174 0.20363248271881673 -0.042793805600737755
0.4738114727107643 0.18273716427941622 0.05704936663363469
0.4795987623786857 0.2495133691415674 0.0024499712814645136
0.4130100158339758 0.2310980113565222 0.057205723440176826
0.48376754858841764 0.24815915734578198 0.01115083261376526
0.35987162892328683 0.22202583941722764 0.055063502228478
0.46025059796684786 0.14477246498265117 -0.10041457082542138
1.374596460682909 -0.35288483812908567 -0.06822495625669944
0.36264186218411965 0.25826308677419263 0.09060838230209356
0.3525661402427147 0.19557667312128046 0.04020468914183084
0.39475306267982546 0.23705782977997103 -0.08909285302843273
0.4139640768030688 0.23451728227934154 0.060007877831523615
0.40592338173073017 0.2823984563553523 0.08467506917270384
0.40345480621220986 0.2253322781112388 -0.002630870077041436
0.39760328041813864 0.24184262050734162 0.05355286394836867
-0.029427569522425756 0.08195504007284171 -0.08175419243323745
0.3784825200119428 0.22573951850895924 0.0167154259399922
0.39562844537695696 0.23163725671503244 0.006746015664703009
0.3666740416845755 0.2903675480462198 0.13299714701136622
0.4545297611486774 0.17434089437321632 0.07493253914319098
0.3948384398740217 0.2540037543735423 0.057218792197090806
0.38291146557469347 0.18275494361802203 -0.1103772287333129
0.5661738891862598 0.3752909575605088 -0.1316036843138022
0.3884287368095727 0.2284505324034285 0.024985003713226206
0.44185258843278064 0.2385129461701183 0.01095583149268009
0.2673331943890105 0.2553687744998854 -0.07507612848549172
0.42302833838296294 0.23217888480577642 -0.0007462828709492442
0.3905905325532615 0.2692790086020551 0.0419574909716971
0.31227968972032727 0.2269521871014888 0.04285875688601948
0.51023781620043 0.27569680400888785 0.09305142203626815
0.3652206597150496 0.26277444493349833 0.04992446403593931
0.336470572862936 0.23796138013965162 0.06587744303610066
0.41649907761140526 0.22373076082556054 0.0015046732356438497
0.3980913520669276 0.202267353026798 -0.02058278102711597
0.3478848524732143 0.2410181959953377 0.10564444223678038
0.4039804868266117 0.2180097383760824 0.025711866121028493
0.3683882036164903 0.21774152688468007 0.02357755774747261
0.3702154970395384 0.24267586198055824 0.01693085268115624
0.5150749787738107 0.2415670264061589 0.03723526171654612
0.39302062558336104 0.23753337445930356 0.028651550725385277
0.41915976028923296 0.20856186470186344 -0.054333005542787305
0.41628261988404347 0.24451192974166247 0.08134996310008091
0.4014124420944256 0.11086540084974672 -0.14307200494053518
0.3539715258193752 0.2616058239654535 0.0978417024289655
0.3276414225106521 0.2047937115377465 0.06101570650969279
0.8580849101497137 -0.20196276252121947 0.20524598514066383
0.3115091881733747 0.32294804118386367 0.15245699971453064
0.4539240341393338 0.20669749704970286 0.041460320971026476
0.39967684212835763 0.22131305866969342 -0.08599430815414166
0.38673256025930414 0.22555515013689842 0.025580466150330494
0.41068411064776456 0.22469404841709206 0.03321679547966028
0.38515498307441476 0.20919436276977876 0.025131185667987666
0.401016927505097 0.22275311015789612 0.011394071935640682
0.39471691341792337 0.15661841860422498 0.04980142113566899
0.31779072739401215 0.24360544357551817 0.11933333999141382
0.33308631001565914 0.21261463943979209 -0.012189332279859855
0.4626109006002821 0.19440442001068448 -0.07685374636091069
0.3917686114437515 0.2030873308328296 -0.11189567126137945
0.3527182305429619 0.21580818415964131 -0.031488037238034394
0.394607688406893 0.17613997108742296 -0.07532736038334065
0.3891676522337235 0.24318969956810577 0.02040771200459801
0.3940123183689934 0.2535505231621471 0.08151387794379161
0.41650068769320114 0.2497433781214511 0.03755735218780387
0.4259417326344561 0.2014405551323648 0.00839654881731633
0.396002961747314 0.25248500221550785 0.023864329130134365
0.39803444461450965 0.24919085856589618 0.03327577498281187
0.4777656051571739 0.2192449313505307 -0.07561373781695124
0.4210313893104569 0.2530753169742326 0.09187391775382991
0.403906451866078 0.197655975683233 0.0027885011927111236
0.41013082139207313 0.15587119898836477 0.0038255445619768125
0.43337438515905546 0.15749623303545945 0.007458541992775736
0.39814817834309224 0.17683304274972045 -0.03865244849903604
0.4317368567833739 0.2010798831850309 -0.005269592345314322
0.5055257532477526 0.37396667010779083 -0.08101959089401589
0.3504527231737029 0.235145867835854 0.09202599343842621
0.27828737401938497 0.39443083579705274 0.1883987886338616
0.3872362133251812 0.2117524190589677 0.025470363633175452
0.2861936911833709 0.26773822541586867 0.08422323646615837
0.40279496642509116 0.2122226034353787 0.022254874140458014
0.3806403734716639 0.10658980071582391 -0.2081253891318937
0.3224039951084734 0.2204765341946313 0.04249651184008485
0.4402360148547757 0.27705739121307715 0.07772775255897102
0.3945692413657582 0.2221175531371955 0.012948455004874404
0.4607849500178389 0.2175981965668825 -0.023415963061637513
0.4234499106441376 0.20789131457874532 0.023455894478956907
0.3759111935181636 0.24272910943044224 0.059063504528694466
0.3906703389582731 0.21544417966853757 0.028453185078944898
0.33230286786414354 0.33676497381861736 0.03679702183339373
0.34537713198174913 0.24367124127762452 0.10676587088710221
0.3723548223168933 0.23275970778087185 0.044258298052255896
0.39651682060343774 0.2349766481413269 0.04949591163359912
0.22077480600587762 0.25474905766847655 0.2032264235219401
0.3514800450194713 0.004605039288819057 -0.31176847412325515
0.3945220206843487 0.23752912312417607 0.059657122931980666
0.5579021312302501 0.6353282866950565 0.21489710340023294
0.4953477918829208 0.22351988093356567 0.005115880391599603
0.3468313923860933 0.1820513040939744 0.0015149477080456109
0.40018843329679044 0.2150441582592464 -0.004146945730852281
0.4370255825524225 0.2590449620659854 0.11094686827445344
0.40849230411976123 0.21380013208172954 0.08353788167455889
0.40321786018135697 0.23920598261037185 0.006812458778739483
0.43333434110776636 0.24898634518724805 0.09832051752688642
0.4253370143947848 0.2522177859051169 0.0916778037050534
0.4723756381407611 0.24430677540209444 -0.001424589390097708
0.401006177108286 0.21447582831288514 0.024374782316499477
0.3438870234774072 0.19636339491057697 0.013726878227799943
0.37851286022413433 0.3000555129425493 0.054134960944892896
0.4319611176335343 0.1766587032415714 -0.08965283137064262
0.4209998957354628 0.3357351096472314 0.19496295352502102
0.3311038783234892 0.23855356212952472 0.0353702389543713
0.31539106261755023 0.24049676868204983 0.0839961645428815
0.3719589999649884 0.2371390450127535 0.08236071856052263
0.4039516834102983 0.2028515523220733 0.00990468226888197
0.36359058287959556 0.23981272359387162 0.0713195639273323
0.2742611466564284 0.1632633067070799 -0.0021630742179468143
0.3900517817134528 0.22272977538435157 0.005612528453127652
0.414537935404681 0.22382572428739422 0.029848956349709965
0.4707692216066448 0.23153304339606962 -0.016068944304180377
0.3386030296084783 0.166434431578935 0.0019300557110568661
0.32816579827978387 0.39098364975514244 -0.13235533506380648
0.24404716009819083 0.26687774471376713 0.15086547873728762
0.40401911627023424 0.2757891715056786 0.0036561202370535284
0.426330008689078 0.27880434031877144 0.06646239176582469
0.4598015945668692 0.16535841974814502 -0.10293925455177089
0.3686591349178201 0.24286980465009833 0.0554107607224239
0.3780140137595822 0.28981401319616396 0.22775731989921155
0.38470755533819556 0.19515720634274203 -0.033086385488743986
0.3947466040318943 0.21578767273950916 0.00998453083857953
0.3009588245166839 0.2585109361505715 0.09948211536752183
0.4333519854494057 0.1627457812938502 0.11090621985090365
0.39313933925762967 0.18449194849847572 -0.03527573250457294
0.3973377702515677 0.2611819113478475 0.0892245663270046
0.3580477827525641 0.3185168155907121 0.056955007997913754
0.44757369311854234 0.22344011417148124 0.02661299593455624
0.35871916627080225 0.298311768864977 0.1689384872476296
0.39330233848390606 0.21502506925462228 0.030699942892937315
0.3869217310108155 0.20074492298553537 -0.028936834983355197
0.20107210611956816 -0.13364211088021705 -0.17612445734224025
0.4249059815199985 0.22711486657050273 0.035604761781982575
0.4095821442805061 0.22101443452464764 0.03597812760332886
0.3433822744590458 0.26805949397169115 0.06317327836993059
0.42654902189030963 0.2838866582251143 0.0673725191866481
0.36709809951376826 0.16252363827268823 0.08784588088363421
0.3805141072860181 0.3203439531861818 0.0780953211094868
0.3442325020053545 0.22637337480526298 0.01568868989403427
0.937332828917377 0.2513338854628131 0.30126284750076593
0.38858733664929446 0.23631521104599074 0.04244675285301014
0.39597995463444136 0.20010597794794194 -0.012693388107763326
0.3997941644436622 0.23089969787733367 0.019144381868343885
0.36886737813064485 0.2141076002079103 -0.007123257729006127
0.25520488659266505 0.35106470845727245 0.09175725168879012
0.41762884650188425 0.27404051802213303 0.12414064602414498
0.35096950438422425 0.21354996456793174 0.0343888190389805
0.2521430497948103 0.1857967855395941 -0.044750361171210784
0.4064123950549998 0.27267484127374075 0.029379770681117634
0.4498249409223405 0.24225623612012726 0.014279506594448321
0.4164406799087317 0.22571785724373683 0.0584123403936303
0.44097131958633895 0.2660821564612945 0.06274912693274359
0.4348918781682727 0.23959129381455568 0.019702716941566223
0.3503794612401805 0.2915705830387907 0.06776326362694363
0.369214093460954 0.22001967696859026 0.02335461597006372
0.37595277163363505 0.24000646029986683 0.04755041867539944
0.40862813416438826 0.22148324841204214 0.00031456652666861373
0.35555454992740465 0.2295303760289613 0.10291094448646732
0.37663562332389233 0.2190588469750594 0.04660733171479592
0.37679380782478233 0.17224773418476502 -0.06839636236929891
0.4962776180272215 0.2405269614506551 0.027472323835525003
-0.2542343569638206 -0.14882500259093945 -0.6347735421786922
0.3674658215348927 0.23897316131305502 0.05264070102776941
0.3854256974970838 0.18486661889363631 -0.031721501759676585
0.3103752422092043 0.2648129431459836 0.08762470567322111
0.425303304151015 0.2597374983495513 0.07538752994142328
0.2633059508433746 0.17789808698984189 -0.07652550728015228
0.3794372598433853 0.2805826240883107 0.025953821047380643
0.3994360528100458 0.22992480469920906 0.01613574647041105
0.43685205214144673 0.22611924754318125 -0.02070553401944153
0.3187604048905257 0.22978863192255972 -0.053360411282966425
0.47550236392142153 0.1726612894562578 -0.06538571555026351
0.3324880774957961 0.2307128257242539 0.10562000299378838
0.4114073438954904 0.25183556060579804 0.059149364897933765
0.38665098879602056 0.21138304348659176 -0.0880477282085792
0.40494529022006986 0.23676452692033934 0.04586420229605892
0.3822960139437299 0.22939226417695124 0.06445494167874699
0.4100530813026637 0.18150117543774513 -0.09980967622738035
0.40758860733996016 0.25456241233163723 0.0977681132984003
0.376896396925531 0.14535187522996296 -0.062051279396300174
0.4251308605619215 0.19835962926191542 -0.020181844942015914
0.07280552367913629 0.2863807003398051 0.023083924980198844
0.4849713891473755 0.2873496642426119 0.03078647640504073
0.19136809132363908 0.16267501478756685 -0.14703800500001307
0.3509245548214892 0.2862945687754035 0.06713932660326805
0.3745545067920659 0.1755512855463337 -0.08741623321202496
0.8753141945005609 0.12289871597803881 -0.22528038355446256
0.5907843200371019 0.2456765245847521 0.20228304457580748
0.45207555759907336 0.253945906921075 0.04949045522630513
0.3958771775290302 0.3268177600737374 0.06714440431161961
0.404653131707434 0.22560317055334167 0.05582197518069165
0.42160548603129655 0.2034040687449874 0.019976853776256576
0.5517555263712097 0.17651552220192457 -0.08573579596532
0.4006897958673221 0.2254727306216182 0.029612707157752993
0.37975319710203337 0.20325966978089127 0.0845945198890945
0.38202022074258934 0.13271626011101034 -0.10955595135183671
0.27621070635048284 0.21974994110334478 0.06945459952503086
0.3222643026294634 0.23153725484871757 0.06897488512109362
0.3801383070461526 0.19201377706384903 -0.0404201290132562
0.35990448910543194 0.21720935930467533 0.0972796347080731
0.4024134411791067 0.2166706612029543 0.051653381256301145
0.40747199617712226 0.2567133405446782 0.006461027200487024
0.41269730677269933 0.20262553907676306 0.019538178840747378
0.44695381049066896 0.22298255818097346 0.023687570508911904
0.21580926456715588 0.23206749532036497 0.16181065191038613
0.3895396745451478 0.19425747213735178 -0.002441547383170928
0.4224862835036589 0.2985335960062514 0.07374321427538177
0.4037614030021075 0.23728132822819248 0.07517675204212537
0.40919333276377756 0.21484977293513907 -0.009789734608474987
0.3961194645808206 0.23832445300837435 0.006109123777719105
0.26220617924420253 0.30386290997870447 0.07541343436949433
0.4022470951148165 0.23075537926308698 0.030685703726902602
0.034179690756886316 0.2778838377446391 0.20829348130529013
0.4324883182853796 0.2100268121089499 -0.023404830104695407
0.4075416307230455 0.1684076073015035 0.007016463422701236
0.43838710858869945 0.16529435810008408 0.04602122285245969
0.3980771418504361 0.2495361705875041 0.041918371469279236
0.46470056943452676 0.17420672171348883 -0.08273278362855763
0.42119070576950435 0.1490507711829281 -0.05122534490436692
0.43092710219212904 0.22570965486949035 -0.02307690843565524
0.3853627647403073 0.21143841759891302 -0.007316313801425167
0.4546993074153818 0.14978796075779144 -0.05682597726649874
0.2701379870071037 0.24955610368071746 0.051040244261855605
0.40622902752625123 0.23829032993302235 0.053724973381491736
0.4164969487018624 0.22212224261036795 0.09738019383763685
0.3815218567179386 0.1940080323594202 -0.09655767126460546
0.2710354399910244 0.16963231314957739 -0.041566359079723725
0.4189160656049751 0.2359232357074461 -0.0003777726171279028
0.35032541977028586 0.22693344980464758 0.03585971367672869
0.3056913271718571 0.19525829122690652 0.04691915547797976
0.3584059935886046 0.20928206222059487 0.04439390899085538
0.4032039065156283 0.2431373250979334 0.08500789738630488
0.3889491914138574 0.28105656952673996 0.09973672247394916
0.3990056922168179 0.24475912303810787 0.027857010369004342
0.4042966331640514 0.2065898801881758 -0.028304627267814908
0.3047615710480045 0.17271277018633668 -0.06753382851452727
0.26349661661151913 0.2664411933230042 0.09582278237934361
0.39738119340674416 0.23865824777956846 -0.007042380895995848
0.3757548079004067 0.25018634591265254 0.04300750782368823
0.4638478695021746 0.23731738994715101 -0.130615370117539
0.4250790227113157 0.2853546156482025 0.11572472024724334
0.43261788175092875 0.16872074952487992 -0.06141024818904839
0.3754827614078238 0.2416568604073177 0.03336275602555361
0.4313255093008479 0.23899969525594145 -0.08071481112841639
0.3790074375942538 0.17255779772656865 -0.0003324736730121458
0.36325794132351064 0.20532146938776918 0.03848887953570568
0.37817572193445415 0.1772103264162581 0.014836972603589516
-0.13583923749249038 0.34529049137307766 0.07974198217665673
0.03639880769659953 0.29134089017620113 0.16839727611245792
0.41491977550933257 0.22478349669020758 -0.035366820967624335
0.5601359744349708 0.12035006542379278 -0.022293677888370667
0.46408705789511373 0.21079693235165564 -0.019560910160492995
0.42895310543374876 0.17719504305063083 -0.005059857187148964
0.4595866808443816 0.28256851771816116 0.07049803469953986
0.39989824154024234 0.21726059272029374 0.09922585411459295
0.3850928043460726 0.16804176831658424 -0.052027746742794534
0.34891059384963796 0.22976471589251446 0.2133950151384454
0.3794237356167258 0.2177089329151869 0.06835952216056285
0.3796896248868791 0.22530184048592616 0.01271313248363981
0.4313954796650705 0.21111743322904886 0.014021812447253978
0.34636448605739645 0.17698515810650406 -0.07905822792824324
0.39867009493897854 0.24021931975794075 0.021813332899370153
0.4235095672047464 0.21919435728867143 -0.023365901325590244
0.39434891909490943 0.2263179489335272 0.06981701971807297
0.46681903687232307 0.2187932724635857 -0.039090521309319115
0.36515876734759445 0.18859059503705566 -0.02886327868338867
0.4585238485825016 0.2041454574772672 -0.022366077727980382
0.45542679452006496 0.25076525194339183 0.03971106196945584
0.30715533922213467 0.19420688531046437 0.055063600584446704
0.29483738539413196 0.25917947258855634 0.12211840317579004
0.4262741583284537 0.21747946217342928 0.026851703103716318
0.33367588684296834 0.3317345922424124 0.030726180733040565
0.3841393038741643 0.2729713391698567 0.09365046356259654
0.4595475360930834 0.21551646521669454 -0.06827001800203902
0.2569480516469582 0.24008563042330877 0.047023121208553675
0.47863371293173884 0.21277645307375792 -0.029695046869647967
0.4080545516735583 0.23012031332518745 0.022265381042103627
0.397204470318826 0.2477670582066338 0.040211635968177006
0.41840898777614655 0.25275684178797064 0.10691006856457363
0.371494247922854 0.23855094483695893 0.08102362667354157
0.32489211020676123 0.22296134431516634 0.006008501519104925
0.42815631487385986 0.21602166142315582 -0.026952540032027628
0.4856612093612682 0.28501905576047193 0.10097409837884186
0.4251129552030335 0.21399161704049163 -0.0033041127642405854
0.4110800570315405 0.21900725625690143 0.0322475472089252
0.42900927945100875 0.24260039582935633 0.020777526960003456
0.41521736614808447 0.2407378669467164 0.07442108308677575
0.3563208634785866 0.1949483762591484 -0.0006126815537754737
0.3919387279922262 0.256088637546128 0.0515512107417635
0.40858226228476724 0.2517655175290372 0.06022874505234199
0.30869205577835146 0.35529185570233324 0.21107205124910422
0.47274630856361455 0.23424401778632387 0.08514315844385578
0.40104315486306064 0.2590410998778765 0.08369777080496021
0.40681474331201173 0.1743261898969024 -0.06412481210847432
0.38315048383304884 0.2504633730362684 0.0594240620956441
0.3956057774443593 0.22656220365340118 0.05091939577344817
0.45843103657196593 0.2684970887306122 0.06643980799978522
0.4007224697913898 0.2544847437072235 0.0580251152661333
0.47984836224307514 0.19595455116711946 -0.007226976265371832
0.4035421536903243 0.2164656562141829 0.03617613187243762
0.4290740991228148 0.202698608761807 0.014171795963733302
0.35384963266028535 0.24975735806793864 0.07153620627681789
0.3805876207538006 0.21139512541901695 0.018956963334886723
0.49218070426394434 0.22901045205384207 0.03650392183365625
0.445669553912623 0.2144720516177756 0.017998202884342618
0.3100752395149584 0.21688793160362252 0.053637849670593596
0.5670130164693035 -0.7606957203279023 0.13742160260505898
0.39710229088831284 0.25473200750485603 0.07352830519462827
0.3932698379909709 0.24109846773458798 0.0013450551244602593
0.40285755800240963 0.2067423983951926 0.004915763431796449
0.4304731985130559 0.22512433855803238 -0.006553406505958037
0.38161992423914626 0.24218063481534102 0.04170970812720043
0.5841746946978219 0.28376009543431735 -0.14850227098432356
0.5189863791702294 0.22199163442377312 -0.006227020701601305
0.4261092474603174 0.235672502567553 0.02251334153180551
0.37367394104711593 0.2324676164437136 0.023026603705488924
0.4820579793076263 0.2456638672454119 -0.014463949880735072
0.40754538537382246 0.26247313248762794 -0.09354678493401991
0.3843176807583575 0.2710024726265772 -0.03546510346453147
0.5097446898736706 0.20047863435650015 -0.018977448501289018
0.39673078328021916 0.22738431300803086 0.020151326594600505
0.2650807640029029 0.20033278550104683 0.0429079100256331
0.43235205015069766 0.20643961544720923 -0.00805180959045515
0.43442859563940317 0.25195529133773675 -0.0037679995517976295
0.39887925876578834 0.22049313279042337 0.014074433744397652
0.43423135157347303 0.17307148997335275 0.010943963196183404
0.48369352024508316 0.2746830935654856 -0.004304192665642859
0.29307348337397343 0.359310285534292 0.22242446693329043
0.4856337764306602 0.26121558530317657 -0.01396813903625116
0.37555713852125905 0.19451072837468075 -0.04307732087043803
0.4145708254193181 0.24320828735702094 0.04090176427258996
0.2965738161309446 0.3515765313524639 0.1455533537808833
0.3801977204843183 0.2857492627358056 0.1288198377617107
0.40130874799342564 0.21702661183022087 0.026368920325666068
0.3925523277015799 0.1967016582396326 -0.00998421871210553
0.37975617954694485 0.17113787443551587 -0.039752495082296946
0.38672783405721134 0.21966691727163834 0.004182975310641268
0.43864398085585776 0.2328333215459537 0.03963538831868618
0.36324951750927426 0.23083310658353184 0.06104224468694497
0.6542572333649161 0.18489822034240433 0.10896510042124419
0.3269330812358646 0.21708398382418181 -0.017278117295376205
0.42130121072774784 0.249650288794669 0.07498241638376157
0.3529084545478298 0.16742946704388828 -0.053057799379615744
0.48985030737051716 0.22332600118585333 0.00789702299184114
0.5016195441007625 0.2403699772027892 0.02205137365558585
0.3417238551813 0.2445654706642415 0.067911569450402
0.378753406316946 0.23584425131394937 0.05155471998598671
0.3686123777635828 0.251121623257319 0.1575830709528816
0.39880820166010267 0.22576395032206165 0.027326847747133343
0.31969741626608084 0.18717992761000346 0.1483873845175907
0.3559216383705177 0.23837931362390918 0.046622233586930406
0.41098591544232477 0.21244365184145408 -0.028116862950014365
0.39196325982572944 0.1819882402076729 -0.05368099908461943
0.49825393021126274 0.37557858195276594 0.03659199261375079
0.3454987098126594 0.20426552144232346 0.059130293338839124
0.29700898413591403 0.2078064311518375 0.025216956467005502
0.399294758584233 0.23484171835630718 0.03632732401433714
0.8046665167581466 0.3503717832850839 -0.13789317616783592
0.36758960783217276 0.2260262157549704 0.014415523706645672
0.3931170268601818 0.29376798954881167 0.12175408344648986
0.4046075205527728 0.1738485710273494 0.05953229711583674
0.464683736479401 0.25294596782971723 -0.11669101934809589
0.5465152713233152 0.35062692031533516 0.13577624079879058
0.4061056236093634 0.19770458491522902 0.02387186635533567
0.43612549887123464 0.18765492243338144 -0.01533323388611052
0.40404389339036584 0.2013025013380627 0.0324309549759505
0.3633648700785983 0.2196334400753699 0.101604170089729
0.23664049644804663 0.25254975343051456 -0.00027838989188921914
0.3572209047031407 0.22511204729997303 0.06769302524023146
0.44862048294885426 0.2326285850107297 0.05682283705827729
0.2573298661829142 0.2857862200048942 0.1836578153907169
0.4330335471372848 0.23217939493011386 0.019130029076450228
0.3799392066981113 0.17123941882589122 0.010792831693819949
0.43021271760818536 0.29556505699353863 -0.08082456277685424
0.4552939922806587 0.2540982626384505 0.03101093549631173
0.3851136681862499 0.12235508342604362 0.009268282801613736
0.5151071770756914 0.2079605300846481 -0.05346611540667823
0.3627858578282144 0.2561721808473578 0.033281442676582174
0.37228857355876244 0.22732965813251838 0.03168729885513244
0.4423875976854674 0.1773744621465596 0.07808987365775977
0.4144217625788258 0.2260160896197192 0.015968436642168626
0.45178350854962446 0.21542127016692802 -0.013368594516279586
0.32906175524922787 0.24259083947981708 0.05938568416901546
0.4091927300010383 0.23000098202483343 -0.0008942114779131316
0.41859881077934347 0.2087436672905767 -0.03398331036183322
0.4373696973447352 0.1970302842768774 -0.024503166414888256
0.4307596484079994 0.21363359072027777 0.006906403523913696
0.3840048044916955 0.17068275523175203 -0.07933110557495127
0.38534045300731634 0.22326596737259763 -0.013310422741255934
0.4046744339462123 0.2150021648872098 0.011455874366077978
0.3442843089731866 0.19467280880851945 -0.09653545611448067
0.40839136509387686 0.21614276983444825 -0.011879277750779238
0.38681450645573534 0.2313803965487864 0.023602805727222176
0.3712572745614011 0.2382683614500536 0.04141388550416991
0.47940347174903764 0.2752141411364448 0.13626937386601412
0.3125669744416655 0.20489848603727978 0.07638561366519525
0.42883142456740586 0.23970293248828511 0.08080756940201184
0.440523332088091 0.23954961498191096 0.018407418684304844
0.4808107979165186 0.21861021972080152 0.00410837329904723
0.42929858323925885 0.2031009714839911 -0.004233759029887096
0.5191094027932905 0.2067548100173724 -0.30603596152164414
0.36363956546517784 0.27591325600108974 -0.1319227204198654
0.4017971626944643 0.19427898323350234 -0.02190776388793836
0.390561837189054 0.22767915165175623 0.0042829979757925685
0.4225483758983444 0.13594183785167502 -0.022501930475272047
0.5146828575477684 0.31273879201977195 -0.12028684599178519
0.4001860455019255 0.2659430822150739 -0.0063154051271681055
0.40119163842246053 0.21010546742431302 0.028502550188562736
0.4001974983933394 0.24863073537123626 0.05202103521602908
0.42167325827793434 0.2517640536087242 0.04252742472795035
0.47669937045813526 0.23766379604617782 -0.1173388125803001
0.5523689635735991 0.3045624499325754 -0.042480785594122494
0.402725916144135 0.24495582389477022 0.06280866780718952
0.3134676207506857 0.23129090135816455 0.04349780937775449
0.4249155666658879 0.25968198161780265 0.02202379959591383
0.3543971666252759 0.23101608558582143 0.048880981353676134
0.44744435913410996 0.22520196831402473 0.03017422619024046
0.35077043124709917 0.2295802831903444 -0.07346773534936801
0.3774098935417385 0.23742502143309707 0.061509560429783505
0.3957301617395217 0.236715206576406 -0.03364573198071241
0.4604083740109388 0.20415743159378508 0.021465496138574736
0.4972846503535209 0.2721793847276217 0.034252093726948374
-5.513289039418396 0.6502831749053257 3.77788852990156
0.5086313819445394 0.2654520470305357 0.08122308100473674
0.4346432660635884 0.24224988304877115 -0.003542430388932871
0.33751780715789437 0.22380329039395974 0.014750535757713124
0.3687495753232781 0.1804413940569134 -0.05812761550828327
0.43056877221164314 0.23409304256168184 0.09172069860325394
0.35299625291862924 0.22862510205465014 0.11646322935439457
0.4265915864228873 0.17686576389775155 0.07002855487030502
0.4366992672715355 0.20604928595722072 0.023351219164624126
0.3558882597788511 0.3577763599270156 0.2066852689570169
0.4147967846562466 0.1967368112675274 0.036647549258788104
0.6767857893027553 0.17495102512421568 -0.03832113094044587
0.4054428573900566 0.1924669666939849 -0.05027857157585913
0.418230257063243 0.2415137601046382 -0.036182815648459155
0.4293940171695567 0.2785165128524909 0.1368193546004477
0.43404308048860685 0.2296497941926674 0.0036766364361824344
0.3567362871413593 0.2095333556078458 -0.019768228974356816
0.3929308556856199 0.20643738184926974 -0.010057114347745255
0.3982025194006553 0.24120069567550217 0.03331142515419572
0.3231572505311817 0.22230892189949714 0.039272532550228334
0.4472160701429999 0.24569475490491754 0.003960844431304622
0.3365840171659329 0.1755816325768933 0.05028668599514674
0.2881409651533886 0.23335044026237028 0.09752627188201757
0.3845073717044869 0.22670044623053798 -0.011593968532636723
0.3969138997061066 0.22623448979553018 0.010851512215879211
0.4527684989814702 0.20447992214913313 0.06756147788158273
0.32950344357320205 0.2721701587422132 0.01664791836330437
0.44532205518331125 0.24825312280330536 0.016525189384950068
0.520983166515677 0.17393778458819042 -0.08298666414592049
0.39215948198918227 0.2235461127210101 0.029551393627315292
0.45891199833403107 0.14666381537520579 -0.0694500111637808
0.37857106545278896 0.23003155201718073 0.024650233901979846
0.4863032339322899 0.2055879545149537 -0.027446738719987707
0.2766296629490057 0.22590708165827778 0.12040702461183628
0.4442043900242254 0.203992378178242 0.005857522930085679
0.3852312265455282 0.2170283482211346 0.03787367601987057
0.37531675661529107 0.2912386392591202 0.12160537832859575
0.36503414890830754 0.18405750966537937 0.049670845978170064
0.42932831209358824 0.19599772876293287 -0.09501479482170794
0.17114019085603616 0.336726550643931 -0.042615448888184915
0.44792035958766974 0.18473987636971856 -0.015805584559558383
0.40366816273758843 0.22743428638315777 -0.0025718363354769735
0.5438448864215957 0.21514109249248747 0.1106419447761482
0.37779034223495955 0.28414445499129215 0.13838326490311204
0.26000444006135126 0.1683986014677714 0.11436050801188458
0.3673958769099386 0.2827603849794116 0.05946176083770638
0.5186271174521551 0.19705383266980903 -0.03189063260403202
0.46173063158715877 0.197247604121344 -0.1042297513838264
0.2939446569110089 0.22793388265294823 0.03578686080618354
0.42322150519191837 0.19771073052717725 -0.013882595814664
0.3927844619966123 0.23425540842005432 0.007339125993382822
0.39920513399989943 0.25329884544973424 0.055005845849649404
0.41779521853284507 0.2100227499382754 -0.018989564341467258
0.441344851355538 0.29860905566627594 0.02380878009633136
0.3627468288650846 0.21823542950252772 0.0409168997789493
0.42459198833880407 0.24330120714300563 0.022942406516818892
0.368634175863491 0.20662461981200408 0.04512999570590637
0.5032100625984981 0.2436468044843565 0.02935417675527674
0.4526682088549592 0.19935145567370682 -0.012095868557395306
0.3959137062703775 0.22896333985606532 0.034367469654839056
0.49846378078663633 0.1965103077782402 -0.029878927702711167
0.2741993110645211 0.2604778716197984 0.1019434855803496
0.4121299347408751 0.2287264875485846 -0.007487756111416388
0.32044835243644343 0.34935532354495535 0.11915600667825288
0.3895171940095423 0.23239934475367363 0.02966895715866258
0.4541371910154055 0.27549992977097304 -0.13787702659297452
0.48006736204411027 0.27415726352674596 0.06493829990333211
0.4329976741238113 0.17388609051282344 -0.003919041605399798
0.3748045334231307 0.21293521900604162 0.01688316873330109
0.458825421515769 0.2722951264563136 0.11916820624448121
0.4984974513662337 0.20737524144013264 0.009876595174731051
0.41399312878344574 0.2483726548399261 0.08459030347759722
0.3437895247652989 0.19784089115576364 0.06233029732436535
0.3553059641932208 0.2683533746574227 0.09099687063394413
0.4185704497095344 0.22276764163565588 0.022125269578921802
0.3573308958947621 0.190188818097198 0.057296336294271555
0.5511455990779837 0.16719278873395638 -0.0908856513639762
-0.12146129111090431 0.07294722232758488 -0.02893960464417944
0.41591903044340484 0.2006479057860986 0.031140669827891543
0.46590317893927136 0.17685848624536504 -0.09936777911460126
0.3885550629337615 0.18890108036805486 0.009123335174805902
0.34048633013978247 0.2565261125500058 -0.0381000050628586
0.434511116229487 0.22192829201301834 0.028077726125872005
0.44254474685178025 0.2290942597828689 -0.06192653956036054
0.37990356241934364 0.263406603757403 0.09055808020536915
0.449967407238546 0.20272525362531724 0.049060095223325106
0.40670865046142524 0.2737442690462615 0.07149661343490266
0.6420929504754156 -0.30690409030368926 -0.2856602917506592
0.5323015093022718 0.26789089016990886 -0.004913870139262144
0.40061709196011464 0.27636372027720313 -0.011738178190597637
0.46508492095426845 0.22386393087451495 0.05946678551137552
0.2890089291504978 0.21571982535542134 0.06410382755791488
0.377438194639268 0.1946641175455568 -0.005837227202633244
0.38678977123342406 0.21992115097415876 -0.006075139626801729
0.3613612020422181 0.2545159276042881 -0.0020162318656673506
0.41145575600165785 0.22621098698110131 -0.12014879716377891
0.39190741999892964 0.2441762583130469 0.06094221790780807
0.3533748493459541 0.1785635608043208 -0.006614818489197205
0.4296524842447411 0.21652093668211592 0.003077701359046614
0.5234635594019892 0.2149034404803416 0.031977644220802404
0.3810715302234371 0.21573400885367278 0.033435855373795675
0.46973531824434644 0.1643700265291983 -0.07347011649723356
0.376320469701966 0.2642557745095928 0.034684368119428655
0.3798081623653218 0.17764240597108483 -0.04440249033822852
0.3728403147171093 0.20941491910835452 -0.020542954497727806
0.43115283636568336 0.2605615024626786 0.08806481721089199
0.367706353686188 0.2111181823527204 0.030656239704555333
0.3156792327132223 0.1800292828070411 0.003119437065336683
0.41653851207277626 0.19204851878954798 -0.05848272665730292
0.3068993284810517 0.23537409812304588 0.10176862614929405
0.4164309453192345 0.18384941019988332 -0.04546046698700934
0.48604982357625204 0.18577188935984168 -0.033728098002541174
0.4160047166033394 0.2808540051284467 0.14522459726183
0.37628557850337074 0.21335484675611838 -0.012090904958597548
0.3689512708819933 0.21813906561393992 -0.01251496367888194
0.3771678811825723 0.16255650499138596 -0.0979477351959872
0.4010149586042928 0.24588287445951096 0.0032852537248118097
0.6683334086023933 0.15181795076867388 0.06691475593171958
0.4035199816412103 0.25167262902863285 0.08397009338912653
0.4657380339646693 0.24584062404576912 0.0307173012093358
0.10228605850380745 0.6981568633264601 0.5412230897604076
0.2771535016178177 0.22727963496018333 0.04978892648659894
0.4034375060128639 0.22350870488007502 0.07919788270477568
0.43285492376955403 0.2197757529065285 -0.08032186165462463
0.4212254005308722 0.17751960866237937 0.07580989445213504
0.4357291578542686 0.24444176576108134 -0.35240806189915475
0.41896980859937116 0.26709779983900717 0.08782316101613219
0.4221292727129651 0.20765742958111844 0.0019715789281633533
0.39732433622909014 0.2320636199110595 0.005712186643336281
0.328336382948919 0.2599532672568188 0.06304594987082623
0.36307253864239897 0.2571471073702867 0.04975713186382791
0.3677529282590939 0.2535481208373369 -0.04801382834921242
0.4191511465765103 0.2721768853051856 0.08598094538555756
0.30023534905453175 0.1534284245929456 -0.0014357029248799336
0.46138242601236357 0.21751512820252117 -0.019839777509133683
0.5553414657981222 0.15258897468063992 -0.09722253090284028
0.37406097948596084 0.2875017767229906 0.06090778185878776
0.4392201192692795 0.22063185227732163 -0.0026682937302098253
0.358315431991457 0.22041526792757793 -0.017903580732877344
0.3834099700880529 0.23772671735922302 0.03543991580984596
0.2569228222577067 0.3645596303560126 0.024274966486828475
0.38752835223283455 0.13892963276899195 -0.04053030386830869
0.5141123007672803 0.22198901446844843 -0.01045488821824847
0.384689679285799 0.2485421880107026 0.04130055380892372
0.3574790968454522 0.25026140326778545 -0.018747056646105875
0.37836312258866656 0.22469606714636825 0.010795136900767943
0.45284448420856904 0.19713185827120583 -0.07470910918539175
0.3916242375366039 0.18451806271772853 0.01920494361812075
0.33129212508126216 0.3233212792821405 0.12247637661764088
1.222996584471531 0.7881313723152914 0.5488243214758342
0.43873680067491705 0.2967901168619562 0.08418479833400738
0.3227390196338149 0.1562541320295452 0.050999421989672555
0.3700128611229445 0.20828702333682259 0.03503169686609908
0.3592402766505387 0.2508587605810533 0.07621822621118213
0.8281585241675202 0.0467654402821438 0.13165623025491868
0.350558354265047 0.24936858510524473 0.04297648450663871
0.35253180359160297 0.2174055148056624 -0.05223612010098577
0.46375989167032117 0.23693153474920337 -0.11081753029597508
0.22902661169059968 0.30685267491523405 -0.009614115650776967
0.3958401195600061 0.21841529490542655 0.0359253226428109
0.40724928657786563 0.23646276306681102 0.029599313535271676
0.40488729476760454 0.19076705960480922 0.008681881254119617
0.317281617347021 0.26004522145916553 0.11832982604101971
0.24442298482202318 0.09563679992845664 0.0598179627023967
0.4484724529987574 0.25654136953741613 0.09072012792312023
0.430689199052523 0.25981800940152766 0.03741297485046857
0.3806781158446739 0.17649520317360157 -0.038207661335945886
0.3400550980970536 0.20838995454981557 0.024017867858617592
0.4133621194456225 0.2322892130872276 0.0348823368483977
0.32347264377914087 0.2438058820215474 -0.028196909009807314
0.41918076080617084 0.22297478147757488 0.04243401856371065
0.38173990086286835 0.21158181377968788 0.026383190432738957
0.3334288623549071 0.24008443392133927 0.05728949899645386
0.22653988948479764 0.2967320969939067 0.12899683405760243
0.3691629061685546 0.21568182415707327 0.05113159828012215
0.4154243187833373 0.266888173075273 -0.013923987159813578
0.5299191856217931 0.16107262941331157 -0.09582256942019285
0.45284036231592495 0.25791618363271596 0.09464858851418967
0.3374659916015048 0.19107742378420767 -0.0071486063486077
0.47969496373565335 0.17789899073626714 -0.07921109121141967
0.36393552490154946 0.22747058391360042 0.012151487598927702
0.39802530590888807 0.22001046984203754 0.03602788456154826
0.39492797244577105 0.221241897459322 0.019962617162946117
0.421174431761429 0.2478993717360538 0.022298736372320604
0.4052490978916836 0.28820948686630743 0.08352783561532817
0.3822831343132691 0.2306222953013588 0.05586560762804993
0.46691777559293257 0.22633795895160347 -0.005304466685203124
0.3042576813695632 0.3372527951506328 0.031462403759164204
0.3758239280507496 0.23719965142987576 0.08572935650549596
0.4005249891067706 0.2418611636849164 -0.016961786919793553
0.5045768793913226 0.1236692132636108 0.11364397855024322
0.4178598092463659 0.20791192799447344 0.010854818715330339
0.40140010881953003 0.20837855564900565 0.051530930231990624
0.41413677405681426 0.18650137523552246 -0.04037683287513971
0.38997309756598497 0.23763929105348325 0.04229532190120722
0.4502751083543046 0.2823895972035473 0.10632704820058336
0.3571145572641825 0.24222189343332445 0.03522424107146094
0.4713652237504391 0.1810494008590524 -0.05309928516194873
0.4771838223900886 0.1796069701622116 -0.03067096756441856
0.4110171380299903 0.20641514253028959 -0.0008848522931828029
0.38825828034023857 0.25633171288163226 0.005863413392177108
0.3178535875914008 0.1581765567701865 -0.059490947951758244
0.3779033156485525 0.20415468379522395 0.013244171549899875
0.3407748708036138 0.24281282013049577 0.04169780574339654
0.4830374437804892 0.21390614625821058 -0.040758831478740376
0.42337275904452554 0.22805587008289763 0.0014378642754024895
0.4090360390489991 0.25949216481859594 0.004775567917079115
0.38600423771799797 0.2646316585281596 -0.02830521367724259
0.36798608238692054 0.24714009779424373 0.029384611194103627
0.4100907512123797 0.238216881005215 0.11880324177198531
0.2600887754201011 0.19205125761421016 0.03229229235826381
0.4616217455611604 0.26478791858795603 0.018807642858774898
0.37337648283073577 0.18903525507954555 0.03045195969195902
0.43150799935179407 0.24645751183076925 0.019378669398975035
0.3717044479333964 0.22831518295339492 0.16287117443665977
0.4894307211293665 0.2637961081483411 0.10160767725145092
0.35073690024850634 0.18857055772508602 -0.027005270645645396
0.35643240262737663 0.21544573866489714 0.03372949986878382
0.4308889153849833 0.2660940776793268 0.08267216662727606
0.32874705989121367 0.19925861573838688 -0.009650537006024251
0.397213241191281 0.21684929354211135 0.01754412970467456
0.45229912622517077 0.22520362593903087 0.012532343222147801
0.45576311996524055 0.24810535268468925 0.04086923909324014
0.4586784093116876 0.22551799257185223 0.01971889962354112
0.3579931336511635 0.23238739965829325 0.036345900963638655
0.4132003116616261 0.25346543954016454 0.0485071259226828
0.4003473893578473 0.23791758831129073 0.012312608514989165
0.337415445027915 0.2825042844009573 0.07929979627367345
0.463342880012533 0.211468874352704 0.017635890755684613
0.45880671665622685 0.18384201273872236 -0.037846313795654396
0.3994153234113753 0.21817210695152767 0.0029341257827582012
0.35583008571711616 0.25839488898893137 0.03664015617266614
0.4538814801720008 0.3097627059040775 0.10480203881763828
0.3676280158805696 0.20873545048000608 0.0006708771318812978
0.41901370897741685 0.24154747577986768 0.05274302609979031
0.4078483701061373 0.17191156515175976 -0.016893390744087355
0.47614295530398465 0.1270680352233171 -0.02700564280004869
0.3568078836184867 0.2624692230378969 0.10657917839782272
0.4037000140840803 0.3042481904679164 0.05957998279085075
0.3720233994555002 0.22815514829724748 0.039336064129742
0.4947590629004992 0.15689748414976634 0.22296496731490834
0.4715693734136863 0.21405701663348964 -0.012813570734692803
0.40083166824287275 0.21244095877938207 0.04837937590897923
0.44897671395773386 0.23248190437425365 -0.06202066226745728
0.3897771973503126 0.24815571091514244 0.03630112800831853
0.37788589941966677 0.22060880936308536 0.010669872706671413
0.5688136408776643 -0.830574836341242 0.11830115580156075
0.42045021849159525 0.2046516734678221 0.04497748501933074
0.429813996862336 0.20395322782169956 -0.09167119701731963
0.31366711788564317 0.011695576238622607 -0.09614766598110691
0.38510246994135855 0.23601025628826733 0.02285746467865124
0.3564739883609036 0.1869109995943461 -0.03763873701845455
0.3080740177392727 0.15221524898505834 -0.0020299074388105964
0.49248208504678814 0.1989265067771555 -0.03926448844728725
0.39926743370523354 0.22124763293764715 0.02437409606088181
0.39110169167572906 0.25276883969846153 0.0483687768240344
0.3292127015755426 0.2046025671622118 0.02813290928801848
0.38459232883354844 0.313218256628943 -0.027656622257936192
0.4036010550049127 0.21631361750827693 -0.0012049591369418522
0.34362846379247003 0.27349604827841745 0.07934829703557966
0.41661601429107975 0.22164944979449785 0.06012575861421965
0.3461383246533387 0.2345683538496246 0.043867552269730936
0.39389203078846435 0.1749530060508846 -0.016337248926006964
0.44358765424019 0.2227255740572076 -0.05448266164597726
0.4077944830906972 0.2701817230978918 0.0463253023678476
0.4420950025750727 0.21241340112550233 0.0036489138208963823
0.3959703909225425 0.23468715103626892 0.011131869049989973
0.3016740280122576 0.2247278435496014 0.06473340545113615
0.39641239153741026 0.18903526621794242 -0.04991287955076018
0.49187379124606423 0.2664573869694209 0.13967546879642612
0.2496015342967155 0.2512819079978783 -0.0560352725326112
0.3913444042822505 0.24745626126062348 0.05591234378121612
0.39501473633120554 0.2897097715313919 -0.06886635723819268
0.40238856685709834 0.21601079805685686 0.015350004280236362
0.43058849999951576 0.22890218651269834 0.02168964059450218
0.4559274151708621 0.21106948094221423 -0.043982391636376406
0.4196761656538399 0.29193058773023495 0.08530763422884036
0.4109272100297119 0.2163756640041612 -0.010919867643963244
0.4586528762636135 0.25997413747074916 0.03364274092430719
0.3450240823578241 0.17494312850905658 0.020899790231098336
0.39881096927629756 0.22219303861666617 0.002200101778555563
0.4296575750915679 0.24006180932494203 0.055129401878687645
0.37054890059687295 0.2006537516934941 -0.04658229674606673
0.37314977705995034 0.19995758585008616 0.011479152512904989
0.37427481779320715 0.2106199565505733 -0.09331124824061021
0.4020189175213318 0.2591273157896268 0.09007583631554894
0.36808064171748356 0.2412163643274141 0.06273626420272649
0.4285064360712738 0.20537221154890517 -0.010069840046412537
0.40609252905309745 0.2573670844937226 0.04887381026119897
0.4914630135581035 0.20339052310529837 -0.04623478635349443
0.422389979204155 0.24121356268236127 0.05769508942677248
0.4264452526726359 0.24029329227101925 0.03813939120220766
0.5121333892917903 0.2828160331918639 -0.03409961814834617
0.3920941890280858 0.2502387939993582 0.04550977700770886
0.3271383558472394 0.1823985199048792 0.08360001788815907
0.3213832163681474 0.2567054367674615 0.05897383102542619
0.4427841578033451 0.20696838007023644 -0.022913135982122412
0.4050925855376022 0.2266921394103889 0.11459503728121945
0.4036109006149218 0.2567977537125046 0.10092620306340905
0.3760348927838777 0.19776353194930607 0.011753440245740876
0.30827604779057083 0.23152266408800415 0.03893897099558785
0.370476545106186 0.18320029089559853 0.010026871597020204
0.3625932522669757 0.23323182824270816 0.08409542378569768
0.45931781642606495 0.07825809489186497 -0.03539859000825629
0.3865315674653118 0.20468544468371874 -0.0405818653615313
0.41827394198057277 0.23213348850487137 0.009255252190740748
0.4204245963395863 0.2411107563316648 0.06383193998613024
0.327910306357893 0.2280903618460144 0.03369604206105237
0.4092642503202626 0.2291302826498054 0.006478379054641437
0.42854568180250396 0.29039618210131835 0.09138452046420298
0.43746734095986994 0.2954410818506119 0.003051257959825193
0.393697229175217 0.21198460349341985 -0.01887240647664612
0.4836650916663956 0.2069314768388324 -0.05192129678287927
0.4565038846077982 0.1614510553299624 -0.07527572528364601
0.2670949285663369 0.23666587011132378 0.09059380645635429
0.45799828391440656 0.24265555673540007 0.026783552758246287
0.40347915026852377 0.2055502473610744 -0.04443136766458622
0.4029842638915113 0.2622979943549808 0.07783794962230672
0.4140317278784096 0.24128781498879448 0.04134109786355111
0.29176566101259027 0.2234218762087039 0.04202294519379279
0.39298325958415603 0.12556817560167133 -0.13764068296347887
0.4655899538428372 0.20232221464392808 -0.05637466550565762
0.4331726770938218 0.2097196381907196 0.009413538220826467
0.4258402823851384 0.17229266584648428 -0.0464296590807578
0.3982563272856794 0.301057477198043 -0.006985637714521431
-0.18396268489354384 0.5010199093996164 0.13741178409645727
0.4000919235487288 0.2269966029127346 0.0229582641052275
0.4185879406113173 0.23654115171592593 0.02264549630231727
0.4373490255792092 0.14514107555669398 0.03267012024674898
0.4025862365728301 0.22124108078233462 0.01601394397931699
0.4058632023243831 0.2525159549243199 0.046116104944275094
0.3770863076071578 0.238484842959366 0.09249760049252131
0.4414031484717782 0.24056750583955022 0.016401189041886255
0.4138362753355409 0.21852588572275522 -0.01102245990529127
0.28111564910142306 0.3596974335782477 0.054069354169982375
