# .PCD v0.7 - Point Cloud Data file format
VERSION .7
FIELDS x y z
SIZE 4 4 4 
TYPE F F F 
COUNT 1 1 1 
WIDTH 800
HEIGHT 1 
VIEWPOINT 0 0 0 1 0 0 0 
POINTS 800
DATA ascii 
0.363785717408561 0.2317904040016856 0.06282913836724902
0.46518358781503366 0.30379300882007954 0.08107898398560565
0.40476956589805013 0.20773639469894079 -0.01718593747847308
0.4289886573111801 0.21696146165717778 -0.011505804809360143
0.39945050163605345 0.2385383774496148 0.03045935979139358
0.34720639052710567 0.23310867381196942 0.058136093198527306
0.36880666869154766 0.26402419693408774 0.09971241320521074
0.4565149259003647 0.22316799403077425 -0.016576957432391737
0.475129721544036 0.17510773551948944 -0.10009654844408544
0.4163158459009253 0.2968363869749169 0.030915424331595887
0.4341541132140918 0.18737360864028574 0.0009583632319873914
0.4866077345847657 0.2226381476004633 0.0796448155199414
0.3948535922463492 0.24619762305572124 -0.005198246024122
0.5077446384005668 0.22811226413179497 -0.04722556608263062
0.41832364803588007 0.23441140968809293 0.0375128859345466
0.41643434204684127 0.20439704859221308 0.015354032298915854
0.3845862060136511 0.21659872163687055 0.017853333609579636
0.45035883138574206 0.3212565866973591 -0.025838692367045724
0.37276523122190497 0.24398223870363722 0.0352404514464979
0.6161570554313585 0.2996479813571824 -0.05537552068494733
0.5577463204209039 0.025251636309377545 -0.1184339839170434
0.43128107206314326 0.2657994276691227 0.1377662390298724
0.35382747380103297 0.18590466540926798 -0.035980902557923855
0.46929214690761967 0.19187742499421745 -0.054987406023272456
0.3827784265139087 0.20698490677159498 -0.004841228668496456
0.40795017409459433 0.23259057107765102 0.015491148276566946
0.41841978281416914 0.22084815943729552 0.0014895762916182775
0.38126291969552994 0.2728447352488672 -0.0538114834941581
0.3820796922762213 0.20458606608931973 -0.04791930596385896
0.35135408711168736 0.19287543908205862 0.001584270749759753
0.3207498077416062 0.32278426718838205 0.21329140292331772
0.4206835658182797 0.21969290933176921 -0.04940936899480164
0.38675011346813903 0.23355333026972858 0.062213875558342124
0.42269830851773804 0.24331708405709662 0.028101818738036854
0.3692822445177626 0.20242969509010322 -0.03853090428825112
0.3658328283777621 0.2484233139827694 0.08761194628326052
0.41729727584149146 0.21009170185274684 -0.03235035155995547
0.4411591943006954 0.18595707641497938 0.0003566673719603841
0.4077944575983281 0.2641385985696445 0.08288550635859337
0.3426692665412645 0.2023395379646331 -0.07270527915238745
0.4037662510591957 0.19605825003841915 -0.0188420902867108
0.5129607652057473 0.2420828667384285 0.028854083399806996
0.3704614190658049 0.20243961367521024 0.09102295384177239
0.43237873551925077 0.21651015586226663 -0.027988084386223022
0.48508303951231824 0.3013880852814168 0.11768114163206178
0.353336253799057 0.20284499767979014 -0.08766713098495416
0.41141719660288345 0.2688972254249222 0.08060710501504786
0.5567473796227915 0.1633427101110101 -0.02724952616293308
0.4043759648674836 0.21757588738222466 0.0309490366927605
0.46121589791410145 0.20610505457025852 -0.05270818776858732
0.3221218966022832 0.2345637251314514 0.06682675485984646
0.38972042921810157 0.2057115234450464 -0.10938234924834944
0.28598200695398646 0.3338145202204146 0.10868385441472128
0.34393518204427664 0.25567207828970595 0.03936725415901776
0.6386295297098599 0.16614721303301394 -0.07565192117904473
0.37589968835501963 0.21925720461268838 0.03212305115363279
0.4010971196359492 0.2032984274788987 0.030279510487673633
0.4156796776667022 0.22363909436653273 0.006320535661359372
0.4736370431130297 0.20581527958503898 -0.08690653689968997
0.4431372497440975 0.20376586205335911 0.023517980879560696
0.439784283748736 0.30059488411252744 0.012991587164322027
0.42993916542749844 0.2321959260393669 -0.02857274834602208
0.4373166972985558 0.2645843713151521 0.060924001634504066
0.33070779126242655 0.2270274978857003 0.05026060821276701
0.35492642571077226 0.1929712878343537 -0.009240311287840086
0.3484099193499901 0.2780931574598924 0.08495709237692495
0.4166894016029232 0.19220043673709597 -0.022876590768959204
0.39309737677399426 0.22435917870012645 -0.011400016669384172
0.3334283012269452 0.2273897366680444 0.071715567961121
0.44293006556137016 0.2214416137949229 -0.056476836222032034
0.43097734633545315 0.14521547611545316 0.036244492369775116
0.3944752848479993 0.2252754191679287 0.038709974432094896
0.31745080642146206 0.17410254762252464 0.04848483515679902
0.3782569749323841 0.24053904226860823 0.07001539239209364
0.3989712262403202 0.21428669071471518 -0.04486501849029878
0.3485530330868869 0.21068792926203628 -0.02122834288694264
0.2636059877966659 0.18156700527526937 0.040189489634684605
0.3994073333246604 0.21627380952574526 0.04164782253923249
0.4224785477616422 0.2496152905157203 0.05237430215086647
0.3969646533440283 0.25991664713768614 0.02774391516339847
0.4389015117722437 0.24070196877352146 -0.1513939980258101
0.8412145328406666 0.04286670019106964 0.2090548425485963
0.39607223600052066 0.24135721685200906 0.06170512159748398
0.4067372805346423 0.2191694573422751 0.007343831622677044
0.322463676747347 0.1761385294369262 0.04192683245111084
0.42145766453981537 0.30175334645535656 0.11660167751382744
0.42217484270770456 0.23196370172456682 0.008344604550984513
0.39104441384552047 0.21805489675305978 0.0023505705194821758
0.4205575084240962 0.2583794182444592 0.10703999261572505
0.419140581460141 0.21836783749333222 -0.002046852597885618
0.41390387750419677 0.19358074933474256 0.04214332684557576
0.3425942472097745 0.2156946623427416 -0.013525457125609819
0.49615750372919365 0.24437311207805124 -0.035602622352996605
0.39816564987594916 -0.02689530859404954 0.09020225777132396
0.38326995305351375 0.25270764672141866 0.0771374022186535
0.5140903061440838 0.08091802245127155 -0.09021417486488303
0.38614976171680837 0.2001944836468681 -0.0004483789909954794
0.4109486097700028 0.25518979412129283 0.05504358943102261
0.35037493541095444 0.20509605086431293 0.007936042084907058
0.3237635414684519 0.19209052696953677 -0.025730450360569534
0.5183621908519171 0.26507104851978625 0.06279195242399283
0.5995938607929929 0.17604975769452835 -0.2662350718361495
0.40604188677090747 0.2638921988341565 0.08763148850454172
0.42175762510112236 0.19838826718495284 -0.045724956145818396
0.39673778194188003 0.22081339473650985 0.003414185783526591
0.38175393439971117 0.19803502886153979 -0.0006922293046898176
0.3617124518802797 0.16999272284481037 -0.023654571685213455
0.3966792000902615 0.2436016342990115 0.025538944853522594
0.44409377385608195 0.27402552904493405 0.029843241383971986
0.3383327766359798 0.227552137557268 0.17834316127206762
0.31603803978151745 0.22983799023867846 0.05040537925181354
0.3880247699756296 0.22589998201958394 0.062037005613461815
0.3724245277291658 0.2988303249285167 0.11654684591701425
0.3328132358711997 0.2736035444860363 0.1162694145253198
0.3987425537191882 0.18215197900515534 -0.02418062005557431
0.3615187012720469 0.21727510768560876 0.021626964845253838
0.39984908106099226 0.21685838734954643 0.029047589650488703
0.45419095489623373 0.19712220061502705 0.04193542628280511
0.42147015148987066 0.211587902587695 -0.011077576963799629
0.4187889834046672 0.23319077017927725 0.008018901122540001
0.4139122626617535 0.23397053144503843 0.03273492853219295
0.40621150511950077 0.25364028227696167 0.10205675193330421
0.36293409867590753 0.10747148885386082 -0.03273865433496326
0.4348836213529239 0.24274933510068308 0.04709796288759094
0.4012732743014169 0.2561940288177027 0.027869362094406824
0.3982945918881171 0.21966085607996888 0.051080165672999556
0.41018670161426485 0.22550849576346366 0.023071734474910954
0.39961715504418294 0.20629203342816993 0.025513813742520597
0.36335944594742386 0.2024013506189135 -0.056472757336166524
0.4366285881899046 0.2561094226354328 0.045777398345592246
0.39368431979437446 0.22838450463467552 0.10926241592636643
0.41490697131635557 0.29152602590377796 0.10236043965372232
0.4117766208632645 0.2684490524375178 0.10884076153828914
0.44992838319930684 0.3275632752288544 0.1014254208376002
0.3570661136859883 0.22706273702833357 0.09376992630333802
0.40953966846906553 0.23168488905757556 0.029615451912050617
0.48315942759792563 0.20915822888412094 -0.035162352912436745
0.46692163852004853 0.21836297132912819 0.07780289728711409
0.42639730207727666 0.26258877933184976 0.03259228692004967
0.37880415883702767 0.29319815218153167 0.12030511397043142
0.369653132801389 0.19529109021063107 -0.03654425065644773
0.43411665619396445 0.20654632672162165 -0.02850427293935809
0.3942097731963088 0.21083629218071565 -0.003948321400031318
0.2954248601176488 0.21217421868763608 0.03379383737990338
0.414921296953338 0.16666650498437718 0.009893658345006884
0.2609114146596596 0.2513971824332373 0.18030916125445628
0.3891440972739417 0.1964724744142785 -0.06766393552288719
0.3308284273384743 0.2074656738691658 0.0023423947349527907
0.3810079827090078 0.24332653542566618 0.057530509240422134
0.8059111006855346 0.37342756672784105 0.03237334913538348
0.4269426952483002 0.1658392686247936 -0.01532807100099376
0.39608899690321664 0.2959407313966551 0.13259244976936202
0.3354536928176799 0.1849479793422688 -0.06137027469813461
0.44291452010585886 0.2648102439555089 0.08930581135065552
0.31691813956632586 0.2365624147973051 0.013116238483547704
0.40640438676047097 0.22486864556989872 0.018712307831208363
0.3200608594334824 0.19223045112593695 -0.08748905509497718
0.35969823420735736 0.22962260124180034 0.028532353119658183
0.3270070364156368 0.2549921019092807 -0.010068949697071616
0.3963891617541151 0.22072160881153025 0.018257000210226693
0.42769549025935305 0.26613935034055203 0.026299774558964373
0.3546347676911239 0.21358685483454565 -0.0686183307299757
0.3931304093557202 0.22351502376443477 0.014576029893490272
0.3778035508262576 0.2679349514836673 0.050936552459660334
0.4364224947965738 0.27009344856597295 -0.022056034233855826
0.36231495542537573 0.1842249004364902 -0.004582561634947524
0.3729939561380604 0.21126605278354305 -0.06381728912442952
0.277736082628806 0.39162181932849194 0.13087978684703216
0.3596316051363715 0.19943025785590862 0.028623667089050286
0.49734320565889334 0.23631754737439792 -0.012084724609337627
0.46407062879070793 0.22401695050473336 -0.022043976418530065
0.3993442215310381 0.283729585669775 0.0806714028368134
0.35784159773081115 0.2019255126762971 -0.009175503461790413
0.4574480249516739 0.2141682067683348 0.007520048735457863
0.32129975942396527 0.21227854050006556 0.03503721310680419
0.38093876443903696 0.22783271865176857 0.006524003974362813
0.3484411061190116 0.23631680017216183 0.079524340331659
0.47506627908447285 0.19265027486260067 0.09402537090142005
0.4061751105788005 0.18410630295365138 -0.10834606279988179
0.42619244452485816 0.24352364437763185 0.05995548514130178
0.39533238395947023 0.19784769996539353 -0.0038883454338360934
0.4100238770502074 0.21350100099215297 0.001888167392479545
0.3712601425271487 0.17024537336889978 -0.03592168349575786
0.2943828720388808 0.2564122489021372 0.13300646544942651
0.5753279725078784 0.22438843967832156 -0.01392470309900773
0.3714920183674195 0.208977048810425 -0.07554765748614045
0.3823447727278051 0.2544893261868424 0.023782384000327284
0.41449948029992356 0.21896229032105907 -0.004305561047118545
0.4810591505542021 0.21267269831785995 -0.047092843389918926
0.435226725541213 0.20022489689543477 0.06264155406506688
0.3503875864380319 0.11214273401833452 -0.2597993212677068
0.3890093686841283 0.3199221785630755 -0.04180149399189759
0.365663211648922 0.22032579177931666 0.022766186427290336
0.36666839208254487 0.24249662687299178 0.09651784552792719
0.17232402482034104 0.30032019051566294 0.006643279168031313
0.31068561471929 0.2195721132451638 0.04340792892858758
0.298127699015339 0.2581157516450219 0.1423160427822694
0.3946596286774309 0.22824726789207261 0.015269042841936198
0.4825324333506842 0.22718505463635097 0.05356947021358849
0.3426331961496629 0.1955963954899289 0.04080688972328517
0.37136306971828503 0.2065418343658365 0.13086639482551732
0.3832283721889951 0.27785005031617516 0.00639363633806056
0.33461474858523843 0.23143343400319338 0.022734079858111045
0.3245982870903674 0.22084616923302747 0.08342701462765945
0.3827785055377575 0.025201986227671114 -0.010624171778246705
0.4092586536530547 0.15875911916187135 0.06093143860684336
0.4737083033196683 0.21585708513826773 -0.0824987238923569
0.5034840427845211 0.12987532843533245 -0.12226918185997704
0.27396984232669297 0.23809278833064695 0.10227127526863455
0.5282846448826746 0.19273548254551542 -0.09476204759927498
0.37432550662590813 0.16931168293781695 0.13045681689790456
0.3904527629031378 0.16375008719433026 -0.054990797546281556
0.3339531779100895 0.4127496963701276 0.04949622011889687
0.13936325921773118 0.19531755847927457 0.009029306508352875
0.41535834769587154 0.26380978852620274 0.07024548349021131
0.3598406917697332 0.2459033661751846 0.021719181841191926
0.4066187528225953 0.17014209500652555 0.011702827878508515
0.29523640263299455 0.2956726650605219 0.24612476752770363
0.4539613109980678 0.23378521779855532 -0.04217871527558259
0.4469468951572253 0.19449351335549636 0.02077323591873892
0.4157943342991075 0.2219513906435111 0.015571851527113267
0.2954390600160366 0.2802918550765412 0.09527466927008277
0.4376573000707822 0.21368779413538164 0.005439649044774342
0.4244622243366223 0.20158637062141338 0.03216734057696158
0.4435124529535983 0.2495207336345402 0.02661287494279918
0.3595386896616759 0.2156390183662893 0.08759017125341018
0.4072837429676497 0.21143624429198837 0.018597933870864836
0.35121020959309135 0.42314474831295 0.026016950930369376
0.42328108261745 0.2641702943782889 0.07107532369390412
0.5494775613623233 0.22958471727133656 -0.00677957134584517
0.2615451353496496 0.2097095114902885 0.09489505946760346
0.3992213851001907 0.21293684965831972 -0.010262500665049856
0.6775947579086505 -0.8460052453929165 0.1551647135522387
0.39942887518540715 0.10188011232247618 -0.06533257753078203
0.4299622924245057 0.21027795410104488 0.006872474438210929
0.4067859559925182 0.24457218312632278 0.00523490616146205
0.3492377170162797 0.26547822507585295 0.031812930764743896
0.44751822775020855 0.25954517679011246 0.09173716061053483
0.36447118080425867 0.24820215677350177 0.05440910979099556
0.4055920417571315 0.2243832241976378 0.015719749812291184
0.33839516855303486 0.1979186101537067 0.08018890881405127
0.40088871889268773 0.2561117442810996 0.05842985422789582
0.2817805835996978 0.3171417906266356 0.17874833118449374
0.35957282631180476 0.19539596703324946 -0.043761864453259136
0.3476513879773364 0.1830284852188413 0.02572373031748043
0.3776233888852829 0.23795898706637786 0.01664229795468941
0.3796401777842675 0.20371805069575544 -0.047163749680194655
0.43649198834279446 0.22383369866687985 0.07069676972946581
1.3420427156729318 0.9013122817010242 -0.4863649733782154
0.41750234702016087 0.23226578077716908 0.0678901845444102
0.4719954571857983 0.18195522456207414 -0.018753029151810097
0.40880893954900444 0.2386237815780703 0.05251594106536572
0.4659870896754654 0.2230968502277335 -0.006181141619151731
0.2760031233228517 0.1558443335497941 0.034551692679599455
0.43765430254634907 0.25576263936579835 0.03309328510870557
0.34473500839413873 0.2251394075223061 0.04855585149182673
0.3895765811450218 0.20402536336284527 0.04140680948655984
0.4177904964243453 0.22529837962869692 -0.0041311518072291165
0.2817936272031716 0.20147411892877187 0.1515921630674768
0.4008289276628716 0.24206694535939732 0.06428009094781828
0.42465592909485395 0.15418140489266818 -0.026791410342170252
0.6419799429680495 0.0688253535241472 0.06715266601835879
0.3972781795168885 0.24577620270852663 -0.06039274309262055
1.0865875496927089 0.04285738910954251 0.27845166604411986
0.5299417029297047 0.2128295885324576 -0.023470540693438124
0.302460399095537 0.13609806640160116 -0.10516043202301262
0.39124858321724787 0.22795137319221226 0.005615821933005805
0.5164909574712055 0.21478349622466908 -0.007550421070760649
0.38708261998326066 0.20904697706947672 0.0675258745631453
0.3922473807939326 0.1980426812696976 0.050339677807755834
0.38762544802935395 0.27637703566360017 0.030157456465587984
0.3634705124535742 0.2031618159284676 -0.009126506927515265
0.410982691774322 0.18039327427027274 -0.06072947163076492
0.3629747518022839 0.16919075842677955 -0.04209192544797702
0.5334214403290503 0.2062378818382058 0.08576805909289931
0.40392192474647004 0.20492956658823402 -0.028986400950955726
0.41254944063948074 0.22417074018254368 -0.010594101993547156
0.5045153331930834 0.2903041605166834 -0.014275138523458963
0.37511864911877524 0.19528163076550697 0.05209955830409285
0.41143360686126584 0.23881161342859514 0.032499510724193215
0.47471869412268575 0.2293373504717522 -0.01965446625716538
0.33060360104433073 0.18417579915586657 -0.03269736226332043
0.40187562081025874 0.22820584833129942 -0.029002625724629638
0.3840153744620949 0.16759303953853077 0.17277213287795234
0.42303785288440565 0.228250278935775 0.0045676068732518615
0.3829159582132604 0.19350454604747824 -0.15199204594910043
0.4739297960978064 0.25067442750979296 0.04312239884201574
0.4056421696308803 0.2195236080656855 0.014162200678228487
0.16203785171182972 0.14609855792501492 0.1439491526449217
0.42132136737208725 0.18031210668394237 -0.08942964026800837
0.4295612576413532 0.2581455680463165 0.06135279095627766
0.34620569198781936 0.1683742909675061 0.19909779644066816
0.45771573264673293 0.25525519020789034 0.012332227604687773
0.4038711289275767 0.2185657193517443 0.004596932869617376
0.40520806522589226 0.22460064033117533 0.032039066320095344
0.3861223702552081 0.21155341798638005 -0.009474006181591221
0.3360499738899989 0.22735583930615633 0.003510503537327736
0.44918482732775544 0.20681822092461744 -0.060862550995111064
0.4063261069626378 0.22849191927377888 0.00990383553246943
0.40938859480056067 0.22730376682858378 0.07775885810579553
0.3585363749294572 0.2483497202764937 0.028699743669236
0.3798201035052813 0.1844500995978251 -0.03414995360540729
0.4444586363082692 0.234347228212215 0.05660330953195114
0.3968841251869293 0.19261686603425687 0.060443351888395114
0.5374847662692162 0.12594804553850736 -0.018947466695578896
0.41976388324438574 0.22210380525393703 0.008678014618197949
0.30914050589329634 0.2784903066777531 0.022907158318759002
0.43839244274687417 0.222853564802179 0.034035789570467045
0.39517808427103773 0.23741274591914419 0.023403104313956646
0.38316244738695104 0.1945224523335014 -0.0678322340471027
0.43605615037154166 0.32005705855991096 0.09615447100830465
0.4131044760238467 0.24458872548174782 0.055858692927486686
0.4716099727446874 0.12587063448219737 0.028633542221669472
0.43855437715592416 0.23658330103508263 -0.04460520595768003
0.34401039077968676 0.1706998296237856 -0.03419330632625872
0.2929546354302488 0.324488694424673 0.025928628066083093
0.39280651303820946 0.260424279191767 0.005620466252082679
0.4387767378889862 0.17570853494774497 -0.05201654450107185
0.4235323483602258 0.24055020944756222 0.0843161942559334
0.429139327691729 0.28876613539645746 0.07643752889367761
0.3447539854320212 0.17891647021346557 -0.03663711952930271
0.46286389578160936 -0.07357561412422342 -0.03570105802531032
0.4491767538863911 0.3057813842043231 0.08447264019939382
0.38392595887019354 0.20776260947644687 -0.014101895354428962
0.4177901237584649 0.2148676203136688 -0.025520317812009807
0.2651119307481622 0.22798066206757994 0.10435266296822476
0.4890127505249211 0.2568751612649862 0.07001698484984331
0.44597189606301413 0.22786640064425967 0.12482279057755363
0.21900427620910534 0.3138706487603855 0.21145297663242957
0.3368990348247678 0.2192845395169627 -0.1142393643063997
0.3834713369552958 0.23912107849352537 0.06397039033025465
0.31593036831868915 0.23572671790945776 -0.05884368696860065
0.3684199506096064 0.19450857305760394 -0.06861000100285253
0.4343721095331148 0.36465033093986676 0.24769206152116396
0.34748081782598206 0.17410763042482813 -0.05631902009554324
1.5807457368159135 0.27396323023783964 0.7620833378340564
0.4086517460710013 0.2199120674826247 0.007299836379161206
0.3505719630951347 0.2698336171833091 0.09531047015292415
0.454272460179169 0.2603773941696943 -0.0017491127474897894
0.43820144267530736 0.17731747903812334 -0.02224751033199368
0.42544363941345864 0.20780094351772505 0.007037513182353905
0.48486059595055053 0.2550588708763257 -0.03377115675985465
0.3755402859725052 0.26939000283240944 0.06516764889778415
0.46423808842007475 0.2779475781972991 0.032817562410826895
0.4618934751023005 0.22092665261720867 -0.006902288616700503
0.4247792534077348 0.24454994754239578 0.06769034730191947
0.4001915791203601 0.21855427832056762 0.05046282897919241
0.38565108470169207 0.22514697791582705 0.013003034563979554
0.415683801741892 0.2371611457624283 -0.0053617655877644665
0.3753272613944887 0.23275973124219718 0.06340422923740618
0.5056950636933522 0.28751126306818264 0.08751626091768117
0.5160862113196742 0.21260074832100884 -0.027626744995103536
0.33547481420794156 0.22395274926688558 0.059197623331371574
0.4538378602691182 0.2204448239455985 -0.025395565141820953
-0.042147912641524954 0.6075651752099702 -0.042098384401597855
0.42490986184506596 0.19718461238950624 -0.04976241167329931
0.5189066611445128 0.24340479041013907 0.018121314817136636
0.38408690078415475 0.22707095604690153 -0.0012539016021548832
0.5017894717504419 -0.007386979499386825 -0.22271419508410872
0.26725710949835957 0.27194553996881154 0.11945191033007063
0.3054695572555204 0.20029395530855254 0.20284508676027713
0.467062964957762 0.2171872103802741 -0.03154308631556546
0.29166102883593226 0.31656018894511817 0.19597230401339516
0.327435573283438 0.18084099632400807 -0.016302852474609608
0.43024795526217474 0.21916757105601903 0.0984312278986863
0.3823008582805443 0.22647191137525624 -0.013952789156832068
0.3724279795639518 0.19929711152423124 -0.005912958021056625
0.632055150550201 0.1704341429914109 0.04905695985584657
0.3958793668689964 0.2523509933132857 0.023356415320520796
0.38840130662342176 0.25743911456774526 0.03097487200487592
0.4289429517555732 0.27077573060324767 0.044249729140574345
0.3629393658612514 0.23843533689608876 0.06428077420849831
0.320152642531923 0.3080164213392891 0.019841581814830533
0.3711245351965289 0.1845313416222325 -0.053374257388227875
0.3909595216108812 0.2222294144166881 0.01618096715267825
0.28567839021548025 0.2597912806045315 0.19681978117122867
0.3904064089208248 0.23012495482531392 -0.022625873515295325
0.4059919821453235 0.2423380566156652 0.0727336084150636
0.4653345453742901 0.2545286026078486 -0.017465590778940054
0.388588042753895 0.2313623268204168 0.020944774030198232
0.44941421743536125 0.21717068270919526 -0.0526385407547707
0.39569562633808175 0.26051544366677604 -6.808870062968708e-05
0.34083484549900334 -0.8112509969779467 0.42649691974702364
0.41499136736894116 0.1949585438001833 0.016579945500964755
0.34824548037610725 0.2316287320482644 0.037080204786860804
0.30624125159272353 0.2613812178550887 0.06961926944404695
0.3310794927581924 0.19538362556139077 0.04564983336238981
0.4377478054011732 0.22843392796853834 0.09624798635601906
0.36893578542054684 0.29311102623432816 0.07332390829802193
0.10756455414363586 0.20583764015438533 0.13388237275101744
0.7082691672949863 0.2589164339708816 0.07113318293340853
0.46121465207241386 0.2602981042959982 0.012504360387993074
0.2798724793179588 0.24275859874023809 0.12323704672772351
0.24381164883155293 0.20335863783796526 -0.017739524478827207
0.4497122076479343 0.1964979283669379 0.030708285830741033
0.44048615742926245 0.21579764647160005 -0.02203731143248433
0.5049435279740351 0.306350213019698 0.11653860129953841
0.38182732549537945 0.2183334765923206 0.0021269071652341154
0.060928139385524105 0.3255996469543163 0.02922740564699211
0.44068918000245105 0.2061063006985222 -0.025924433742403608
0.32536294033471336 0.1929635792348705 -0.01694559365114401
0.36588429531616384 0.19281700715922057 0.05630684090637317
0.41127875224216837 0.24574909603401807 0.16505972304582883
0.41761424469177655 0.18860701101696975 0.00031947216035632664
0.43753825798546586 0.2216974985150557 0.005445732366894163
0.36464055626768754 0.14690834185185508 -0.043674140487013347
0.4014082393743479 0.2352602017428751 0.03291482699006565
0.407733576807658 0.22869386871630581 0.0287140195942186
0.32726622386546467 0.2030916305940309 0.05530076308554044
0.4120373461742304 0.21729685805824772 -0.009360703518638047
0.3844291641939179 0.1855932160594591 0.02782563775701874
0.385425202616716 0.22573570566591172 -0.02305625564227398
0.4163060070313378 0.24103226194537797 0.025493822265985955
0.43105286079642724 0.21027316841556853 -0.032216976705214506
0.41228272115212405 0.23886730350005791 0.07747737082823392
0.39890129693372955 0.21661687939686658 0.001965068567557182
0.3900675460171499 0.21217046216946756 -0.00796101467405208
0.4394281096210193 0.1861070989268967 -0.22044995315485494
0.41854919867361673 0.21954461035979023 0.0004686114303353861
0.3946592672160989 0.21272199250822155 -0.015854533294231032
0.408407294180563 0.28503093584623684 0.10311950967800954
0.47504011032751237 0.5028034680232452 -0.0716460197287887
0.41756679685461506 0.29542114283316323 0.14044602306813658
0.4139659870452874 0.2530592090774064 0.09030368759449914
0.3700717180007871 0.2316903645691184 0.02330167190743282
0.41278202408284415 0.177048153237493 -0.03248221399059048
0.4204718190841845 0.21564843736086914 0.028726880883880312
0.28033643607778913 0.23841197615476517 0.09645381758144822
0.3168187581402151 0.2513665846547042 0.2360529607524171
0.8586166008159211 -0.022956169382297276 -0.32830683501073565
0.27449695247163675 0.13716014439438595 -0.05660256485845139
0.3980403920859743 0.31198939401753023 0.10991421858631156
0.410124376252611 0.23099231340496829 0.011679597605791514
0.48405534193256017 0.21539571197834562 0.04357430335021206
0.35372511253126504 0.2101602496980064 0.010942191352143027
0.5278354180842229 0.22702659707212547 6.844354138024755e-05
0.4417207108045318 0.24961682780181604 0.05705919149983174
0.42175707336549806 0.1799730291716628 -0.008047465263928189
0.36454285642633977 0.2094365938710041 0.09333694893291522
0.42807779819830216 0.2708101576559727 0.1594312211487079
-0.004802126556484154 0.7992683311452282 0.446568601352368
0.3957785824520954 0.23828521876701814 0.06655744214120318
0.4112702485507782 0.26100776872165454 0.05369378860598317
0.45158528109976714 0.23469299096505836 0.0733729618453367
0.41560907439613004 0.22688609913399205 0.014358265579289764
0.4046676770016404 0.2524066227363875 -0.0547533444934345
0.38639999064805863 0.19690113974861845 0.023775467864794564
0.33694974177777226 0.24801119227598178 0.11902913965363382
0.3891803865602981 0.25274077452354504 0.07717168370299987
0.4233057626872352 0.21156779825490446 -0.017442445048061472
0.4005759459123226 0.2422251700184006 0.008719002207143944
0.3604160441103659 0.25354444949263666 -0.0003970186873516468
0.4636989687686963 0.2185095323749664 -0.033121544593967656
0.4699795952148662 0.24425273110125545 0.0012597504512399382
0.4067284110680589 0.21069029845065756 0.016084603411030685
0.4332986474090319 0.12842717801660797 0.007546999694795886
0.36660979080696166 0.24037822608865156 -0.02391315055737664
0.42630266231314806 0.2255491503749596 0.01564853034184921
0.38085166008912097 0.26772342253998715 0.09297116171558173
0.40235936379801274 0.21594584364983405 -0.006504588595433347
0.4536673324989522 0.23166024274708263 -0.017157784330777304
0.3812456728833524 0.19309277787888846 -0.027485096760173633
0.41661446918033107 0.22871278406539375 0.06143381604925935
0.3750674475332687 0.1380456522178264 -0.028462668796507273
0.5869734778466551 0.22452455014308725 -0.0007207879167765441
0.40521372617156715 0.22600944012189927 -0.0024759418271571576
0.5225551136014133 0.2514876745241139 0.035576844829336096
0.430723425234234 0.2911626735621837 0.05381981875515862
0.4447096816824967 0.24293786551027097 -0.025074957167589673
0.3982980617311398 0.21212711919963567 0.03899908733171742
0.46548963558436185 0.23277686609706905 0.04254186596713794
0.32378679669463395 0.23408473618555092 0.09430378519203941
0.46697599153353053 0.21507149347849008 -0.01875646604108283
0.48044255410454184 0.34825077586373254 0.04088738536091796
0.41956260630811926 0.19386298267490076 -0.07834008616637789
0.4320681150879011 0.2772949838103784 0.06535167962746868
0.4240709768146189 0.21217387642829522 -0.08538339637928516
0.382128146424094 0.24548104510080293 -0.0074932178655870985
0.5379487020868368 0.26462377115446145 -0.04328372389052504
0.4283298690203594 0.20634617050862403 -0.07707898059689455
0.4082614747508586 0.2427184276276222 0.03671840105009494
0.39500620879002213 0.2672337640154012 0.08725054266683685
0.5313686685902326 0.1965339973937148 -0.049700494593651
0.39747087058597685 0.21171929831160696 0.01096143861894916
0.4246127107246309 0.2075203185762291 0.006298074341245297
0.2919453137202481 0.20606607638984542 0.1293188391871496
0.3157177193227909 0.19689106602183415 -0.042700227062994145
0.42487913460715276 0.22901408241199306 0.0017700830745468465
0.28045668683935787 0.22167767543297145 0.04929873996067613
0.43138660340213164 0.2577799207317071 0.09698780594249001
0.4318479450278403 0.2269476390415548 0.009173296778811846
0.7547773099265243 -0.8601177018923636 0.1014192941227634
0.457610849112001 0.2284892337303006 0.012500747830912928
0.4071045454690534 0.22943439692981826 -0.004273662088422725
0.44662422072154584 0.21417952915439287 -0.03899170372673666
0.29733259380961385 0.18244772150251265 -0.04053466528617378
0.38063534380694364 0.2052273111072367 -0.01023534230768064
0.3715957594464214 0.2009498802932228 0.011592767861827724
0.3733244652678138 0.27551388444354075 0.11200110661361862
0.4537811232460598 0.3522860096562397 -0.39096855595015256
0.3798095945457902 0.1858569396993346 -0.019391817166649616
0.3825919527768349 0.20025212109628399 -0.005770647924293826
0.45417649313893094 0.21074213939968445 -0.02168098054079337
0.4685733817948119 0.16806953477777142 -0.15846192092018896
1.2802175886247937 0.3663269749463325 -0.24133728067235438
0.4647478469856594 0.19741037001605832 0.0573461911480706
0.3955938910997929 0.20115112012157965 0.022808167698457282
0.43066130250356593 0.21871378569613853 0.009963593569025875
0.30897779723630947 0.26348684605872563 0.12898843607320032
0.39495806771725483 0.21259343662327979 0.045049730183308156
0.3903557335080876 0.23058856997820953 0.020326903155137188
0.39635532824843267 0.22971224858127925 0.03473573556455278
0.36184437526307534 0.24618948605935032 0.012575235265160245
0.42841617727344783 0.2193466810324054 0.00827684858218447
0.5385922307627027 0.245363160362416 0.005191615511279224
0.37043406683403646 0.21916701040785824 0.00844039413495068
0.4962589193239353 0.2413581929891393 -0.0010385720614181082
0.3693203350359795 0.24418398516320394 0.05246782381458104
0.4262015923359286 0.22184653152956457 -0.030330421909155802
0.37271057098942606 0.20087936357981562 -0.043773123871659436
0.17746472650232192 0.46641406750252656 0.3120593272907115
0.3796579827298956 0.3081144852029354 0.07391310025504083
0.3449200429942323 0.17489227317599898 -0.06416818501551802
0.40737911196066534 0.1988133818927622 -0.030638177668194544
0.43082717319177277 0.2095357960001678 -0.04509680758262391
0.23192760903415888 0.3970212846162724 -0.10063682473519009
0.421262544357603 0.24440823005647871 0.06034233112382026
0.36195457131194075 0.23749174531306494 0.006115498654480689
0.3741070176979804 0.22765504510795154 0.0615534509757083
0.4120458733864467 0.22123231937098353 -0.002779807966504677
0.46983877753987713 0.24578704596606826 0.04603073055207574
0.4736104840695248 0.2361201171235905 -0.04640847208955279
0.4295388327683156 0.22213780202413602 0.07273199342466796
0.44857031608657394 0.24085483856839573 0.04757596430155786
0.38416843324431227 0.28466912337569283 0.11058212041538695
0.46260797720827895 0.21236127316690556 -0.00567044470376743
0.379747771310889 0.22723354399798268 0.001574454647169432
0.4022116936253326 0.2248132519709003 -0.013706369180638944
0.43082588087663964 0.22876296220337622 0.04538812955823346
0.415880414093877 0.22314418845996897 0.0206066469775692
0.43947010045891943 0.19645472169395362 -0.04805977064958711
0.33164964486647364 0.26216518607667183 0.11059156999226616
0.41850685830161183 0.2710887051234465 -0.08242917899042368
0.40169446524512864 0.16554736011889304 -0.09892431137976132
0.38290358625572196 0.10065598385554608 -0.08121603603606786
0.41231893986653745 0.21425920547986266 0.01561411913661459
0.35159101261101 0.19969830703777802 -0.012312627797513187
0.40951829464117395 0.24753776904381652 0.012745574352095446
0.4082668230319655 0.2507308790910656 0.03803703032373562
0.4745937563817222 0.20217187889693378 -0.020282095232005304
0.3050338796292067 0.22896228368433924 0.04379798826974479
0.46371836985100856 0.2717400479367882 0.03157864202542271
0.40506960795562463 0.22316993567429222 0.03645585389944017
0.4645496144595853 0.29076773316846527 0.16928034227942135
0.2684306905902929 0.22632435305766307 0.02459743338796727
0.2757335027227441 0.2651563673989017 0.09957039364746834
0.38166939853059034 0.24066028303204234 0.07089292914983503
0.3799705701477194 0.22565712452129105 0.07149084263767236
0.473893274566791 0.19365609926842353 -0.03084312378382492
0.421917505290736 0.25746957249886293 0.058408155261489014
0.4174272199114455 0.265610318264649 0.07474615426482956
0.47828020071401056 0.288244371169327 0.11240895683580732
0.3610516098629688 0.30957872658576946 0.12430156481596555
0.35506450134280954 0.28235676296984025 0.1257563071970651
0.422155516746443 0.19213328415821707 -0.03156641796797999
0.4160816256563038 0.22217578289621542 0.06463183728352817
0.5076224734788468 0.22284206583580612 -0.005290484771478532
0.4207711347674774 0.23414971470235457 0.01703437544205144
0.41332519573211357 0.23031407085414912 0.28616128822645237
0.3589238698140633 0.2537884000936259 0.05422011704966678
0.4044216725120009 0.22022357093035794 -0.047903250761848426
0.32655750938269534 0.18679360727642802 0.029054825264779538
0.4352165843106519 0.19142045202534064 -0.06858434936096103
0.40393752423307205 0.21635524093785818 -0.04571331763692399
0.4505596816439663 0.2285262090992859 0.10980940298543374
0.31200112140845704 0.16627555066973798 0.096884421283022
0.4315863885897784 0.2378635567540215 -0.08940365404647821
0.4224335924952385 0.21594087678539609 -0.0013568180453376044
0.46641324544630436 0.21055597830586237 -0.010416263333681286
0.33321063066134116 0.20992677119494374 0.05717042647256676
-0.036778026837595235 0.08902529957501315 -0.22131342976274482
0.48572972163458417 0.3048462400094252 -0.029799300162494546
0.4068665817005268 0.21982593580590049 -0.026665176429133908
0.34877560895452575 0.21909022372781806 0.04738913979372228
0.9789847140042411 0.2448021063700878 -0.05915959939427751
-0.8937179646076459 -0.936400263518621 -1.2805400809213268
0.4092618806197379 0.12435121863396148 -0.10488075168186128
0.3834652884726779 0.20530708426673527 0.047009198256660056
0.45546029782551045 0.27442792133476246 0.09162164991354871
0.4095646546962257 0.22631176337037573 0.00019941804647771733
0.4687375162679075 0.21427393240108472 0.02753319832959278
0.3031646704162796 0.22151259194443185 0.10734445440962759
0.48666504443045255 0.23073053278598366 0.007232325036284237
0.2727690312187292 0.18373924145717524 0.0200156019542419
0.3673147182357752 0.20300927806337654 -0.02084528516871842
0.38812211892633286 0.24697603083032504 -0.04912109914252483
0.3997846826167972 0.21237593252467946 0.038352855657194596
0.3797766485226646 0.23067903882198948 0.06603607067499695
0.41346378823062935 0.21361471752820194 0.0195676084477725
0.44345404042124414 0.2672074144729777 0.042212434808334365
0.41499389237310425 0.21395941654856188 -0.005666404983145412
0.3937143575072355 0.21627783096707276 0.0003929103843347548
0.43425331004556256 0.3081374383118174 -0.0008865973825038509
0.43929604548229406 0.2509661125631055 0.017742746432617196
0.4337139612958367 0.22874550648202785 0.028682394303885417
0.3942646000861316 0.31009329977010225 -0.017102830907674615
0.10929595404670067 0.3073709774456148 0.24245545018574433
0.43097328423898773 0.03196804109391849 0.15510645489524677
0.4488863886928698 0.23364402050452782 -0.015291865404165605
0.42930294826774684 0.26312538300403787 -0.03882369191222779
0.38874799156086226 0.23534269966691568 0.0015299452155232984
0.5355295713176247 0.2426790312175342 -0.03211947624237155
0.3697456254040645 0.21819101511691485 0.01949525821748921
0.40391078217473364 0.20375476060453934 -0.00559047103789112
0.3926109329663916 0.22370541983761427 -0.042240598565086884
0.3713022472449552 0.19175289190083333 -0.07435013669753232
0.32873749122515505 0.24545842282171293 0.08070245638883478
0.37169038864240633 0.2964699839469347 0.06388451934157047
0.4018777992203866 0.13794361514395348 0.1884773446063832
0.3987476057853172 0.21669611129929933 -0.0761798192454819
0.40769681335476093 0.19675856855982943 -0.01935221910954965
0.2844709497690019 0.17789128328321624 -0.0237694252580809
0.40629390219289974 0.203834229398268 -0.02771812461773493
0.38945094949974646 0.26309790091478646 0.08347222307327229
0.38168639049141007 0.21899000532485502 -0.034269982467819204
0.4218748326910031 0.21091568091276258 -0.006355538907286018
0.43690996826302353 0.19475881427484865 -0.025599769221983593
0.4190043458763455 0.2591192418897066 0.044291628102541836
0.4018088723512676 0.21329508075373838 0.02836327545279005
0.4228078422401609 0.21398631425314818 -0.02374149698815131
0.4793954601426549 0.2254189596337568 -0.049321347674748495
0.330838624930081 0.20162504519694835 -0.09472437120659549
0.4332228570593486 0.17309300066433764 0.014498744419114473
0.3610797586204768 0.22053859767841288 0.029580638749621357
0.42202094938389223 0.22133301951436124 0.0007921718232637431
0.8140920351735588 0.4443701503780346 0.255406697852294
0.36886592730162704 0.26599861923217816 -0.011188045305033256
0.42995931316229985 0.23220142575466696 0.05957051404043057
0.45428862830044636 0.21507627248919903 0.006906574815587874
0.32721395282507615 0.22380119212056115 0.06353156227996237
0.44170014971348337 0.24227154827310926 0.019603807400159212
0.3612752548224307 0.2843286517822037 0.06347366984407188
0.37571472362003533 0.25485020207747766 0.04714812720857253
0.4786167355366615 0.20385690201776185 -0.019885119050712774
0.2870444489333579 0.20559976409538194 0.0901325713748804
0.4207565452148856 0.2537133921498764 -0.008707275163985173
0.4406935920563626 0.2628686398102076 -0.020955006941562715
0.39832802261449274 0.22478881804394746 0.028868390784481335
0.41116391831148746 0.2603911597530839 0.05944043203272997
0.9599141739385857 -0.7551286429405764 -0.6904655832937294
0.3498027052946071 0.25575407566921626 0.20498441939901113
0.3796482280014004 0.22884441233958341 0.04508853861494799
0.430508336362891 0.2407480333660601 -0.03958875781452775
0.266290582027068 0.21494562010303753 0.011496581860200195
0.42110423412279374 0.20949807508785057 -0.040422532734055494
0.45009799989099974 0.19195132941163706 0.09741802164668911
0.3649056577115175 0.24475913784117154 0.04152442237094078
0.2979915804682207 0.18474559230139675 -0.04805152161794979
0.7730058042340602 0.27394123736115716 0.031716588559504544
0.38993662944824337 0.273584010883809 -0.011269601454529266
0.4227045079492342 0.22208534349238107 -0.031118141896939733
0.28224609304274395 0.22351849691062853 0.033130403212226156
0.4157400577506394 0.2109156324754906 0.001188980296376485
0.335477523944121 0.17818783961467943 0.012792407686646357
0.4229440934566213 0.20771493570795485 0.0069612258417635076
0.23891612065875734 0.2153806458450731 0.09917895969951473
0.4053173934788106 0.1994941415984215 -0.030416450651415516
0.4047371082625659 0.27197633642332164 0.002837931250354586
0.3985483861908392 0.22884084370659252 0.011132309589953593
0.4514189953122525 0.11102136386703876 -0.025721504289663244
0.4990383214653349 0.2671339971209079 0.12650774965840128
0.40124925811136336 0.21616142254629267 0.012738627889262943
0.4389283334582217 0.17702443172193227 0.00607977049688202
0.41529152641798817 0.259378608116009 0.07862993597530021
0.39747883052324084 0.2051630224297014 -0.021788457696544583
0.3693951077100053 0.24254482120008447 0.07913206636681025
0.3155090826496689 0.20819168102039498 -0.07316067053378106
0.3587879007539243 0.20484630029667983 0.061158245519749244
0.41753230541090147 0.2455886559137923 0.020606587536263987
0.1392132970733826 0.1610257752265909 0.09254620056525198
0.3889829844815864 0.259066928224712 0.09799774061482935
0.3644472303542443 0.22725149936452738 0.05575108812151086
0.3348548624891521 0.09700790189506847 -0.014586480265478485
0.35997844511584276 0.2395873573097873 0.04157585495468652
0.33165362368710305 0.2538913801022318 0.06984880632204238
0.3049572186364742 0.1883931513280146 0.018240917513679733
0.5540156274267218 0.2505151712666134 -0.06184897460218508
0.36351339752596346 0.2185411332953322 0.008340086749086595
0.4248842082340616 0.24083729785978392 0.058269459164222326
0.3985586441851581 0.2874215508839626 0.06503407182549381
0.31630865892255144 0.2354570413048407 0.05997032913909095
0.36306244981500413 0.2659218869617064 0.040459515957024905
0.43531271914298486 0.22214579730160722 -0.06827256535848392
0.40678542129836615 0.2100483288113253 0.025918236915146053
0.37000084865368876 0.2190990321796562 0.020224990064676263
0.300029620044981 0.225718283761438 0.06270652633273244
0.4282097172531252 0.22929679844185102 0.0016159947422806908
0.3762356328129073 0.24896308433758918 0.07171175485711956
0.3472306420363509 0.2665349889027482 0.15641020397778505
0.41142433165254033 0.22666720419809394 0.009816245261049517
0.32067164872032095 0.19750470702214784 0.07752350884788939
0.3923626113745371 0.20043868742831705 0.08100606387567666
0.3875974720472044 0.25087088990261464 0.03220870860491232
0.3869964026530539 0.290403460391758 0.033595348626022314
0.3853163281671925 0.21830106092363621 0.060297621186578
0.37346412374895976 0.18695247469318588 -0.040493600856450485
0.4914329332140994 0.955236900549238 0.7977236292989005
0.417041188290284 0.22583348210628174 -0.05208457465266747
0.46297593533157055 0.18470457789416628 0.02923278645525329
0.39468908720212426 0.20555104124869672 0.02360326716552663
0.426392487341559 0.20765469933510872 0.016182699910345377
0.4601612998524587 0.17409877446542055 0.05341172625038837
0.38899192508475267 0.1976525848493509 -0.03731487347793916
0.4756144403134499 0.2357333937143551 -0.06931602017004934
0.4526143648232619 0.22628591221044303 -0.03355446944721052
0.3879715236973169 0.20136761971770056 -0.06124598032437234
0.33856763559447245 0.26756235937148176 0.020231281349452956
0.44292575347407137 0.21813967656305522 -0.10273633995410592
0.3572629960948035 0.2660866376827471 0.10568574049958102
0.39211924687926114 0.23257875903817649 0.10185185221763504
0.494685543352432 0.18785593877434792 -0.07218852703260836
0.4291647392124105 0.2370227811846064 0.007364597435298492
0.44304864396933397 0.22590470829155151 -0.024458740797214773
0.43820506736116727 0.2795867214759937 0.013338434921877251
0.3738707271986641 0.2679434322106147 -0.10270299676489003
0.3715667840721437 0.23684276221968048 0.13124223342884989
0.3734241067704147 0.2024861101873796 0.006200732968409284
0.40466099346789974 0.23216465488880544 0.011252920529472021
0.4225782736296395 0.2036152203651369 -0.03767645450911061
0.40105064363157794 0.20681400488530244 -0.004831781941149416
0.3699792566079054 0.22370660604892123 -0.02553860545583575
0.377031111893146 0.20213336739909948 -0.013966340793601262
0.36876422388360197 0.19840399566012934 0.013969781442597196
0.6742435981187214 0.10540626391505725 -0.3067150955321267
0.3771372251732714 0.2271461647637949 0.039798084107303566
0.35554121448350884 0.2205200103173297 0.019205395376019396
0.42408133653667335 0.25227604985985863 0.030622563802523928
0.3911234744029457 0.1950567355951165 -0.05394986091241094
0.3735374135764289 0.2068856130546095 0.034873574184459244
0.5381982155352887 0.2340971983821305 -0.07581984470296277
0.4510126058643493 0.22673847279114057 0.03589648364109621
0.3283326351230045 0.2407190715997558 0.05617511404761899
0.41598515383762447 0.21374479756465803 -0.002247791796207821
1.0067986072160693 1.0380053611199855 -0.03244738196158892
0.3924395034604231 0.19310124023206754 0.002631215959667088
0.43242506345514187 0.26102607472091677 0.023172042961903117
0.44370207272174866 0.23751652089185882 0.05436271153833161
0.3124303327471978 0.234527037017898 0.12244061583865573
0.44574916213377946 0.24641217439462082 0.08713626920865636
0.4214241706490327 0.23858489961762075 0.008864527766220931
0.3842343932802663 0.23613949978330595 0.04318264549507944
0.41493348032363997 0.25246407489782996 0.07236721351669928
0.4665269940226864 0.2063845747864832 -0.04597376256378993
0.4227810508419765 0.22081427634586248 0.002985772387802399
0.4223010616874774 0.21266302528864856 0.011699293636766583
0.3930294723471661 0.23414147378566952 0.01746331264595824
0.3593320002038638 0.16634347178263909 -0.033064958840526515
0.17649229308626957 0.28843523267565274 0.011047486787276739
0.38342368933294324 0.19034809158387134 -0.03321252525665841
0.4601650908864059 0.18578668184710523 -0.1341521666993799
0.4174766860237469 0.17993348299711442 -0.045268678905060256
0.35760568815550187 0.26413289311832955 0.09294517629794541
-0.2743814416909913 -0.21861710872667572 0.3994479399806181
0.3628609758805226 0.23947128540723384 0.06856483046600204
0.46759133981079515 0.26548708309320546 -0.020380123534408767
0.4037764820335923 0.17538840360167285 -0.07505159730459354
0.33357656042613826 0.26191351097133975 0.07184984435374986
0.3467566232274635 0.259021172982429 0.10654793858533651
0.41675932391211745 0.20599554824228505 -0.02702875428525431
0.34934065182775953 0.19135830556353994 -0.026755391509055926
0.37593610897650365 0.1996085513669641 0.016261612862209063
0.3251745869490037 0.22265553873587862 0.07174232456232232
0.428588898100287 0.1970488397511616 -0.0910860305502581
0.3726189617468094 0.20981763602090098 0.04994670481399055
0.4500010542456323 0.2551160216763151 0.017873355048891426
0.3497118406230868 0.1690323281996342 0.006923026595899273
0.40760297893027087 0.2507634885067205 0.020830712682993635
0.41246278113726476 0.26605511098446755 0.0700525426455556
0.3458451439119443 0.24628830202991026 0.08149713691878446
0.38193184395576907 0.16586544196854902 -0.11183359222974332
0.44636156561647056 0.24996439445654062 0.008681307479520228
0.37065929693474686 0.2536972428649449 0.05524554774197554
0.4535348075019954 0.1720058301557401 -0.09051629407767336
0.41932715127657616 0.2177839262138832 -0.02687477029206775
0.39510041630325077 0.24208772896093933 0.07559172845984108
0.3733391786017535 0.255376879722121 0.08346301337962814
0.5153622831905693 0.30325137450691386 0.06282658272775166
0.41483905564820134 0.19845004815432787 -0.0177721052199189
0.39589729206591073 0.21161493842967616 0.05642461989194203
0.4455246522531837 0.21855549544250152 0.062399147430141966
0.39365502578186806 0.23088484433500867 -0.002997143081330478
0.37465074965351164 0.22545090183163552 0.14702253402109022
0.45361370876031515 0.2518418830526059 0.1958696607069328
0.3876517341392969 0.24400153223919574 0.06529598192716435
0.3840534347540654 0.2358101013619489 0.015621276765841685
0.3725186365178388 0.20293688649179842 0.03824536409074142
0.45542247441696304 0.2879929532320915 0.13609869299449429
0.36902100789669134 0.21850163253071742 -0.036101792672511124
0.3963129209798666 0.21451839543669848 0.04139957054484
0.42878015858929075 0.21376077676741545 0.013260649604859509
