# .PCD v0.7 - Point Cloud Data file format
VERSION .7
FIELDS x y z
SIZE 4 4 4 
TYPE F F F 
COUNT 1 1 1 
WIDTH 801
HEIGHT 1 
VIEWPOINT 0 0 0 1 0 0 0 
POINTS 801
DATA ascii 
0.42745626941797354 0.2023102398974288 -0.0731144343097867
0.3813343415558563 0.22602336620312258 0.022865576001208865
0.4077518544424237 0.1697556571859593 -0.018012706666951317
0.4024041170168289 0.2680018139134148 -0.13459435114938856
0.4399087035237841 0.21099392771873227 0.009233694004677773
0.40757724597524714 0.2228041538671448 0.03891716645441079
0.4069057769704898 0.22326685781490596 0.012801317213316565
0.36474135340614566 0.20138883446155376 0.06340158240391247
0.39861727289604687 0.2946202966893452 0.14567535302307988
0.368103543981249 0.2000555663734218 0.03334577378626591
0.5021878799855699 0.22097459226287697 -0.09729944758819897
0.3835643433492919 0.16875343708736068 0.039250030976333505
0.3911074929430072 0.22511863308565694 0.028350935775875996
0.4627398921697079 0.2417650134786129 -0.01412807568091523
0.38323800157090204 0.21880413479229333 -0.007571175315717937
0.31181468207242347 0.22270194466995008 0.05514522318767945
0.32870717885519696 0.24166955455338268 0.09995010606493793
0.31756670355252936 0.22136873933509094 0.052436530592927966
0.5783639880382054 0.16140994870099235 -0.11828277614536375
0.6004758491872337 0.1610756609995434 -0.14216538799544765
0.45280960409152726 0.2598247003248133 0.06994240077654013
0.39330507648784874 0.22344890010865015 -0.0004633616002109875
0.34923676981240703 0.22166062398162012 0.0887461437711039
0.4159699046383025 0.21860292505206758 0.016175897276042406
0.3328351438345578 0.23254958030824469 0.07136640199286148
0.8994970199412791 0.06859075626280742 0.31105156380603205
0.3450186347541546 0.22849045486705677 -0.06445327695456626
0.4022718081911876 0.23404075612266695 0.05683859009687353
0.4890622043952533 0.19144517267118033 -0.08421206530778136
0.4497394783331572 0.18671032380774477 -0.0695908893651449
0.3920444934580871 0.21988957932677522 -0.0082385824915292
0.41460322001174177 0.2623526601583137 -0.00022548541741684858
0.43137762584552775 0.17074534278602016 0.1041572546617715
0.30656637997597613 0.24959896787099467 -0.03966179270982195
0.4671972146763892 0.2728815711570576 0.05448421867141917
0.3383385186548651 0.21211771642404642 -0.1390131201162177
0.3392858604086655 0.21055165515736007 -0.0654842547759813
0.3359580676214904 0.17666612905631496 -0.012654774458553675
0.4893565666555446 0.22630222088834273 -0.011297069594391473
0.3206554682064535 0.16617993847245316 -0.05903278942159318
0.25830486746461645 0.2120914584358644 0.1622213510731001
0.45478623835558096 0.25636883340831673 -0.002943385660969966
0.4429799632789013 0.23520039068189647 0.1011124282542255
0.3984462607207888 0.2346557681057675 0.0042100847940389485
0.4340103553636254 0.23380355875687542 0.05643275370925949
0.3697853741235235 0.2252819580484129 0.027166737715603517
0.4166431108826174 0.2103307422681837 0.019361723526515107
0.4141695399022325 0.2337486943088436 0.006348962573127892
0.42367241962956825 0.23056397528156936 -0.00094043038021141
0.3847816592797244 0.2037622832200583 -0.05888559674053795
0.4422921245461282 0.21876058265881682 -0.005055792483872779
0.332509640164659 0.3073841646088624 0.10751511680800263
0.3951604846915018 0.21917768022929351 0.02353987841068772
0.4999516435432696 0.22992766750340365 -0.08963870359400516
0.40693022796874345 0.22251169462350617 0.029246456619091532
0.4215210516754837 0.23863841488544324 0.03875411947947782
0.32464986484687586 0.22324355539325325 0.06468461029952266
0.4378017244185344 0.2035575557965359 0.0011497892805323318
0.4343234384253378 0.22140184869338952 0.05760496811998905
0.40369971017233297 0.219759539977332 0.030030773855287407
0.4180395133968773 0.22657618854827888 0.020196972000661617
0.38804141725731256 0.20898094524356736 0.05637332416389995
0.486759294818242 0.21665723794214387 -0.015664836479288624
0.40503236274037135 0.21072450576298252 0.01970320858262653
0.51879513447264 0.2184077138218754 -0.04238339890548559
0.47541754201499486 0.1982284487050947 -0.025682534543435054
0.3916566602005105 0.22245417439174275 0.0026825935013619073
0.41978810157620217 0.24400846156096634 0.05483880648408501
0.32251050359178635 0.26589381498232 0.0527311510420958
0.4215436329623685 0.19514993726750163 -0.09097164959294446
0.6161053629329274 0.07974025230029724 -0.4592210026959833
0.4034692587662221 0.20606769426538563 -0.025670235608956204
0.4352850734776723 0.23816979312810815 0.037794979876508705
0.40634082624180223 0.2042924612252648 -8.948923692742028e-06
-0.03480735358874654 -0.6536175909020869 0.050627064257511734
0.39663685147181127 0.21327237311342628 0.04425622124570339
0.37317297870457367 0.20871654558258967 -0.040195066779205035
0.4877651205427753 0.23444866951066956 0.059680664212663714
0.4197407300005267 0.24747809156230005 0.029718704720806954
0.484895718823239 0.22639636417777353 -0.010624679179812802
0.4137506052948936 0.195852436084607 -0.0310586969339397
0.41737235870155587 0.28904238666979154 0.11808587647249169
0.44377784951920773 0.24591058543541067 0.03754828308895242
1.4895329665846475 -0.43729972814975326 0.5203180990538812
0.43081638710893344 0.1889663623319251 0.020886902444743782
0.3339991008329264 0.242081220905078 0.07498614942102222
0.3855593952668954 0.23252500363454942 0.0245021319755665
0.3663704006335138 0.2565795797475232 0.06784465386105865
0.46907364797979767 0.07014449218402774 -0.05809223678593867
0.4122287495269177 0.1879897250726401 -0.04483250536921446
0.3312053028261346 0.2306362562686246 0.07211507314451637
0.4185400508564783 0.24733112739498608 0.0072411976695150315
0.5510383655100668 0.2219306345330807 -0.024261185273033448
0.4097952037272705 0.2340516954724876 0.006118865049685951
0.4886093598389323 0.2857586216474175 0.042966944679022845
0.4466799276264908 0.22418587284825264 -0.011739947310303478
0.4348286817730269 0.2620512856985897 0.038406223454117594
0.38517407706098084 0.3019355786311735 0.08935412696877165
0.42317111430230625 0.262834843103974 0.06673779335767449
0.34811312070988265 0.258563328577182 0.11107050933389928
0.3869501070761032 0.23023785831190935 0.05516098895569144
0.4673240784918562 0.26118127963674453 -0.06657219734560726
0.4870462751999014 0.200865373420271 0.08221142505411194
0.4826828792339626 0.21925647023482497 -0.026442249277948804
0.4497362450342024 0.2545782154035692 0.08883552372533643
0.41628785540247293 0.223868220872248 0.07983351438736008
0.3665061613482976 0.23342525467487008 0.015055687914184546
0.47218600428863056 0.23393938140247883 0.18544563479272824
0.3939612341928296 0.1903112159350826 -0.01612901792947241
0.3956306578176907 0.22041533976465644 0.03535822192581861
0.3551810987762849 0.24712285992120542 -0.06764213002344377
0.38408173836414505 0.17536614521455363 -0.0524122251622714
0.4756212729248688 0.2738514809295225 0.22930588908403138
0.4655380063902044 0.28533709915436134 0.059156871619251206
0.3955243892923477 0.21213461620942553 0.015593890835049251
0.4648184964781592 0.24765499935455182 -0.04041340077034761
0.3579717336699275 0.26615127784677384 -0.014770323165805621
0.40983681689304774 0.20396652859315623 -0.06013123526167874
0.44291713853954207 0.19452773612744068 0.06375392331538876
0.36328189410369305 0.1744032911082627 -0.009820364921353075
0.3340645565166085 0.14719889849217793 -0.034871008767822786
0.43282545978777875 0.20429194607704915 -0.03898519616025453
0.382327567957816 0.2246145513124418 0.03783925466137816
0.37817287996401205 0.2327891014960528 -0.01589261560154398
0.43557838922211545 0.21157773170034488 0.039142349621585026
0.21991617605681313 0.23833616239585353 0.09903742320688025
0.4148809230028121 0.20926281635368582 -0.02918656163875255
0.3806791486103833 0.2430738595022035 0.09413114284154744
0.4417476527454198 0.25954967289692377 0.058568727867594816
0.396382403338464 0.25819286299199007 0.06347540003689289
0.29747927256852336 0.2439576009806217 0.09264229936383117
0.4445690405803475 0.172679811503599 -0.04431768767535971
0.40825734514598366 0.23520194618771484 0.13854246838977247
0.6295372709591902 0.14039564260386328 0.1275698878174012
0.23600210009445277 0.2582651647543486 0.012233501533273738
0.31985749616623593 0.3057549411617231 0.1313262899262213
0.4224238407756076 0.27622165309909974 0.05453180711376149
0.37770318806977343 0.2104909859345554 -0.001731660540684743
0.3998376646432007 0.2227186514062396 0.008352334992792976
0.42574590464852236 0.19030352157898278 -0.03502482669023266
0.419813162067328 0.2579331910340983 0.044770058477610064
0.4086536666312668 0.19293138234185392 0.05554465382547846
0.4478747211842631 0.18127481443012528 -0.018612581909252413
0.3544517796208595 0.22622862032426383 0.044104022477313265
0.4268890477117111 0.23162601883987577 -0.03030676093895579
0.8335561700815788 -0.9494048393100485 0.20358922018229464
0.43152775655100584 0.22495098808840908 0.035877963398419865
0.37116666884051597 0.24232146873657712 0.06347033631092813
0.5402921832372556 0.2697737253222954 -0.06276857203390307
0.41068801321657133 0.23648972199819696 0.08813184626261261
0.41796656764043405 0.1728802933885163 -0.1123161284142924
0.49616688835924094 0.278922007752044 -0.057199777780994054
0.42353152337713595 0.21048757570699195 0.032001032853372635
0.3641029744308639 0.19513037391593002 0.0669192365711524
0.4815818807808796 0.2554779953419768 0.04674026373827189
0.37724793146153957 0.18376778730058163 -0.03812549698432122
0.34620893153342536 0.22428040365119273 0.08522991693503457
0.3716021111969354 0.21517057577483456 -0.02436215089670668
0.4158414637543899 0.23815368981424 0.030299060311250514
0.47282601808748836 0.21337729016079265 -0.04153386589366903
0.3258433530472189 0.22357046154793636 0.061297196022763956
0.43309396987174864 0.2514118508811407 0.07198250676739804
0.3988120315592454 0.19122328308492342 -0.023105549612893128
0.38670360479190435 0.1936232649673144 -0.03190081600619976
0.4197390569922277 0.205393786431884 0.08040318737681673
0.5720611736546886 0.2502855923574856 0.04620890759701979
0.2875238089246608 0.21177447678492456 0.0030873111668654474
0.44413724556252987 0.2438025434685187 0.046604954744594806
0.442378260471358 0.22138535904176138 -0.09281809517406714
0.44199761401029036 0.2722853694777001 0.05010797052231908
0.4081085181950641 0.22778716319396608 0.022291564052295598
0.41688158132865283 0.21991399310689985 0.002365072273022406
0.3848443287822789 0.1986578375664294 0.06475028016171791
0.4218868620768035 0.1631627333878498 -0.02493095483879415
0.3955906868605723 0.22559326276551417 0.2029991526770516
0.4351876545660218 0.22496776759034276 -0.002725777898206161
0.402009682937873 0.2594733175308761 0.0790469685486812
0.3865119992664461 0.20781076867571358 -0.007522654698192355
0.39379905596032927 0.2271835433107583 0.01663234865017671
0.4175290298841503 0.21797535460143536 0.012218099994981912
0.35813303538327546 0.1973544335526327 -0.0454185736749082
0.4377998083040211 0.24366300811195174 0.02553449957633802
0.43209884400228304 0.17090282045293748 0.015186261963322067
0.6941859182710743 0.24346628183810992 0.16379384203276004
0.45485339911935796 0.2701515384891735 0.09711579058290454
0.35746944140325354 0.18465966472368223 0.05557189087420511
0.37876269609870405 0.18988435625429645 -0.0296475581804998
0.4991591386372676 0.2535093682616605 0.0005136543270509719
0.38754968292369085 0.1967599463916656 -0.035403109418169265
0.4523776858100348 0.20580820291091584 0.03427942422325714
0.3132553475973623 0.2619359554091716 0.09162049626796431
0.4946557291455065 0.2208273942731438 -0.04165529412651381
0.42241689963761075 0.239801660047533 0.025439056296292506
0.3592033973012292 0.20629312798295985 -0.01742875008707756
0.4217492833075198 0.22722217842267867 0.011085303416592751
0.3957752776345842 0.23674187094133003 0.08962912555993796
0.3388139478020804 0.17361208227052316 -0.07662121819191725
0.4511302070512784 0.23440927839467918 -0.08152284284292932
0.36391774814310907 0.2527761376835258 0.03852003543823912
0.41931448955644157 0.22739099410642893 -0.0701566968388363
0.6674863181271888 0.03582858221977858 -0.4860329691872778
0.4285535176091031 0.22792659406758276 -0.09211835472541452
0.4240738786074161 0.317082993846725 0.12930873699637857
0.46414466124481635 0.26848306673304023 0.08271837393567694
0.456411567043574 0.21402224554427107 -0.012336865344749981
0.3485049043385686 0.27608148993526527 -0.10476586418893419
0.2985531484503241 0.31074309632819563 -0.23687096908609817
0.41858534271868564 0.2534518661620382 0.10379023159858036
0.4164912789904065 0.1813126174232167 -0.007282788800324624
0.7635377344638528 0.15548573658854536 -0.20902040518905096
0.40262668984217953 0.14783986552538408 -0.004715091446428232
0.42281590141263337 0.20019485205594378 0.029406034840562256
0.4155852134256861 0.215759265516013 0.011048475334661134
-0.2722844954523822 -0.21706009090468115 0.14928520892016195
0.37867855615024837 0.18994268193654307 -0.03591622981753062
0.24605322220079984 -0.0008693776116786012 0.14143944904829198
0.5163160927377817 0.23331498108086635 -0.10552227610865828
0.45603312044552524 0.2552065552519167 0.07065334410259538
0.41085556907029286 0.21246114422929452 0.01647374070063279
0.3835384221482343 0.22054318209544022 0.010466935713679959
0.4342007092728579 0.2329695891560135 0.005247359575463406
0.49339491307871697 0.1438871726608113 -0.037479444046681465
0.34953394843057595 0.24972412547046474 -0.03177119250932492
0.4126019135437389 0.21560136572261968 -0.06947137081300525
0.3057523128553754 0.2872372602293467 0.14456782332186435
0.44832381499566054 0.1911587766059597 -0.00025682258019799065
0.44138557290315816 0.24753584244243143 0.036274630674284936
0.4072980582100456 0.24527887719884234 0.022050286931019514
0.4695137110004879 0.2804639760869634 -0.014935451309298742
0.46044739366695353 0.2766791700706932 0.0867439527556968
0.874385943298762 -0.8165873958836158 0.24775824553005066
0.9534671722190353 0.3437191010834795 -0.03730018894322029
0.41625721480266975 0.14726148477535617 -0.10193309338860956
0.4255847033381599 0.24362023888267004 0.044730283582168795
0.38927112927794383 0.2301928707331058 0.035924468140663635
0.3969085679416935 0.17672906470207295 -0.005567411835784242
0.47242920016000767 0.18357652580363037 -0.08546626932555057
0.3682571522445244 0.2725288104794288 0.014802171984058532
0.3907811146324889 0.22766341493985465 0.0722101336321117
0.4003710435203516 0.22861404554706155 0.036761234251059705
0.38974934882580214 0.32619147033337015 0.08765723199509523
0.41655352099976994 0.2660072717210227 0.08455051222188104
0.39193054770808544 0.21162074327000369 -0.006541971423004611
0.2939054860407566 0.2091963838773978 0.04702986871323844
0.3680483687037679 0.21639849290500024 0.01295121738556304
0.33273777601789334 0.17525557269705416 -0.06539442563486375
0.40780566343596547 0.17808259733281773 -0.01763007574389519
0.3789392971737726 0.1997567894769503 -0.0032534837236539715
0.4117652887525338 0.21937546136811648 0.04811884640741937
0.4169713139919793 0.21204609737469582 -0.01067057237435165
0.3674228377348072 0.19705616262373837 -0.041872514651970505
0.4027399126394755 0.21882851367260514 -0.00589070576390327
0.4023856990674517 0.24289366391153067 0.02225553253632029
0.4001574654661937 0.18492307289868393 -0.029562834577234298
0.3930366191228529 0.1857320394791202 0.0012470755265212574
0.3741746237329835 0.2163790073055054 -0.05635132711415736
0.3701145201248721 0.21425518027194812 0.019306621088446718
0.4669749659684612 0.26137591776310387 0.08713959115677028
0.3525024154996288 0.09807647609136438 -0.04645991042634989
0.3525681933563902 0.19931769616914607 -0.03843089166392133
0.4341960855196021 0.22677409897009682 0.0338447333514722
0.41823560144189287 0.2315103112672432 0.034883712222594454
0.4056849703584078 0.20184421039820677 -0.04547134139437503
0.3808748184266051 0.20630659917908645 -0.016475792807739253
0.33948336636549925 0.21862871903468317 0.048722293418109075
0.5145438108184237 0.19726522217806064 -0.08277465256276173
0.49540766180186324 0.19578389366751026 -0.09226298837873514
0.4077724443891384 0.21395635277008296 0.01310325171959903
0.44478495010368135 0.1877609431173255 -0.10313643821848473
0.3534271622906573 0.23219312200080822 0.06953337169306906
0.5602479750462663 0.28107587321983374 0.0765697126279008
0.39462966214627215 0.24117006670238084 0.03031528084460433
0.44402586544100586 0.2754009092768257 0.1110868614036633
0.5285445600437697 0.16889876746586197 -0.08193147638033338
0.559901904633918 0.212333804162256 -0.06201720527585053
0.2922109078513131 0.24385690271169835 0.06022192834079476
0.4169322239224016 0.18018551133575045 -0.03547363142860149
0.43248404197284174 0.23448037183899828 -0.005916200766350244
0.39961196363577756 0.17457618904430205 -0.03202486012853001
0.40824907904728036 0.20996602498587436 -0.013356217402503034
0.3867688257119539 0.1706830321043924 0.06570475306489243
0.4488154258109205 0.28974364384433215 0.1133823298919765
0.35112158095107304 0.2210553371306503 0.07169573067760382
0.4047971108047079 0.20636821503853753 0.0052811916886810195
0.43310660552637614 0.24651550647556064 0.05192565234293056
0.41112530692852545 0.2379559564006115 0.036974834863769956
0.39461271281825816 0.2795448076174125 0.12883220880850388
0.4492343452860723 0.24862849942272192 0.08220711777816803
0.46283417565440743 0.22178357780535407 -0.0174910176897356
0.3887202637779694 0.19494381235250557 -0.04070045837517
0.4148905049908933 0.18771291842530502 -0.06759549576636914
0.4335622194661255 0.24781898644741318 0.021966471058107118
0.39211446680951667 0.19177759252619353 0.09875169923384419
0.41580457413326144 0.1634328200307209 -0.10018226039379385
0.40102681238573723 0.23500491959106284 0.03419858303877277
0.4039846119878234 0.2152469876418479 -0.010819486292348302
0.3416648410947545 0.2240379710820264 0.016545817949136676
0.4688495065712175 0.19314560718024154 -0.013959053547267786
0.37384998951878856 0.20287858672742232 -0.025864004411005226
0.4252861128823042 0.25859384771527516 0.07401055597807726
0.41925308993488386 0.2367792895512224 0.037370510304242543
0.3584856778555263 0.27297290527731377 0.11447318613116408
0.36741382010443147 0.20753259652596512 -0.035696299514995644
0.3682684049427962 0.13606385556850853 0.013467540013252233
0.4052295668172974 0.21267730020315412 -0.0102670979788968
0.3736091246752409 0.23438420294763773 0.06211902639104494
0.49858199859428964 0.18687519834119826 -0.06337377065997885
0.38225884760009876 0.27031577556201114 0.08168874696590933
0.40247390704629993 0.2126778372073943 -0.012754123670035256
-2.6894463695551707 1.2888737272865143 0.9248065273807526
0.4199174526934115 0.23400381647583401 -0.07758446422056409
0.4064297521853746 0.2663713734173996 0.0773888074968454
0.3914858935469141 0.24139771846981262 0.026191095501062023
0.5157788884747845 0.24833484351464108 -0.048294445680198805
0.41291002929814624 0.24630145389089364 -0.020883128402033435
0.3788133716662543 0.22511748176572155 0.0254085350055675
0.3844286821279752 0.25580085168387257 0.10226576606146409
1.0023785809675303 -0.6049984733134153 0.2351649607784907
0.3800178417229745 0.2535659737848732 0.1415167008814251
0.3939034404063051 0.1888208017808779 -0.078733658589897
0.34581048899931943 0.2543678092422681 0.07058211926116087
0.42849279441063004 0.2345685726303941 0.007279375336253224
0.3785357718374627 0.22943628625938572 0.07270659955415226
0.43587502885353047 0.2642660932856984 0.1086122093178119
0.2620559229535928 0.3647339984096334 0.08261549782667998
0.3851175596117997 0.23343911323003397 0.03824094075562812
0.4826073579484529 0.18480333865608145 -0.057743082594868156
0.385007612454757 0.22443666632608483 0.018176253071814585
0.41371119275237334 0.23455391830833605 0.032717606421286405
0.4498801855148713 0.22138886836738436 0.09310936447923268
0.43103922977213927 0.27511452936929004 0.07577375558491894
0.4429297904439551 0.1974342348998448 -0.038015945587488886
0.4454185078066075 0.3015769635103851 0.1328541461525674
0.42499731296439336 0.26278060708203554 0.08067899337680728
0.3673812886277972 0.23226007428007733 0.027244740195925488
0.450760493407401 0.26088451151348124 0.1291193694977153
0.4724479525097962 0.20928001864162127 0.07953441512310633
0.39811951933565126 0.21412655306329498 0.006710813159514828
0.41321374861317395 0.2934216923906092 0.12689150917788083
0.43477676018213174 0.25282296141025995 0.04428007927938893
0.40162954933214223 0.2126280331565482 0.04459992711332461
0.43212359720487825 0.25094674445263365 0.05958369439242972
0.35613135897392567 0.17972329983859936 -0.05951303814551068
0.3158369186348864 0.1868787680425612 -0.1173914866777892
0.34849808532059967 0.2117331973963701 0.04168127058031246
0.5720828165321734 0.31420290406067863 0.004137520496783509
0.43063922125567444 0.2929247860209614 0.023082382093377873
0.4535032108620385 0.16479787205719276 0.05732356912686498
0.44074783049299526 0.21856927603832332 0.07324468482764246
0.40338086700666054 0.2437852523686388 0.037078563038889456
0.4380948004049401 0.2213666329407431 -0.03372827682630941
0.3647911450747472 0.11017372913617862 0.002910152926773435
0.39647697518860525 0.2636374736261189 0.10071683479844751
0.428537818794652 0.1551859567566396 -0.021441672983485205
0.45276155576692645 0.21220520004800392 -0.03662770357053091
0.38024774390814287 0.20306910184399385 -0.02063135366749691
0.46841917495154917 0.22659931396982813 -0.010255951809824637
0.32328926195458507 0.2110050646362538 0.019696877935075463
0.3731603888423649 0.26465877453127007 0.07966373988790565
0.33104992828040736 0.2653906643166408 -0.012063507846534094
0.4043985196575619 0.20950840735920906 0.024846780113222167
0.40847338948043443 0.21554942401617438 0.0480600668311979
0.500688826803767 0.24071938375296043 -0.08281783938102194
0.4237283414457522 0.21379848594742157 -0.012758730046215305
0.3723490418527149 0.26045328615137464 0.04581023969635112
0.46241854826521944 0.28966817475765083 0.11091807755946093
0.49570350651806905 0.1294091501520711 -0.10539010876360067
0.3749083074986004 0.23331872338762594 0.02732545703145206
0.3978871629149552 0.20956455064367674 2.5661364730922287e-05
0.390357775621311 0.2374840982464832 0.04266944274533557
0.4017852655137517 0.2274977996723493 0.03537000726731776
0.41190310967780874 0.30536214154197694 0.06592827667766699
0.44446731071371914 0.2048933036582241 -0.05360767377183606
0.3813727293086231 0.1952543857595117 -0.036417797524194384
0.42860445836222993 0.2448966775353938 0.016525300435773715
0.4426533399426802 0.2307435231917907 -0.08790744678393025
0.39529497706614336 0.2148806839164763 0.008671439867100617
0.40572039376918667 0.22178902910363263 0.016436339062821048
0.3933071123774994 0.22546972345526228 0.031168751189426303
0.3778576934104194 0.1963241891710652 -0.006936521256051265
0.38948727621304613 0.0783968353144644 -0.31455897673333766
0.4043708669678949 0.1948176101550132 0.008896880167583276
0.4187733581777877 0.23909711326849958 0.0016153944867198788
0.3565627635671831 0.23110104735825132 0.08082410862573397
0.4725555149538252 0.12960175746059122 -0.12802222294716614
0.37011200286720225 0.21324418687106572 -0.0023024166521281586
0.40655786732210686 0.2254331971012391 0.005144928116720848
0.4331493672145257 0.239361017149065 0.07294735275516473
0.41379801062976185 0.22006669126909628 -0.03339362916584321
0.4025274891148314 0.2005584923429069 0.04768241461511025
0.3929861602833 0.23294056177999778 0.009323463250510144
0.33685010849106334 0.2155613368833258 0.09394439682668576
0.458514355069525 0.35239441941733674 0.23736859675605615
0.3396696483812178 0.2144705067929067 0.026545095103102767
0.44119563603575784 0.21028997143093875 0.009086276651714797
0.4142787080071457 0.24553486935481317 0.028974322092011562
0.4145221706337452 0.25275512189742244 0.05930803461988887
0.543549102698762 0.22276520577844394 -0.03072989499207779
0.32788195696556954 0.22684029778983472 0.06916741529661863
0.4928723269307511 0.22665840430407513 -0.053557108575489565
0.4125369282054123 0.2136953947940583 -0.012671524642627219
0.38021624235113904 0.23131284865917223 0.027941605064199848
0.42634461737105767 0.18651028101444922 0.015354019649905126
0.5263366916492203 0.2894142373884563 0.1405992323907128
0.3866745742813862 0.2493079668765006 -0.14578458961709373
0.36381022679103125 0.2228457347880095 -0.035274186829525433
0.40401255656684043 0.171480555581212 0.12581822394497522
0.41186550497465646 0.3107078600994839 0.06120921514128952
0.4687700112325075 0.18791498638086068 -0.014723074172991346
0.4063400407718234 0.2406359624892218 0.019150516676830875
0.4240114120577658 0.23688490737471568 0.022352806000441205
0.3899838074872548 0.2579399532347537 0.027696424302519063
0.4096928478152506 0.1800386849420761 -0.02812086425689131
0.42585072157152126 0.1574725466766722 -0.13241774818925478
0.4340309714091859 0.20416931610154165 -0.05316714766622965
0.40582430499355837 0.2023686302460419 -0.018416061875228706
0.3846075095114827 0.22035958674891276 0.053236349482375545
0.3225419392409492 0.20947908966601858 0.01861081732934622
0.4007190382725412 0.22796940978503244 0.022446779821990503
0.4073852209289157 0.2752890778945982 -0.05851391519536264
0.30045930869754045 0.20171330681679933 0.04616046048710132
0.28673202276584675 0.14510543175452995 0.0011498055170591215
0.4936596963060538 0.2231844239325369 0.02066353017286815
0.3511771479017227 0.2771158269717091 0.07957917283553684
0.32653530394554764 0.21057136219874906 0.02876552562628376
0.3832824335037799 0.2833468139609181 0.11765037816212498
0.4072697330857409 0.0552243656334781 -0.06451141593623788
0.5004602800943161 0.2005228816717306 -0.0006007420997491408
0.35274924935578156 0.21740902752711122 0.033062835325338824
0.4028193976804033 0.21698483500085786 0.04060024741959012
0.42423051396322364 0.2248964139474765 0.0370712879216768
0.4149789457898976 0.2979354217531238 0.012916727581455234
0.473658048568268 0.24122159439623658 0.006151544299143552
0.40194569402171965 0.21621455958543834 0.04834623480317646
0.41562957691972713 0.22180764763268712 0.03289213860669804
0.4354462803093071 0.24248819186502146 0.12568573614481693
0.4095394654065956 0.2327304110179682 0.01366249529442598
0.3741076175326157 0.21515046120975967 0.07847593616448023
0.4261760025461854 0.24269734612543914 0.020451901653160576
0.4468102065207802 0.23742961603866775 0.02811117060041113
0.32695162391655685 0.2320305826827962 0.08101512372272168
0.29082072880231635 0.20812588713837954 -0.041224749069613154
0.4566837469823497 0.18401291573752587 -0.08051864112150042
0.45879653244568885 0.27421443446627336 0.06804629832177511
0.39897111212519576 0.21382819685609888 0.013094421128698741
0.32751079329273125 0.2643768811614251 0.03808069881964116
0.387998308891639 0.181205003000656 0.055145604855255215
0.4000278184122408 0.19397834940573944 -0.011731337807376008
0.38743918251120135 0.2210305216479469 0.06639526962081277
0.3982715339188161 0.18368476767420816 0.138595780328302
0.30817537687363483 0.22187314713542605 -0.03217276805058589
0.21119825908346002 0.17520389385936141 0.2560559148561907
0.4116806563931448 0.23350732542681385 0.06490082922667284
0.46182150759190677 0.23178115773970376 0.053003495150377944
0.31605427053644064 0.24642175235595687 0.11089514370236486
0.314256037211635 0.20782629618446435 0.06410688451646251
0.22775781543468554 0.3181304353821872 0.29867564177867223
0.41702378128104556 0.24326562644264982 0.06904822389904552
0.34241222587881737 0.2626755246535595 0.09245868282380343
0.4342009057423155 0.19947752344708647 -0.007147021641941365
0.3629282619759522 0.2859342374336791 0.10064263025856235
0.40446615490753857 0.22771799639050982 0.026772589348240672
0.3509069401202112 0.26350068336657273 0.05297920140861834
0.31177938542904826 0.186057466675976 -0.08665718226220065
0.4135446699168881 0.23076481463695586 -0.07317452507581379
0.36253564683431705 0.21286541487376098 0.03129739580015212
0.41192893311600187 0.23270302565083512 0.030664835223177533
0.39786298446186663 0.22292222068914214 0.027653133844012245
0.3807225694294658 0.20762516820516908 -0.011306776844875799
0.4331001086715389 0.21977347566777894 -0.06229437217632494
0.42216317433741324 0.27892045892832584 0.05119275315732352
0.38486260619228574 0.23305580787979352 0.05689293857875555
0.4150398275799603 0.16734961391763647 -0.09950617379988103
0.38600502561983774 0.23830485196006634 0.04684277841658968
0.47740199391185456 0.1331018407691147 -0.08446008536853356
0.42538282486704304 0.12675291929983246 -0.054686094130275364
0.381102597640961 0.21553202768592428 -0.00588591867879984
0.40455839398239846 0.2399209241502831 0.03521944872615279
0.43032477212832987 0.4245667672430926 0.4002700001117745
0.45590926448198843 0.28170805351066974 0.07328010780298655
0.44853812139456295 0.29493519637958343 -0.014465284919197074
0.3865036275476257 0.2637951191385781 0.05042405496902802
0.4079916861364836 0.2016690094927185 0.02496258058231149
0.4351766216642545 0.24006915764553582 0.08417249340443789
0.3626321918728479 0.21466830561206507 0.02809457202661747
0.35939558300935914 0.18683024090489653 -0.04915772765318138
0.3786597239434144 0.21039523648661884 -0.045799154634664774
0.35328620338438554 0.16132966238095037 -0.05996590145184655
0.42133328183511765 0.23973194904425554 0.06413659874766608
0.4842862653636928 0.2566980949689821 -0.059187887378811865
0.32884558521429597 0.2386271073241346 0.1159869504375024
0.4434569611245678 0.17107524473263425 -0.014564508867692894
0.3951643189959668 0.26438489090324424 0.0849768455713047
0.4243369412778293 0.2435410296221221 -0.00846315694386135
0.30162220663783046 0.32803227288177084 0.16845848038093436
0.4882591149476241 0.19653614873523395 -0.031782666322186515
0.38647092862157706 0.21221643711623983 0.010866900634511012
0.3574024036011849 0.21192600328720346 0.0150579886695823
0.47595114670573935 0.15194885704377725 -0.1818784722815252
0.555028440789556 0.07675334365427489 0.0884161071769256
0.29232813635887567 0.48202480306679263 0.14398919053249415
0.4599612987806836 0.252054001287803 0.05992229498127699
0.2458474359711147 0.1898476985512758 -0.03988768539284138
0.3560752501954312 0.22379391248577463 0.03719406312023921
0.4361883791236494 0.2079298978437123 0.03601115937584609
0.15980711840532535 0.22837441575524053 0.2360791101872053
0.34479765781858873 0.19854542112608442 -0.10768749640308783
0.36339419574878207 0.251345357375925 0.027899245866223055
0.4076338153311525 0.2624051330878103 0.05510931856888135
0.36668645563048585 0.2852864542371094 0.16497263417898012
0.15115440463222285 0.4112058300917312 0.04059690339946087
0.6385809161884879 0.1528108096080416 -0.051773343154565055
0.38301760663071605 0.19296389509227652 0.07216937411203617
0.4030182720361779 0.2327692266792667 0.00015873403521027285
0.40685484069624067 0.22468105047293818 -0.023202472636583593
0.4146824062816279 0.24743841685730672 0.10092032218625491
0.4436287045845404 0.2595777535905768 0.07022130451652231
0.40389086563311594 0.22182559342114416 0.017607690273294452
0.41726000187577483 0.1892730943116021 -0.06658191397403357
0.1774379657201024 0.3093532979370366 -0.061864163581489606
0.36118114462328776 0.21543840276888204 0.04371307528356283
0.4613661840657812 0.1914231908438353 -0.06689079858544744
0.39684898905289856 0.20057734658911386 -0.04398771379968025
0.4280835855545888 0.20628446644187193 -0.02725448554514287
0.37141278552311974 0.2755928701319874 0.15036826674860038
0.42500655979320356 0.2161147156225809 -0.005713976277462507
0.4379078135594199 0.2210437599007946 -0.003971722221251639
0.38262082249521256 0.22645658876490415 0.06040105986984656
0.34799889658984284 0.19761466120141336 -0.03077619580778901
0.4540388747274733 0.20006456207896406 -0.016465210545263176
0.13632780043606374 0.4069827484705115 0.03482674175697298
0.35435438022673793 0.2971767131762846 0.1644920158496177
0.4138987904543967 0.19433721662525727 -0.02404256402147098
0.2806672048686778 0.23652205493984013 0.02680210501424085
0.3835508942342898 0.22544626672058143 0.009474577519455352
0.4131707294700533 0.194696767450111 0.001393504918439703
0.43096436346995404 0.25780732955462327 0.02823271985423048
0.44575892526987104 0.16811049383929344 -0.07784449990536757
0.3576979820227848 0.22874370219508933 0.1161146292907489
0.41847831770070343 0.20001478662678096 -0.04476393096928177
0.6819105318786285 0.26266290239426837 0.13721091014744502
0.3742421873462547 0.2519306010115798 0.041026490666922655
0.42461340889366284 0.24041142996009057 -0.1452980864216471
0.4511198148233575 0.38056827089005196 0.04645302874698132
0.3854807696484386 0.23148821828516475 0.07829041635207545
0.41823113705899573 0.21573271621480217 -0.055492232521345386
0.3498152622308339 0.2291348887891047 0.06994985753468086
0.32043033994526127 0.24602415065392336 0.10661042460151293
0.40206755569784036 0.21053251019861818 -0.04508426824871492
0.40025651498596915 0.24065069653426008 0.02689908980217126
0.3963500029626488 0.27465769420524566 0.0912554355271169
0.4497148825053472 0.2847354289619659 0.040447640976125854
0.49749494638481906 0.23980644779916815 0.008623581694351401
0.33971043217451324 0.2698933766775298 0.04798456834370768
0.3526791374366951 0.24333439589454997 0.016351345347231927
0.411561087654178 0.21429831968728763 0.006969127534361519
0.37777302932300927 0.21840403160224753 0.022729767048190297
0.4147055893505751 0.23791148428483666 -0.01969307146376309
0.4814949433329758 0.2125933751543556 -0.12007883145926712
0.4479959799771507 0.23515043705035055 0.018123699005826666
0.3649808473480789 0.20019863830029294 -0.030779658061732107
0.3763692628246247 0.2462742963878668 0.01521881400587688
0.3803521003401755 0.1781049177072589 -0.06976098896424787
0.36403032117388534 0.18304933539330648 -0.1074963920541876
0.3677040966344265 0.2269975255819503 -0.019549800433622977
0.3479383169247967 0.1806006281879604 -0.01998861580710809
0.49919105875393655 0.22706810810146294 -0.10294055521038104
0.3967888915487947 0.22041037216857262 -0.00013411936484430953
0.41901394230362143 0.2206963968306752 0.01582813291332741
0.3929851336393284 0.17166057964990955 -0.05856718016013929
0.47727978947517613 0.2856254598442973 -0.09980785234284895
0.4669762525563357 0.26659125655447724 0.036887517383974
0.4472352713845851 0.21755539391884327 0.009805612275897602
0.39541445318941726 0.22630059757921117 0.01586061069663458
0.41500222431884026 0.20973405550313373 0.0057040680116529074
0.46970779187158485 0.11375917967083637 -0.07975378627696728
0.44702200279503757 0.21983747803804476 0.078145741555673
0.42852908505417986 0.22626311078835215 0.009076720997228449
0.40967518822650106 0.2151824510928293 0.02432042763844322
0.36899344351441243 0.23090194912754214 0.03525430688216602
0.4878747849907086 0.19949109938707466 -0.0069279272034776795
0.3528880982797489 0.2094272970356883 0.007725944864020562
0.41311731899591564 0.21259780982140342 0.02386672066147355
0.3659793481169942 0.173287479023287 -0.11246839518058493
0.5120136269309654 0.19735685634780964 -0.062719820392374
0.43458298960119635 0.2695122796627629 0.0745443487026165
0.44719327629761096 0.17286651853606827 -0.10238438231309033
0.4002528236290601 0.13795300476236605 -0.022131042105385745
0.3274812831319309 0.23159942360373975 0.025756066957796975
0.4651029722189435 0.2116424583810783 -0.0034458450745376012
0.3775349016180485 0.232970968324949 0.04311760552596411
0.48651140894219225 0.31223523196507585 0.10668220402922657
0.2642335391060726 0.1861922201120052 0.05071267272623459
0.4061475113899462 0.22547247509513113 0.04870827130635291
0.42183336577892305 0.21052963572896033 -0.0013141177118995984
0.3291103454855744 0.21993998032284878 0.020849994334383837
0.44448215307728844 0.20648743259108926 0.0019668559537677766
0.45642256185433894 0.2524186262849071 0.049065421106348595
0.47428782930946056 0.2573320844260252 -0.006131261213681682
0.3796579579959172 0.2372303885355791 0.06940512729920556
0.3592294973346526 0.17613418958850957 -0.042402144339192205
0.44730011818171533 0.2423355221577026 0.03166144588030306
1.6520053083788326 -0.65624368994429 -0.033643616780466346
0.40753122961245936 0.1607485124688992 -0.08329011430618039
0.406189227917352 0.1684688298317809 -0.014097793421115057
0.43387809668288924 0.2095104541361934 0.007062438320829756
0.3434671404512102 0.21304533250398094 0.04723764464256419
0.2989539281165605 0.2997391116397523 0.02571350814565676
0.3942205257128535 0.21775880998345087 0.00924725707250218
0.46103807849321754 0.23849033567178424 -0.014828163639904801
0.3335142531960855 0.21503021369893816 0.0901671767605734
0.42543725970868707 0.13509418196403544 0.07066683948821151
0.4522987686903406 0.2531873387483188 0.11419254909993981
0.3883716992283439 0.23205604673039204 0.003124345544620155
0.4181002427863234 0.15968115387454418 -0.03503645734076599
0.3407001078335554 0.22770582632529113 0.08240319249213712
0.519119654523621 0.23411835099645373 0.021186583955895344
0.4361060319565837 0.2772144552910305 0.07879933012563356
0.4053647493735326 0.20904906247139365 0.023945928662953975
0.3853594632683013 0.2553902651494582 0.08887853403967938
0.43153830919942493 0.2273174007628711 0.06076485190580172
0.39126027577304967 0.2097888253242246 -0.030019901263969473
0.41724162245498064 0.23518773627273504 0.02472577678105381
0.3333163092780893 0.25384077858467435 0.08117454626525955
1.141165844004064 0.5558116314896324 0.30233931362299415
0.4194716443867321 0.20764975980691247 -0.00864220935207527
0.4316867168988807 0.2886830190401213 0.10487975578064379
0.3072147580639637 0.18912078915111863 0.059279985784186806
0.32544861703360084 0.24928258557096683 0.13053708875889924
0.4179408661396735 0.19837218275462476 -0.06099225404831543
0.41392503930072166 0.2404247089214948 -0.00014195342176037684
0.40127292112308055 0.23109211627023285 0.011555521109556821
0.38467063196641504 0.20749606907565976 -0.037061195495596166
0.390402839328047 0.26016398264223994 -0.029205436742074653
0.3956235646764412 0.22131742752891626 -0.02551597556600882
0.5422672070914132 0.21760268814603023 0.08282113988531137
1.1220848206116045 0.13679036634479758 0.35702557515330113
0.39113463109538316 0.1707575328086648 -0.05222005598304236
0.4068965824007762 0.2502520955753482 0.05507411964893549
0.41072488806230467 0.21867016683054885 0.04253819054741825
0.35842567390815816 0.1991356906616204 -0.030958468917162918
0.3683409294904436 0.24951719713131126 0.11333746000488532
0.4226420466271179 0.22767870304446092 0.029262935047754013
0.41001514554349683 0.2640027321067464 0.06920041935387644
0.369950763725825 0.2920235718215025 -0.005453675747489228
0.36600217649186106 0.2843426786181311 0.06399658190474611
0.4034448940154647 0.197956647030594 0.24883141389443608
0.40686298477658056 0.2554037274761072 0.04462352677322201
0.4321772259003467 0.24465471489483548 0.0014775034954226385
0.43642991122493413 0.21310449252091246 -0.03369440157268855
0.4096352506089431 0.20396265432896143 0.006377886542992428
0.3814236994547855 0.1968469984467731 -0.02921116182527328
0.431973744473396 0.1859607552688658 -0.025891004377115223
0.40426602066114015 0.2235491089224979 0.012260791921775649
0.3123710770385344 0.22850256481899578 0.06372599299777448
0.48350105731293525 0.24220515535535014 -0.046757665713926144
0.3762058768708698 0.22583350619333942 0.007907742227160952
0.4274454357751267 0.20655738964578063 -0.0033558119264540665
0.22757430499260067 0.1118953552033446 -0.09801220837411506
0.377767413798864 0.22800300327008927 -0.01075850991612981
0.3853613759222725 0.2530673886673753 0.08539579660305208
0.34004184881568733 0.2287805765030697 0.00417410329950485
0.37503405563028025 0.24141263503409505 0.11138479747791052
0.3748603875376375 0.19227728326373494 -0.03432396194469334
0.3656870029033428 0.202083513221325 0.04160199755582994
0.41644648823140074 0.22227989177480367 0.02351030228336981
0.2911086284163389 0.21425691011532422 0.08459197492840076
0.3915794154925152 0.21108299068004044 0.027200296293685255
0.46924025437226646 0.22133738572961192 -0.04709016462167881
0.4145649785161112 0.21643970928397493 -0.009081663153523323
0.3521961218565366 0.221378588758796 0.06437251131107757
0.38212526824253246 0.23372610868571542 -0.011416867659391983
0.34803923807155 0.2085232104814736 0.0029096721858934416
0.39725774086033994 0.1996050552705384 0.0008625842829417252
0.40915655115486516 0.21518002469412068 -0.042898300417107293
0.3921985095940812 0.23321292222682644 0.06893913940132279
0.39851314923768655 0.22352156036131987 0.01835931025138393
0.36750328979172764 0.2184867774299164 -0.018301540263991
0.3160044247365903 0.27751060846816245 0.2263250665944554
0.3974696818561938 0.22585076073519872 -0.00040528229131098215
0.4206047683961458 0.19474759395495767 0.02776229724639734
0.42224967582417605 0.23624493573501582 0.08236695070472422
0.36420309737104617 0.1823019796142944 -0.038080256402537316
0.370308565381805 0.23480894012728015 0.05122817940070945
0.4904676816106246 0.19444189024362402 -0.08595282130842463
0.4585011680334219 0.2501784523330173 0.05305820875145173
0.32717310743169037 0.18311569049438958 -0.06949243504067226
0.41814509620093077 0.23107158480497958 0.10065456578789167
0.40101284177251273 0.24062421017153213 0.024266755863379785
0.43334657591097425 0.22175332544861703 0.03344912197518113
0.4213980550293286 0.24574771638953052 0.029418106518164677
0.3324476940922523 0.22028614308197803 0.005966490060330898
0.5218078438202838 0.13262706831915239 0.03136921652082947
0.36618595249960606 0.14992849830261434 -0.09231553947458337
0.413397846328877 0.2125358561736448 0.020999195319305386
0.42874656930298727 0.24785372665792238 0.027986974223040306
0.33698725188065737 0.21530279149808962 0.024211576357288322
0.35967500162013266 0.25937146353905405 0.04461986657790362
0.35300059947945783 0.2707693706392149 0.15395570942729364
0.37851668517365056 0.18076551965513943 -0.14386466275534815
0.42697060383062535 0.22077818918948822 0.04272206456309391
0.4474248287304903 0.15442451540511115 -0.1203914671852715
0.3872148217247968 0.187559592604444 -0.04096940038212438
0.37275251102570905 0.3115887867001561 0.15649148374447464
0.4157636048120281 0.22551731691055465 0.005929185347810062
0.40882816071962225 0.25631186986421994 0.08498421536697265
0.4511118052546692 0.2067600260719189 -0.08396198513150921
0.3679695616205265 0.19939418962320588 0.10381060011673071
0.33331702135753005 0.21978550463828128 0.0209791560043584
0.4010217605070068 0.2535661746529172 0.020842366801602452
0.41324177210962887 0.23142990159479382 0.031285765693525036
0.43044857863858965 0.22624176114553052 -0.015080490189319562
0.4369478240991498 0.23352506476859958 0.007446657779041743
0.39652066326937074 0.233337667179228 0.05426063420887317
0.35836792012577234 0.173293519216287 -0.14167496360649068
0.9678926854081027 0.057997724385501215 0.6401148180988514
0.38019869517245297 0.20387288180886287 0.024989507142208822
0.3891337696329913 0.2031545980014755 -0.056448038240489495
0.4401990046412436 0.22779718606625465 0.03866882646218528
0.4058644278521939 0.2272561045918735 0.026308026749617852
0.33210483820985814 0.2585095267650388 0.1344264468299201
0.466987956121514 0.2664499918231229 0.03380847989157587
0.46908154208456665 0.2079858715904095 -0.040989881755422175
0.4045329629481671 0.2307413871694166 0.02210419281458087
0.2463052520125757 0.07104463776860825 -0.01833189328507956
0.37480033065656926 0.1950123130714303 -0.0033864261412475116
0.3297509793969766 0.25768660468338567 0.1311512390982159
0.4148326498533379 0.22179340070664466 0.05397126021742338
0.46547558875026596 0.2357485565866 0.039313064876211
0.31176080746814705 0.32438031605488504 0.20629495532176634
0.38925796219139386 0.20817924035316082 -0.053255900679786805
0.36406778676050067 0.2215299306428733 0.04413594052954295
0.43275825160263537 0.24126121288311708 0.03397337179652027
0.3454900286100724 0.15890687560128924 -0.029048195210577887
0.4285747841342129 0.23068132755632575 0.0592342277157627
0.40572056893319086 0.2267110488225228 0.006637923271924251
0.4225740420071986 0.19474930895859188 -0.05918488542037892
0.40721753036066843 0.24869923923475312 0.1039504533332547
0.3826299332025087 0.222712744128728 0.03921043943262248
0.2916620263871721 0.2149790321441003 0.04792311348906253
0.4617097336331284 0.2791938785611876 0.06749603337887322
0.3896559606716181 0.22646501531080787 0.013726993619940231
-0.11967831487254443 0.5452409486416059 -0.30236306784776446
0.30354815479071817 0.12609948625782863 -0.002010240943704389
0.4331836885938287 0.23495015286485454 -0.006444802205265887
0.4416111327432475 0.18345114081394343 -0.06403754747657331
0.4315061190678193 0.21647501147141668 0.015905964578394105
0.42152746530400975 0.1965589332139075 -0.0054799088751309455
0.43091187418285415 0.18631277524852408 0.042541012210676854
0.3895869318317864 0.21157549435621092 -0.0038889819422109895
0.3810759713026073 0.21310420701385624 0.010111642969917511
0.40285935580661203 0.22779327383878467 0.01686657142920467
0.4505529936493531 0.21051866195901425 -0.013446572536764734
0.3940182405400776 0.24053419595747982 0.07699153563650896
0.3902628647816755 0.16964660311550972 -0.037304730140746756
0.3577131977068575 0.18964015331894757 -0.026958079104943522
-0.12364126373987006 -0.6388457634087814 -0.016209756428594346
-0.1058585274846564 0.3347956748675358 0.14480237979309152
0.34894151274900764 0.21965972296143832 0.051129900591803334
0.3795702595868704 0.2192189299451286 0.036272569052769654
0.3439554187989984 0.14823807247474008 -0.06861274537300233
0.4313279108745718 0.21513057826791737 -0.0063994174146557725
0.4811354512275443 0.2125435330503933 -0.007628148507393462
0.45372669050566117 0.1642182162125465 -0.009022682594178377
0.3536836640981562 0.1886704660341536 -0.028820171464644773
0.3992336165211725 0.2153829795470159 0.009888122337628147
0.3460542723268816 0.25892904378861203 0.012013405242242925
0.37869933034315295 0.25067661479050685 0.1476440268881305
0.4284669087644346 0.22580714659221712 0.0033917152254758776
0.49777263978947417 0.3250005010268495 0.16302902463894497
0.4570215151618413 0.22668474768478575 -0.06172211901886726
0.31668659309315217 0.18351202605731487 -0.05203937445213569
0.3345835403621322 0.3543288213356277 0.12339843598319078
0.41047072047391 0.2099887314943203 -0.005298332873181266
0.28451719023919964 0.22066833296167943 -0.011620143095512958
0.40373955302727893 0.22263110719607937 0.01733888661203764
0.4091887444907627 0.2703052935841441 0.0041651208238704385
0.41876629882510485 0.1894031307018622 -0.008926250500593369
0.4332359390059253 0.23501642343917695 0.06699024206122317
0.41285617454970236 0.23666483935006966 0.01310080962858251
0.43234644427005264 0.24587131570186216 0.06878450219412002
0.4058045142133153 0.21267760062698926 0.013795353878123251
0.4402055214430618 0.16096225349454585 -0.006061447797321762
0.09929003059883712 0.11547127941096846 -0.3721418207464353
0.3436786726813921 0.24918029873612113 0.1154844909586501
0.39561133203511645 0.011920189470401965 0.034209340640515506
0.23260938052334268 0.1974959258715785 -0.1266719885139196
0.3982557644305871 0.1669309191534296 -0.00035220357963794413
0.35300318476481607 0.20089484214102526 0.057035109295867414
0.4028155444358674 0.22472414988381217 0.01776318349126882
0.3770122621216103 0.19559748391500875 -0.008317087194399164
0.28899003991131167 0.16162455125690656 -0.08435028293378366
0.45083683029180577 0.2974526144405729 0.025582936358460984
0.35054234451708055 0.24357768729112195 -0.19784227245932584
0.4502991401336942 0.22212131727430062 0.08205312077815563
0.38723536438695305 0.1892223200820382 0.011217121470309621
0.37292004000568113 0.2153048194986411 0.08401389498641265
0.44520733694815817 0.0464220870847214 -0.12637386050869281
0.37795434919200943 0.21654371471836953 0.02994275372583388
0.3948408213053938 0.25570593213203097 0.0875501846567488
0.41821133974364955 0.23010230948318622 0.014397506334574928
