# .PCD v0.7 - Point Cloud Data file format
VERSION .7
FIELDS x y z
SIZE 4 4 4 
TYPE F F F 
COUNT 1 1 1 
WIDTH 800
HEIGHT 1 
VIEWPOINT 0 0 0 1 0 0 0 
POINTS 800
DATA ascii 
0.41479712222238163 0.22569558942228696 0.029787218940157345
0.42276387902943213 0.2242516356949551 0.012532696889508088
0.40809031332588575 0.27253493112075944 0.11448548102197265
0.4604993906324495 0.1306621926557625 -0.39181450667577167
0.39857590927537956 0.22401672601577616 0.03614681532121722
0.5105723814548924 0.24294180152097056 -0.08344403699354075
0.39128881914912483 0.24991106574400135 0.012252709619588131
0.4392754150746896 0.3106284107296915 0.07798865479398387
0.39934412045084855 0.20894629521063735 -0.006747644655320073
0.42661528098452095 0.27440652352041184 0.043435503940372655
0.4150413204870773 0.21761689274838147 -0.024160191832663713
0.48994697686305244 0.1359742365013119 -0.017160897755132964
0.3790160339892452 0.13282038717466094 -0.0729831417341984
0.4108457262694287 0.22149067526491706 -0.0015848172418202466
0.3085585944126592 0.24729128956107616 0.045121860287366644
0.32886141034032335 0.2253522794744356 0.04943839537551753
0.41445724271179074 0.21423095121491542 0.014546565980026571
0.39235095980053813 0.21537329869372002 0.016729969623270335
0.28747758173895477 0.2599010269298674 0.057236005256811495
0.42858558333998076 0.19974012122466434 0.01670733078965725
0.43540419720116574 0.23209072891003757 -0.013973441697487488
0.4520635981965597 0.1859136520024549 -0.03684042307232005
0.42953343268493427 0.2165279959510542 0.06524065992525152
0.4712950275339409 0.2620913729207359 0.12135773881946932
0.37544428754958403 0.20056953555773305 -0.02835352993920992
0.37941013549215086 0.17927724283984503 0.003921582082199393
0.41403109751476563 0.21564967215422826 0.007441536657495362
0.4643803405608935 0.23937393554160735 0.015834054247164886
0.40207480835522347 0.21286149986978842 0.05671671906118547
0.3974274717069477 0.2816459282014989 -0.0195713152694168
0.5337779123242399 0.2143412067232191 -0.01709336908329817
0.285240734039661 0.3001351673729573 0.05426358440016088
0.4065365616994825 0.22579806066781316 -0.008313918180164137
0.33279419979287184 0.21599067077552547 0.08310263407668117
0.27732819596919 0.23910320232764093 0.057924062982891655
0.5577028620268152 0.23284314505514203 -0.10826657546635943
0.385995553540738 0.21999445742423518 0.03497797810662462
0.467539362169461 0.2205912579807574 -0.03275342111487589
0.516490489692643 0.3297828302061987 0.1319984650868946
0.4015374827820324 0.22767044456057306 0.043765037534512885
0.4719932224911503 0.2401848419034991 -0.006576180842600365
0.2877661436298524 0.18515978755533524 0.1530179274120229
0.36657642690403236 0.18304047511878707 -0.019583871391461116
0.3197756751715417 0.2314287935487016 -0.04101644944753957
0.5053515094270011 0.19731496488537914 -0.09910654303246247
0.4500989208062691 0.22433400199787457 0.061427883161940144
0.41704793397930473 0.2219996486582687 0.005784178336597279
0.3799169139593914 0.24879437026514495 0.042774100392108494
0.425996984642083 0.29225482760136856 0.1071748466811897
0.4649344016147552 0.241379099240973 0.09935195910577477
0.39300931621478696 0.24383120527716073 -0.004776635597806944
0.42867588563960624 0.20031285205902805 0.10587566627980038
0.4439246182388672 0.31160241733137184 -0.10256014643992728
0.44609336892469287 0.2847538844817592 0.02359298254019393
0.6155929640508191 0.2511189348956293 -0.15147179711334502
0.4168077508172132 0.24175882676431115 0.04871230731549758
0.4554506761536885 0.2079762641518812 -0.029660271006264338
0.43043468282863273 0.2822529313653348 0.07479600980840928
0.47651936045423327 0.22088195879450723 -0.045133744515879926
0.4443626078733587 0.22363225507324103 -0.017961227725663775
0.5298985874268851 0.23914690703647068 -0.023369175993764202
0.3707556900665452 0.20143934291361631 -0.018770926855793846
0.4262876863242582 0.21105968817843745 0.022575060980457806
0.41686213253660753 0.24687974344334407 0.03560246966415548
0.4395845496695472 0.2476078872814611 0.028646061518003307
0.3828083670902487 0.21340777244739684 -0.010286347276831975
0.40990340940282977 0.17141601261897677 -0.009494831675155524
0.3833875288282229 0.20973288036708482 0.05125594813858925
0.42366362597934426 0.20113952547592362 -0.04818408367790994
0.3776851503696008 0.27227233578136634 0.07710478676982291
0.4370924838457029 0.22796287211005506 -0.03317426450189487
0.43763752817639556 0.27640822728264425 0.056706104931521395
0.4164241665710193 0.20262474069289738 -0.049489858704632184
0.44057344702459034 0.2329681658424363 0.01707870845098114
0.41309451991087087 0.23492771109614807 0.07126556656872651
0.43124726426233906 0.23346809168522498 0.04393362458250749
0.35474937220956804 0.16185609983089932 -0.06449921365120304
0.41572249669802375 0.2609175438597049 0.035812592898736284
0.32139565944549986 0.169344345452771 -0.06546773546105555
0.9972855123841953 -0.41867642794662174 0.25921070898709786
0.2813549879722217 0.3337953539562335 0.32140390311809597
0.5246146287360887 0.2227790380941883 -0.02075878360336958
0.476161313485278 0.21814521920489938 -0.0010394544457028587
0.4626935418265248 0.2339286930541533 0.03386408590117185
0.4719164573358796 0.21414725725419714 0.025901695493288912
0.3876706814294266 0.2428446543277687 0.023364497419009922
0.44837724171665627 0.20766922349679362 -0.016162067219539722
0.41234170759317124 0.21883354665946797 0.005692422162667299
0.4080292335199971 0.24224402660621536 0.029827712150535035
1.012161151693988 -0.780123299641275 0.2996575472771781
0.40638239324249525 0.2192468212921881 0.00034883457487921987
0.4199697491380334 0.1761731255146799 -0.0952543572420268
0.47049587629675216 0.15698603852001725 -0.12528950142372253
0.4199238017465916 0.2439005387451516 -0.006370621879540295
0.42579191872154354 0.1616336126238167 -0.05099454753167265
0.398875899531717 0.24335478703508784 0.005038876950550275
0.33668747750408556 0.19654038794061535 0.03896668660688363
0.43010917076949795 0.2448561222353618 0.03223618184969723
0.35493524450470204 0.2263651659759489 -0.09260610751921661
0.49673493548552017 0.28509095104732296 0.16177344566060015
0.3469857375207681 0.17637972762598508 -0.03377325590517444
0.3016792564574473 0.19298540586896706 0.029772504094751184
0.3874763332935629 0.16162753460173462 0.000521551716062163
0.6109212961267048 0.15624818899247828 -0.06273910237675295
0.3834490556799608 0.2124788561766877 0.059920844972225495
0.2780319853922606 0.2517052259056243 0.00450025008538546
0.4291548505237728 0.18983400495378078 -0.02333686427745363
0.4387934943158598 0.19431685552837052 0.023207366412961505
0.41137577247656054 0.2291890639655776 0.0370264104804221
0.4048102288069515 0.23542656380664084 0.023539154748945634
0.3597291539231833 0.2190960091764964 0.03251746087644847
0.4662485703163384 0.20453892063896717 0.18459099000438073
0.3900366466135665 0.1981379372818708 -0.004922452584025905
0.3288323895901044 0.24473947550188768 0.08879938178054658
0.40606528380749296 0.2129188618533817 -0.0008483669256662552
0.29919261804431585 0.25018705912467 0.1540301107318527
0.4253833193169214 0.2328606046087458 0.0402640158594636
0.33898287457336096 0.21727105893580756 0.02564251460889011
0.40399519610406287 0.22441928784144238 0.05465998955463647
0.32940312172524955 0.20493857341159583 0.1075477159557181
0.398131062770517 0.2290881052404643 0.02395653217476479
0.35201107292425604 0.21180483284885554 0.08804516776203286
0.3867285188898393 0.2375117832821445 -0.020719743940460944
0.4670734943369723 0.19436491553894086 -0.029848506526377605
0.27717464701501626 -0.018979832752080483 -0.20360970268781386
0.42347970296030724 0.214673150713935 0.03508232305176762
0.45616609192887836 0.19003634494193022 -0.010705390822025151
0.42579952522146414 0.22022470491083368 -0.022107113494030273
0.3637763055334631 0.19835847565200027 0.031543172819596066
0.4218104903750657 0.289792422176788 0.08730019491099483
0.4194642513379563 0.22170642864878687 0.05011599165068503
0.19306656183566417 -0.5030771872863085 -0.19881375092745657
0.3800417735598103 0.12980764527034694 -0.08474437478290042
0.8071306512160277 0.5332054777438486 -0.6088882064902634
0.3786359539019628 0.1913088531493088 -0.009625165903756283
0.09606487001455832 0.19408088478098762 -0.17266607808927859
0.4098649395921825 0.2424310277780819 0.028954914445733948
0.5085260369770879 0.19351670373831098 -0.04803634892402897
0.41232251313169854 0.21588672280486776 -0.02695023099299476
0.4080929597299985 0.21920574220727929 -0.028338764799627825
0.37529279922466685 0.2159742066113779 0.013948304545323253
0.34890990851457104 0.2284212453682244 0.07620768172266423
0.40929742231055855 0.24725179014933474 0.014171923544950005
0.321015896252959 0.2187048661739368 0.08223510179868754
0.4008222443131615 0.23681709129979822 0.06458152889196356
0.234080401381334 0.3241707516637291 0.09468383866718
0.4011826129552247 0.23631756000433768 0.027975083716881954
0.30062585346044557 0.21756286199848773 0.05026225909404047
0.4468687298789291 0.23792385027948626 0.06315444110140334
0.3856923464047952 0.2633131815155707 0.1040728216391642
0.33203434309072577 0.15987357517906275 0.04719185581970464
0.3848405564273918 0.18745546921002187 -0.044489014346709155
0.417468431815621 0.22600181087508986 -0.006556493055001056
0.3691089647137744 0.19260005815888803 0.08077182756831291
0.4273052656124037 0.20566438280414445 -0.04548782477323243
0.34460518361998993 0.20371313532100999 0.0043311626636182154
0.4196209434411742 0.24135139169376885 0.025710234330091453
0.42871340798639324 0.21218625153655069 -0.01213197353078499
0.3497612842028417 0.2025147778738443 -0.05422959017707285
0.3237655831401298 0.18453647943715623 0.01798034196781373
0.40450911542646395 0.2717165247604072 0.10041177529745937
0.38957516392581226 0.3277584211465978 0.15247571135802218
0.39464938523201454 0.24795304129705187 -0.03224723756744652
0.4814917042599802 0.2206554521585531 0.06969083613699922
0.34926578238358275 0.15215274910278254 -0.010506624979313983
0.39505075997752215 0.22900094604872834 0.05179329535073407
0.40127607711048086 0.23639712747048236 -0.01097103979378744
0.40124433242996815 0.22965332057023602 -0.006942617320504496
0.4873616156035041 0.23166738665793218 0.01293873416631186
0.2947142933408031 0.1477661133893946 -0.02176325357967812
0.46726364735695824 0.24614208498928747 0.10917849980054939
0.43551132449798047 0.22727454488966714 -0.06419392610487762
0.4189457899756377 0.2233438241763821 0.09228518357075188
0.3720704219996378 0.205295360709016 0.11102174647786
0.4235782787571907 0.18035373111172248 0.003808346656029471
0.39426238220852383 0.22089727695090744 -0.026510373469378123
0.3765142261929384 0.23800742131325592 0.17570747616449012
0.4290729219883218 0.17344506061523646 -0.1115466599410837
0.4435312329589749 0.3022007144046768 0.09101984865139912
0.43376243248634694 0.2376010328659106 -0.03438217447362035
0.3945784711402496 0.1929477901940686 -0.046107652399797416
0.3793619301323332 0.22144214079891356 -0.0042815010633034944
0.39371130753383454 0.2121704736212564 -0.0002593180018379826
0.36542439241057423 0.26251225965475555 0.045554833129500594
0.4943438238620672 0.24634082816949388 -0.03914002214018808
0.43323649591320645 0.2611355206590815 0.058692523279333386
0.33632329968830277 0.22414547172860466 0.07235334004535332
0.5616803882089272 0.06454164645262495 -0.20170257049966267
0.4568346222294366 0.16881284554854403 -0.24414491862040677
0.371206683138638 0.20143899741452742 0.005936686626213827
0.35976145332320186 0.20500194759416956 0.042144832182714254
0.41666515301557183 0.26136893008143147 0.07036647644190452
0.41945813406491084 0.21139119215747826 0.029528861848888255
0.5197321744970793 0.19451088626838953 0.12357695542765157
0.34769761827158163 0.1946701384587044 0.0548257817895319
0.4211121835563887 0.2222879350128153 0.015428660289529716
0.4535207288143681 0.25524413309101135 0.07972933541199723
0.47554619397965325 0.2365517550605034 0.11666944525308054
0.3907155660963184 0.2182393184434943 0.06756440587979284
0.4307668260015305 0.2213638731706169 -0.02863166123206895
0.3965718647461074 0.1870662154093452 -0.07736499216930781
0.47075985172226353 0.1914081956475684 -0.11066637755880038
0.42378578335345196 0.21512056176200645 -0.008856013355142522
0.4662215088688271 0.2541795025214668 0.0760438053860355
0.3870670059436634 0.24438951498495953 0.07677315322109735
0.35790315419035323 0.18574738164701898 -0.01214836222166582
0.37918186071756566 0.22994501036029646 -0.00556207103281281
0.4135627972400897 0.18996644784233752 0.011942258730428534
0.43119890424878804 0.2366897381538564 0.048201947817901214
0.38988450096576344 0.22868444439720292 -0.004913168523131617
0.420634433262876 0.2200796918346981 0.038264743107532695
0.39538582367492836 0.22986981531137474 -0.0016786089306748408
0.37504308639891804 -0.3220945327061031 0.19898641746220846
0.30791760022299286 0.16340610294480484 -0.017454917035024664
0.35754094242466294 0.23808196690100658 0.06157803584734722
0.3820194305986746 0.18640582178736054 -0.0465113014272589
0.41279219087479646 0.262062201562415 0.21439078697778768
0.4220384240352075 0.2280517199596943 0.027990781872972548
0.3761698544979595 0.23374994507994984 0.12682713503214416
0.3587450748132994 0.21443336432309934 0.014751426082256103
0.4665388308059022 0.24890590804685075 0.04932246247602734
0.42259649904318053 0.23986708921286493 0.13016473155879282
0.41229999403645934 0.22018507382520625 -0.01824905116940556
0.4217956748788083 0.21123382237442456 -0.008691036108132266
0.4029505838348655 0.21062688606174618 -0.001342582318486052
0.3200231601198311 0.32084345927088975 -0.4224921406264741
0.4272213762344279 0.20851093700312617 -0.04542885727337875
0.42245705485763096 0.18680665608610525 -0.000680817437697101
0.47219318494870777 0.22517952360381344 -0.00917069823056238
0.4404643051947801 0.21976044011853446 0.025925716492466222
0.3864468305694402 0.2593482004986214 0.05736449957396417
0.37299982314647195 0.2536338298655494 0.14594597489045213
0.3836090436402344 0.2709573662413618 0.09619082389266964
0.40113580833227047 0.21683874466181408 -0.003604864226758764
0.4108621997064148 0.21041009697273694 0.03230565489077719
0.4010897798673483 0.22289838007233698 0.03903520483109446
0.4211205980757313 0.26038519265166826 0.08552502539231455
0.4656555953492614 0.24250435981534224 0.08354639306676859
0.3607522225794355 0.23327422721459357 0.09318607996729611
0.3890101809830355 0.23011855595854058 0.03517032927440766
0.4401501161755874 0.23726809139489546 -0.0012596433014380182
0.4183781670820679 0.21388459375211255 0.034378525268579097
0.41169249306571487 0.21962669900561593 0.018650861087820658
0.43757023116103255 0.24170041827667887 0.03914896728633721
0.5112675587444642 0.16197601060579814 0.04968798783521322
0.4837864646669061 0.21517222538255965 0.030879040722396667
0.4338119529932385 0.19312424699066355 0.017902317831683945
0.409142871947509 0.22130552528525982 0.1027124961951813
0.36019928135461043 0.20322986887163097 -0.0479421745127695
0.35605423969559524 0.20199871638610034 0.045572627786796716
0.4901305301786465 0.2334010442972385 -0.09042088405266213
0.4910986766032295 0.20434593576200655 -0.07596094866238445
0.5479577541659921 0.1938369495148038 -0.011273692803769109
0.33811114421902744 0.22659952736735534 0.07832312905678407
0.48813509059890237 0.2666561622245922 0.059692138012650275
0.42227131586237476 0.21622182777559829 0.012046780063769802
0.4329103885509653 0.202435647281078 0.08613015908792931
0.4229873347223361 0.21986376755612014 0.01247927558345907
0.403370271503519 0.2161239549417644 0.027918882365696618
0.4927941620624807 0.34615940292508185 0.030448016080597995
0.4259666041409673 0.22241095861954818 -0.008167406119056864
0.44369491908607017 0.0741540465466386 0.01570476748963756
0.42545757924926875 0.23196569233935804 0.016797914291430516
0.35104115029693617 0.25646146016512716 0.03705238176991088
0.39549660532175324 0.23013886214774004 0.026596602177363593
0.3706252345835992 0.1694465714306972 -0.018036785618349427
0.3869818233791591 0.24046281158616978 0.02646624163473632
0.4494957313047223 0.1662806339545284 -0.024455082924404792
0.338117774065978 0.22352243461978105 0.03580702855296636
0.41047393755121675 0.2354841875925331 0.007548547386022619
0.510972070649899 0.22950558285916145 0.012788679297813133
0.35354714483173666 0.19714313939677197 -0.020698575831829658
0.43452536777694206 0.19773891693307633 -0.06620579753386835
0.362780887626883 0.203270683130242 0.047817477471625125
0.4591944061903064 0.1798613958308124 -0.025014979180937758
0.40540591096885237 0.21739676057944735 0.06539855703219644
0.43911721710036034 0.23153755162474 0.027531711921000124
0.3963869279840253 0.2399796033909638 0.0443440544808027
0.4411078130325734 0.24404422703204887 0.029160278289651842
0.37872687665418425 0.2293345769153632 0.03272363572904169
0.4049469170136746 0.26518242564520733 0.05500605525605806
0.30222804366015055 0.20918556831216506 0.04936367316635426
0.41530148691748536 0.23118612597151866 0.033332164555730515
0.4548533976161906 0.2118128759093736 -0.018527155436700582
0.33204631398115225 0.19059997589698696 0.06019655276915614
0.28521292966553347 0.2147004563808821 0.06262732862568043
0.43999787471059904 0.2916620910139329 0.1399823512799685
0.4737946503774424 0.06675461214737766 -0.09237132397967684
0.39532529595385313 0.19886075127476488 -0.020577962675275785
0.3191041590493313 0.1974602697428054 -0.09030202102428575
0.3393977591632762 0.19210227271156555 -0.16800251732240667
0.41730048053752 0.14692393202126652 -0.19189992061453154
0.32116257573366624 0.16220065287021157 -0.0021926298132086686
0.44087627410192454 0.22572879467162466 0.031101828702219336
0.34515393730340804 0.22147241542228358 -0.005892880251636257
0.4275298706093338 0.2019758094268127 -0.035552406470401365
0.3678444834647365 0.23484062189706378 0.06518404309377956
0.43544768332958483 0.2807907395672231 0.15921406353103862
0.41552205313917057 0.2209568073136552 0.023865383604061208
0.400726140175351 0.21071686537371193 -0.04422183465739238
0.4429090898055108 0.23298340104287263 -0.007618980360177829
0.3814242344156753 0.22369007698387122 0.011468324201928226
0.3687346492807251 0.2051610224865783 -0.024415324277171635
0.4122168256660359 0.24333229036244575 0.07109970204777483
0.5037804110241808 0.22581368037866412 -0.02615308018664564
0.4897991760609557 0.22533650578000675 0.03448739456138128
0.3792401723656269 0.2080476832271927 -0.0029653407830778633
0.41956265944685356 0.24642875583873547 0.03748373474718392
0.32120032127133413 0.13962439652650005 0.17621544168437708
0.4272836038357184 0.17649959432215212 -0.04991276576436121
0.43510030457609616 0.2948180337789239 -0.10549847735310891
0.3681766602958021 0.20191812451245994 -0.018956849380117546
0.48799101158274993 0.22147578229494513 -0.06276971514714091
0.5586338637252766 0.4870755742611266 0.3163002935867496
0.47419222126242744 0.15026546315175437 -0.028101687823777866
0.42732232519335867 0.2375463631553174 0.021717999486355666
0.4492317836379982 0.21988333360046397 -0.006442519904737765
0.44434186653143115 0.18209138192258933 -0.06262631952424158
0.3827726469476147 0.20774312647372994 0.012693564349120834
0.39447425859451357 0.1843910315963626 -0.014216177685312914
0.43316373237300354 0.2135723333621229 0.010738268981413057
0.4166163207661384 0.22743399297789324 0.04983867256243002
0.39308914809055295 0.24939556322982526 0.0599765869621649
0.4604255664154664 0.16193576177391833 0.03002046179560125
0.7236917671566658 0.638816913663959 0.5395397295550879
0.39397880260284524 0.20648998443972744 0.027433707031207177
0.35555852644867514 0.2387843285374629 0.06308896556994625
0.33628423924245965 0.1904989673405595 -0.02401315068424026
0.3833542797277971 0.2344762675946015 -0.032870097473178816
0.3980475476164429 0.21714061385523564 -0.0038568576806881083
0.41512590764821766 0.22366971479848985 -0.04310880687607721
0.37841501793704424 0.19257371760602382 0.10366519902174787
0.39700647998918726 0.21588404136912231 0.016294615887971986
0.3978884002959262 0.22970606081402423 -0.018676042813353888
0.4197521266058857 0.13821791057711152 0.045808532987550166
0.40452876143422145 0.23304641456041963 0.08515453889248192
0.39777843935844714 0.24748436194522583 0.07048546564158187
0.3764695381314027 0.2006170818221733 0.014890254642565992
0.4573766898801068 0.25062635506563424 0.03195496812739407
0.31197724082068135 0.18376550457000462 -0.033544081959945515
0.4060223244016754 0.21195856955063164 -0.00546447973283648
0.40057238203041834 0.2166321821385111 -0.022559857048804588
0.40348113210032466 0.257887245150215 0.08535335049603532
0.454236196661185 0.2518397158060566 0.07050375448523027
0.38316163340346066 0.2482969776846886 0.11418614700130547
0.3566772081234433 0.19314008932400384 0.042098399570733136
0.4515645268608637 0.25176506769081186 0.10869632244200034
0.3766089631299536 0.20846600741793964 0.016088382040337024
0.45020008647730947 0.2578732837545772 0.09664689799583925
0.4530624839796076 0.20160742962011113 -0.03008793656084663
0.3317877737646455 0.25637065338871423 -0.03936263377941884
-0.031181923336816908 0.4736275592906338 0.08186104528053306
0.4411476081110379 0.25356566093668675 -0.08283188173092526
0.3642620119557023 0.2796047148848686 0.058153813038387625
0.35117977369657183 0.27472230709491896 0.00895824579862392
0.3639125440502653 0.24963925571466916 0.08073656257013795
0.38915548922045673 0.21184174278478451 -0.015339810548766764
0.43464909118094397 0.22971709203849855 0.024389367912249327
0.45334809921182284 0.24366210941997224 -0.05264756507369839
0.41034806094918963 0.23203711047722209 0.0003101932505842342
0.4058972124385889 0.215368776778746 0.021596858081693426
0.5095485600337781 0.23428565293774284 0.08155186867850261
0.31098896329140757 0.30095526966704256 0.13367504218531678
0.38493403427861494 0.2628998879418134 0.027863526876615197
0.42983718863649756 0.19998847071192927 -0.09554190236102045
0.43056548941285655 0.24297588692981265 0.04004461332542064
0.38764311487747705 0.23378654027420964 0.043056050155385606
0.42167922986786266 0.10963870004945875 -0.22814358584631123
0.3378465588684776 0.22847498921078113 0.08592343975819006
0.5282829624379133 0.2281349853955703 -0.07191434750561143
0.42418288739347076 0.2168974410990927 -0.04938813681270915
0.4357003599894682 0.22945149596114334 0.04641808028961236
0.41165895569804434 0.21611080486198375 0.018189396957723147
0.36476753917847304 0.27310746811605213 0.09312587879037437
0.4432823975633511 0.2375209550688595 -0.010888092537697958
0.3888339277274184 0.23276989816318405 0.048490685696606306
0.4268967891332238 0.21053033990423842 -0.002391642609765654
0.3421015429202612 0.15168965062062512 0.009710505663264257
0.41098859004820554 0.13484951364353037 -0.0470135162607761
0.4809837430863695 0.23493085007129366 -0.016059792965421593
0.42480938666979284 0.22452609004835722 -0.021175993471175047
0.39157954851454235 0.19997379593110054 -0.0028653088066903365
0.3805027525857838 0.22772308802035468 0.00923781211687924
0.3680486279479567 0.19926063358838064 0.13644028215964
0.3834184260281006 0.22462161736433472 0.020450828617669004
0.5995816069242608 0.3113060284142648 0.1273423554278139
0.39020268251846346 0.22417183273510943 0.00047763936176181687
0.4075564560702105 0.18112123979452122 -0.04753799435343353
0.39563365298423037 0.22439786192762767 0.022556415771788352
0.359380635400413 0.24725531049035965 -0.036924415141697864
0.3880620546678699 0.13288886628699004 -0.06856855895475178
0.38938122959862653 0.2039595774290177 0.042665509173446026
0.5042741579613903 0.24170484082483767 -0.06568014365267061
0.3675313941677558 0.2098599003477517 0.023149235972951487
0.26982708087027163 0.18544363186995838 0.2036562835324105
0.4090575859316914 0.21007157920122665 -0.013324004317041727
0.3858700876605923 0.2674709249247229 -0.00838106594201804
0.3723371917913312 0.21199828548802202 0.03658279788209029
0.36676935983672365 0.1794862917661817 0.07458579009355049
0.4112844860102314 0.25185720498762976 0.12299572898828615
0.38151000813692804 0.2418049280732646 0.08020791750305989
0.4129367008742406 0.20251068380684956 0.028200032482459392
0.4498847284248484 0.24216811912205571 0.07731079890450587
0.4212241162718726 0.2424497975144675 0.040104669496614065
0.3495377681747982 0.21346968541344324 -0.07128374170268614
0.4592308642735361 0.279560757303571 0.07479603788218014
0.42132765021210616 0.23103820788929852 -0.13039025708289387
0.3965421290156854 0.23136014447626962 -0.020106588456286545
0.3602456523113915 0.2357132513132285 0.09278013514614258
0.3478119762229994 0.19033340484003247 -0.0005514725034743151
0.39924163281379776 0.1876214423910767 -0.05037977510556857
0.4065506881854759 0.22076892545194937 -0.05888223798734771
0.37952217139354616 0.23286927384654632 0.021789085047828394
0.30917777788734213 0.23043130729675454 0.09929584863814966
0.4593718171805108 0.33907123981803977 -0.18165602045598916
0.43190583940767624 0.23977509358377347 0.04005006456686999
0.49317952858976355 0.2089892997348386 -0.0013159394476645048
0.3564934781111049 0.26239717698922504 0.07626593848127072
0.4258271962390836 0.20534765954405998 0.0038672571282063473
0.4320093571289476 0.3373845050503519 0.22988247983354881
0.40891533009505565 0.23535152307911744 0.01920160731489773
0.40472977168930413 0.24177152818360526 0.04725115413906167
0.4050077927753506 0.31709825248060497 -0.013819157598277343
0.43633214802008524 0.20606308513029603 0.03141342865694696
0.39859811665313316 0.2413043720440271 0.031351133076015
0.4636052809333506 0.19091351925557376 -0.07041591611670128
0.359721183089448 0.20797733497089155 -0.01652690286550751
0.38576010645184056 0.19777357056074152 0.06520625314394124
0.37197366448341995 0.12149380902219775 -0.05660756217537255
0.43258476174240457 0.24014579997054852 0.04954665155318594
0.4433703837197811 0.23430197439816425 -0.029901238816762543
0.39306125315999907 0.20943668052784403 0.0019930710556934628
0.38697502330458633 0.07900758035160038 -0.048839508779963126
0.3935330046596448 0.2508440829147389 0.08069199072130573
0.37919544091764124 0.22565808107592034 -0.02468641859690024
0.4093677977172092 0.24569561481271762 0.1017195903752679
0.4073257121654592 0.24393148484359983 0.03816119508047677
0.33878052576621087 0.1611190621298988 0.02073620942337584
1.93164063242196 -0.021609467395222737 -1.6499526366503687
0.3760241778064142 0.21398532062224263 0.03751225687483384
0.4255765647015437 0.2299346352379672 0.0031507647506430203
0.37738151600632364 0.22080648816137227 0.04806529378964797
0.40050601444848155 0.214921703498689 0.007518987338499983
0.3775973312399259 0.1962379592900021 -0.023282642930894326
0.4302598480456652 0.2835821840807853 0.021711093127436243
0.4603157863204217 0.21128812985870127 -0.02827139275545676
0.4097437532759045 0.2155881452696633 0.0178386514509441
0.42748205609598244 0.28319085712166725 0.05114690118610099
0.421030627397883 0.22479256848245655 0.017919771049463407
0.44451639871957127 0.2592512965024696 -0.0144953201912017
0.4681580134233059 0.210096590688039 -0.0045997286233046
0.2974570173047937 0.21273735713383246 -0.019207636997734312
0.40468814768115635 0.23744826454824874 0.05018907465753841
0.4478587993063172 0.22656535780726017 -0.008952788469088091
0.3624141170375026 0.3124024385643054 -0.006619801389916802
0.312338471658677 0.25926237660800666 0.03129348427404466
0.4736551789406178 0.21662579523268732 -0.06830106685190174
0.4061948781122453 0.25152842457205793 0.19220350356171423
0.3451490690660677 0.22120043359183228 0.06859730956342958
0.46804238809323806 0.2410735312400618 0.008400192226929448
0.31723572787804244 0.26117570420734637 0.07240790822120857
0.4178942080025223 0.23337048885997547 0.025688744812271125
0.3925958930815483 0.1928836000994636 0.01699563337368204
0.428732353175306 0.2549313134653062 0.053443883013301274
0.3946750850105758 0.17969058745009647 -0.07567629469141934
0.3252703513590234 0.215141653257362 0.02980823602798921
0.4523856721980053 0.18428156497429882 -0.06020238938469902
0.3717279415017032 0.216755345426904 -0.010662913705900223
0.35957005937950726 0.26117635365163494 0.084831482684109
0.37130338518782935 0.24796295603404417 0.04324330558806366
0.3830247070144708 0.17861305685994466 -0.012550362687619554
0.40321892783703106 0.22705326826152827 0.06313201205860253
0.3824818937301302 0.21551886160492018 0.018269451823030636
0.39221574351500976 0.2066586028026478 0.015114780360704572
0.22496696228559188 -0.730591943666127 0.08943353128309184
0.4267440436139225 0.24767216234720024 0.051952287622754056
0.42375999381587803 0.22080136999352362 0.00950309636266411
0.32374412536100294 0.13769756245338272 -0.07028439041644674
0.4248678892600992 0.32013623045958184 0.08514987699450671
0.4298974371698705 0.25794761853450154 0.06833955000303149
0.3739944363491219 0.2656558316319604 0.057564621957197915
0.38969624312306905 0.2140069046261459 -0.014822622177746325
0.31697150731415036 0.21790502515847265 0.04591209583139744
0.39531132615380216 0.22504694424752358 0.02509032778593223
0.4306136107708909 0.2595835019514823 0.06075014007889479
0.5201224049740745 0.2568763576290394 0.017270713892287404
0.41535353047243007 0.1508645482346509 -0.07066009350032232
0.4962012055130458 0.19052971053915257 -0.0919650617927914
0.3089465843069945 0.3902364047190474 0.14745585054998855
0.37883479606779247 0.2097054740387989 -0.004096028423177245
0.3900588170237995 0.22897790946700525 0.0017970829990474613
0.4159692199828555 0.4212989360105439 0.0028118268015759895
0.5807838905656268 0.22900341023733972 0.15122470417213663
0.44339622621035346 0.2518215572220299 -0.011645941815459082
0.166569340668957 0.0986860216329859 0.0316735658215066
0.4462936071720378 0.269140048317567 0.0512745231559677
0.4347034462972488 0.23493300055380928 -0.0007535420863717945
0.4119503278847958 0.22564949769730447 0.025081975208991025
0.48878889053770536 0.16786333470560066 -0.08241314937487232
0.3972168996019718 0.25141512646479214 0.11285383393540371
0.29792806504840996 0.22091474895282204 0.07798846705478013
0.36268399915317673 0.229064459869889 0.0014564045191463038
0.38925337682036343 0.2833460538677173 0.11418093330696877
0.4865206559379658 0.25748577120101857 0.07246913084109963
0.44540759895609483 0.2312820208611015 -0.012818251730237762
0.3151186700457913 0.13834582163082132 0.12215179242932095
0.3684320033451627 0.2242803748419533 0.0027288898864554767
0.44135558628293836 0.2775267521959961 0.09070090027600486
0.4299288250816602 0.19644446294478257 0.10559378687375442
0.46119006201561774 0.2626833394123764 0.11340799635573262
0.4160520826210927 0.2581894435894867 0.0709757293696498
0.40540113251313414 0.2983671509624344 0.020140689302806436
0.43403951941445484 0.24787838574144416 0.016904910490296743
0.47150100330316036 0.23655851608094736 0.04887095392740548
0.4200223087287327 0.22391405493645777 0.0009426123383207141
0.4732635819486575 0.23366940925433255 0.07142094153185496
0.4160068000137471 0.2636812742026535 0.0880665312616884
0.35027441533227943 0.2370433789212143 0.015029069016790686
0.41639640182472704 0.22846207146480424 0.011984272688096098
0.3838122263203161 0.18885393570559472 -0.010336916000866836
0.3935292645295476 0.22952784192187892 0.09684551988308954
0.32414641142753453 0.16061639906334335 -0.01734461140762278
0.40033391431330756 0.24101267652106628 0.00019018741173226772
0.4093816705126869 0.238849337007494 0.07753734772308007
0.39151423730714896 0.21400424573076293 -0.0720188275004574
0.4768711379656452 0.24651192753793794 0.07703307746058385
0.42552937542313884 0.24424958207858083 0.030822219546607244
0.5186646306853788 0.24409816556951114 0.03474501376393846
0.3965770089517946 0.1942620151549619 -0.029299026188908783
0.4642275033806982 0.2580419969562797 0.07832167352668762
0.40447758945839496 0.13095518163143538 -0.06537705479101419
0.4035396219110794 0.24563125975934952 -0.02032941244289077
0.4201423904186612 0.21438971005866847 0.041415068302654845
0.2784202467616552 0.24750047063704983 0.05614439231320034
0.31438621441985504 0.22895556976685327 0.10651958832237085
0.44672021465122214 0.24430455128991468 0.08595776015047818
0.32845115858252427 0.20375154317423494 0.015599072505551703
0.4330276683402019 0.21472497710423966 -0.01013301049087545
0.3531731927638475 0.18755635496282252 0.010666003770992916
0.3626757184160283 0.18643585930416862 -0.01265672834259135
0.4371497048458366 0.20418110276824564 -0.05170765660548682
0.4194701845998452 0.20836504112541832 0.027953042887162383
0.45905598274981685 0.292658593597821 -0.19082926781084097
0.4665756389272815 0.24323021604413952 0.09523381018138366
0.4438883131388991 0.2000279737556241 0.036692114591573954
0.42031496249605027 0.2135727808572767 -0.03712481791768596
0.42378281224290504 0.2308693963769599 0.14992224883584981
0.4329420501558445 0.31660025192196883 0.08979350355974702
0.40835707590149184 0.25820509997356567 0.13938349629844993
0.43420070811022526 0.2384718635447598 0.07090258386436687
0.36695465844653086 0.22760146496392508 0.06399230768610664
0.31415393863890984 0.21083668973255953 -0.031858160358780196
0.37572274414114304 0.23175361740970857 0.07895304857299834
0.42361719196023273 0.19634915668480346 0.003465166178415302
0.3491011225065961 0.18508408028966983 -0.03229774698471033
0.3688156887437941 0.2201712285994688 0.0726243232418824
0.3788170847220158 0.2460388501009163 0.01790355355041129
0.5048775201645839 0.23599939743129994 0.025516352470134507
0.38958146896165147 0.19872393396912003 -0.007629132604165534
0.3894816691113334 0.21414553220191124 -0.003688042931813129
0.5329113791263183 0.12374882416477817 0.033616664235353255
0.3921865692338429 0.20464124458231936 -0.03755348432829919
0.34712555204339424 0.16229877527294434 -0.059939093111935904
0.4185792625503666 0.22299598131090193 0.032456839236687074
0.38905114169639887 0.21991285650950942 0.019556112405680892
0.4078020851051889 0.20548096279460992 -0.055501886680545454
0.40187675096930775 0.21999708381663652 0.06105965500577781
0.42670265643832295 0.23631396274394945 0.04118744930681828
0.3496554995121244 0.2323675649879533 0.07948827551214777
0.4283543723210812 0.25511061748971997 0.05958056291660796
0.40753324750005504 0.2360496946632793 0.02231365479035219
0.41264631759725034 0.19931400900556184 0.000961326593099443
0.545981919457347 0.39800639068971577 -0.1357422934028989
0.43346566061472913 0.21707767827848556 -0.001159037279805375
0.35152731355057654 0.18118153176698115 -0.05297448361565671
0.3918473064432817 0.21878621519721264 0.010108526204334112
0.2779069281249349 0.1990519676788267 0.05799969662476201
0.4415076403713556 0.22812151882259002 0.05307852999860074
0.3438511170985805 0.1446304644808123 0.041646350341352445
0.47217781717580465 0.2156596973708531 -0.08070253950293704
0.4336118352324263 0.23397603641205933 -0.026116738607782963
0.3873201849322925 0.2545424590916241 0.055749692932067774
0.38494376021259313 0.13114241395771842 -0.07472723734466058
0.3649192655740876 0.22044597406900834 0.04079246445169815
0.5186591539346921 0.22956230903884034 0.027146972101519395
0.41785130117510505 0.22508789776586013 0.01324574352504726
0.4690405095857102 0.2708600594405368 0.053196324476488144
1.1453675499915619 -0.4029433814950494 0.20416142234512336
-0.055381174672007205 0.2433931645365135 0.019676465079740524
0.38543172844443063 0.23189919702117834 0.06828110590677738
0.4331440551402892 0.19658321450702942 -0.029355610764042694
0.42809141379922266 0.24544486322943726 0.07631530292385946
0.4095108341955296 0.20092036386266443 0.004642049078199761
0.3221779138744125 0.20252981968420158 -0.019739078957258016
0.43610561672969084 0.211816233423761 0.007075154488674684
0.40807852535024836 0.23851136749198076 0.01784040828673028
0.3237055484232201 -0.07537530730661501 0.10163462530204015
0.4531682901835552 0.24616408642179977 0.04849303748908085
0.44948586486319186 0.19794686621267488 -0.06508781426811083
0.40968267828088756 0.19397124303465318 -0.004034796849310851
0.24747365895541407 0.20676717051284754 0.02486257903007072
0.46049165750186205 0.2737642976197634 0.05331833085497806
0.398823573152697 0.11864501391167437 -0.18791358726460317
0.3775233915605156 0.2466392300341056 0.024461594854258806
0.3311492989091249 0.2426178002021686 0.09445637371047155
0.3769363847601994 0.21794088893352637 0.0933161525776427
0.3705121743977031 0.20781880426014254 0.12080193109197523
0.3173668678981443 0.2017303095873899 -0.030034236897137134
0.45416565965285827 0.198552674179453 -0.026519029955451856
0.3409080197598229 0.22415814581404447 0.04346337981306192
0.4044940167561606 0.17912318668163607 -0.07144253661941491
0.47508418072038694 0.21534086580584244 0.00842737926512882
0.29014607384696944 0.27221096460522176 0.040870559804432105
0.36381612573975985 0.1878133668336659 0.17368331717666763
0.45892917606704486 0.3943497075721467 0.07175363192926909
0.41408043542401174 0.22562899423199667 -0.021440965077090368
0.4414514167487198 0.24761830578830768 0.06060296844708546
0.3812607812097042 0.2198458128729328 0.08087146933449674
0.4097026066724254 0.3093300097151541 0.055307356642828154
0.46223487722221535 0.2978931174202586 0.06600537750040303
0.391368906385992 0.2538014123630603 -0.027984861189509047
0.4658422032077141 0.1948452939901415 -0.029063470150504145
0.42360768913455615 0.22032926014205145 0.02787553520741426
0.4024122307329776 0.24314528030319593 0.04108431325310846
0.33160343182319707 0.22795423495136902 -0.07275650844275106
0.33010389731509804 0.20132163628682065 0.02184333522464499
0.3994109428211914 0.2451017490822096 0.07191452347311156
0.353382213945423 0.16778209983968395 -0.05569755260454201
0.43123305303228676 0.18758939830759402 -0.10692172050406157
0.5126257268860286 0.21399093342191122 0.06308732015196483
0.3728721376886597 0.23196578435371862 -0.018368594676331895
0.3318590806047155 0.20906539838250637 -0.037307619560635885
0.405417065585965 0.20836657476826304 -0.006074574597590754
0.39156393619806806 0.19665590763980845 -0.043598233837371936
0.3612655547168515 0.16259118820944707 -0.047350001413946075
0.39403454028638407 0.23724458517897062 0.037196344778436696
0.36062154758812426 0.2510818800507053 0.04717759266306132
0.3518873097525841 0.2146830330066365 0.07742057454170492
0.383897130157024 0.2334491926863791 0.07839766365577816
0.3498674006342526 0.18646774154066748 0.003759233481730462
0.20845721321940403 0.28193943360042795 -0.020840477993630202
0.4095429966141637 0.24603669340561396 0.004875784094508617
0.3302609142989752 0.27767859665922856 0.10961268690184056
0.416479187417508 0.22686015177154673 0.030636488309639276
0.42400558768744645 0.17227979713251784 0.09849456236658227
0.3533087728452813 0.14806242905194722 -0.037533148006062333
0.43449239844875365 0.202478201761636 -0.11035220093818054
0.4465776139886657 0.2276271689313063 -0.015744615904679904
0.2988146891748613 0.20757968113429115 0.003531082136348118
0.503188279757012 0.21465314919674938 0.029948236935325667
0.47860696372148936 0.23573648918394952 0.02862238113318938
0.4478997179888893 0.22950062606193455 0.01194262081158115
0.42668493648181993 0.21482110828885936 -0.02334631518738206
0.48796241807605156 0.2377945660096259 0.10069150816048023
0.38080604627424464 0.20421980983030608 0.10286277342336803
0.3697348104662126 0.19796192504308863 -0.02209059041760497
0.39525487101957424 0.15456172318681638 -0.06287134943492845
0.4088436373676245 0.23078521863592982 0.010171675319966766
0.41569715772554616 0.14828430287106187 0.09775864471552609
0.35341589023150277 0.18156806590161523 0.031781814694312516
0.30075065873552376 0.24341277166340092 0.005245531849453755
0.36498543524470506 0.20137690019168986 -0.013608901513933347
0.4507813959793907 0.20811829375169566 -0.07590739011855874
0.4434921305499415 0.2337780279649735 0.07175671673775241
0.42379869463476894 0.1751089602692275 -0.019550114301154053
0.7699843605624892 0.11145424018340577 0.22307660200689838
0.25140669686931005 0.19394799471784552 0.04983137931327519
0.4296892499894511 0.26125265260182573 0.1126062338947662
0.38748206299740673 0.21887338284557245 0.024502092887132676
0.4150217597169501 0.23089527068557913 0.022320637878294747
0.4044854353074925 0.1698663339879829 -0.043114348333915586
0.396247565433157 0.1618728080986358 -0.040241616400663816
0.4196868489794241 0.2154963618361876 -0.038051038460537256
0.3275375611916047 0.217655957112612 -0.06727964114375595
0.4426782443450463 0.23614862391286806 0.025302164438940622
0.3368067568095796 0.20930854368634755 -0.007077628484097431
0.44964484335457655 0.25572246113789276 0.08393112126279334
0.3377628585504624 0.41624921703301254 -0.027422896929707008
0.35860294980383856 0.22898161242812876 0.07096459267536659
0.41798744148321987 0.214424711965421 0.024545115776547277
0.30435355469107606 0.2453798668160232 0.021187268589528685
0.4133865827348302 0.2329207149607413 0.04709452186725116
0.39636643901646096 0.1749591837211142 -0.0647209879838897
0.3622035532315948 0.2321568400391527 -0.015334278616563779
0.3707080425167675 0.18508313631960505 0.11703801909604294
0.36913276983469245 0.20133952174796832 0.03665748574553618
0.3786597812136847 0.2789447172635846 0.008272332444676067
0.40153774042768475 0.22837326332015095 0.027339486932874024
0.30244861333666506 0.21488930119946303 -0.00839549266066797
0.3289485304857038 0.360331108752888 0.0004689302630822567
0.37782503248530475 0.15818664516008596 -0.07078711827776374
0.41164243204468676 0.18600144722117307 -0.04453345994011215
0.5606197906508186 0.24785757729614488 -0.03482668789675358
0.4235237914395924 0.2191890753292114 0.00798054052231123
0.3808713352458284 0.1876742633085513 -0.04151435962911876
0.3951340571902904 0.24995040802183155 0.05743225326426682
0.4742512244243926 0.24701616472304977 0.0939638480667071
0.28266316731298957 0.21788016987656533 -0.04965426244619664
0.37972952735137255 0.21439630555641997 0.0898131739454584
0.37521003540167897 0.22658529321489596 -0.011347344199933218
0.3878056947087032 0.20334696030856492 -0.0004200767406956629
0.3954667094589013 0.23796786606305886 0.03265556044858897
0.4295869149881355 0.21097765031188942 0.04348957409311538
0.4221908847904956 0.23362943495824595 0.07391183496936549
0.4422142184892124 0.2244050201846619 0.07286375412854795
0.5087698725586733 0.19911127449788069 -0.05776514050062076
0.33413210213464595 0.21409740134723165 0.017214827005886946
0.456689322575329 0.2509359732132168 0.08133188991860152
0.41424665769403646 0.2284545908598261 -0.00245377352024434
0.20151527018438742 0.32802905159736895 0.136882505427792
0.32995063540371916 0.2414876885700039 0.07918713993495885
0.40851239630237046 0.2121193077652208 -0.003916344040760578
0.4208963604228728 0.18305910010329285 -0.000147853647419538
0.3457101731009118 0.2324413166877548 0.09911298256216128
0.3983554140449428 0.21437396819064247 0.016295867059014313
0.47066339049465 0.26157900771193 -0.0901744356507379
0.39689328024965675 0.2255815399416008 0.05965401290146133
0.37541718922334155 0.23326837784426857 -0.010398091592449532
0.3974862241731074 0.2260079186782491 0.0008422823772349375
0.916202198113325 -0.06323665803985534 -0.06493871799466433
0.2979501376093765 0.22341591007923967 0.12438870919140754
0.38495444987924543 0.20568341941930157 -0.02490000366657341
0.39786350541299953 0.22614510905739849 -0.0692855041884286
0.46733161108745946 0.2609865976223773 0.04640902656208823
0.27218649959843333 0.31652647265778455 -0.02621222953436586
0.40076473479261665 0.1923133860633044 -0.019710507586779613
0.39886839050386413 0.19727990137832307 0.006060482397060696
0.38708145403245453 0.2646874766884082 0.028591057508663198
0.40992067046374814 0.2341290227349333 0.030788064390549152
0.44520898767157746 0.2483429083621047 0.11273779625017255
0.3098171075185263 0.15712653044124636 -0.06874933803594274
0.42576076268041163 0.17215344853261172 -0.056862383215531054
0.4539402047043808 0.08610515296960841 -0.04650578413034623
0.39079670911677056 0.21131675682931927 0.0031689964844474616
0.3241277727202885 0.18576855830698946 0.00642279624571529
0.39710167002891694 0.16948725125851638 0.028983094904845075
0.34430488839286966 0.20954330397634635 0.07144028855850593
0.40784970277744037 0.17349678239082778 -0.0786517562347342
0.41069555590829054 0.2977228096767135 0.0036403666848627836
0.45448868384987406 0.24312882346882247 0.04578634105232027
0.4337557581563942 0.23637065706662952 -0.027909236823916217
0.40805176828261835 0.25355006022637383 0.08000397310755147
0.4268324431338897 0.27477485910833366 0.016660793085179648
0.42257930254798737 0.21824160481531862 0.00805190774636344
0.4305144536666603 0.22574790873970585 0.04252154139561526
0.427461357395174 0.23156217196964235 0.00815987947275687
0.4331151640510029 0.22014377824275755 -0.03359519066913208
0.3806570518463701 0.2312268624056344 0.04195793698241346
0.3676486977102513 0.12804809954776886 -0.019449412365077023
0.4746827560765894 0.25808902835764513 0.05503829116406678
0.2880398752880211 0.18869142066643008 -0.0286038804704134
0.3964252590828039 0.2279702653561344 0.0423805646016433
0.42180632276814833 0.20916204323717125 -0.006340117249379773
0.4221181028198089 0.22756156046824572 0.08457334624311841
0.5260422049956617 0.32976585901690214 -0.06974693153019018
0.44412042980721367 0.26345992477044433 0.09285202123407998
0.4604604636020184 0.25006824838030184 0.06992092140680484
0.39957135127127685 0.23458945410914112 0.05026205679331497
0.41167586674768586 0.19899706549495022 -0.005164450721281355
0.3437716070377377 0.26117047447870334 0.1383150605237944
0.4157226795515214 0.24565949042477087 0.027708250486199404
0.449523042021994 0.216035031442658 0.04286050104599326
0.3885041108281513 0.22634934959239672 0.03332991882712122
0.28082035072029043 0.20411595821977357 0.13335089441363834
0.32386230376670255 0.25114265756198506 0.07358675502359802
0.4763153343737656 0.23026996441598158 -0.049246662574987
0.3383667710240559 0.1484480590180226 -0.13498591243978808
0.4647813427847609 0.15737455828494262 0.047913481513717215
0.3188201545319771 0.21229071599549343 0.018026519912012873
0.3731504102107408 0.20909099904054074 -0.015672814588256756
0.4754881826371786 0.23976154107012349 -0.006392891841073833
0.4316801446202021 0.21424578123449578 0.004925191501186532
0.3161152376765699 0.20715224789847753 0.10263734600175667
0.4468877298917846 0.2566494724817119 0.025560873892516156
0.44691795879708707 0.28566985428400926 0.15507065258879038
0.38726697329424553 0.21839607090916502 0.03649632476508202
0.3514441984185339 0.17630168026144588 -0.03650370105873435
0.43331496534570135 0.24356478552196847 0.03425937618973762
0.3322567666167089 0.19228490559125078 -0.017453640958706274
0.4039180250496486 0.21984514624399765 0.020754737308891436
0.3790125645949445 0.20858941810769238 -0.0759372489065413
0.4298432988363743 0.2503147563759853 -0.02938488999645017
0.36504304554105715 0.1965573719417648 0.21306229899678897
0.3249018822489802 0.07889977643117163 0.03157180972394258
0.3993706430228485 0.23942974195063016 0.07801173027051789
0.4059484473246897 0.22616810847861757 0.013736172690698822
0.14847790452870413 -1.0890939347172832 0.9723449996348847
0.38596868737849377 0.22219970192097094 0.06845286961100783
0.389927465261394 0.21332412278820811 0.03368735381376098
0.4383156767927119 0.23705102424399627 -0.024061510519345575
0.38915230660225575 0.2790371494993593 -0.008513349593499697
0.4128113147056638 0.22741334875848906 0.01548957632834913
0.4003821684682549 0.32194732585227825 0.14375009823589835
0.4351951188596246 0.23414088717447612 -0.002594880813319378
0.30550290355992615 0.2470091297346073 0.044613334302425756
0.49640756539950814 0.21643794918360015 -0.0018097735823374705
0.30128359273805927 0.00887973584336521 0.007688563546139449
0.49796413524214245 0.1764534994335918 -0.02372370612219754
0.3946809845567145 0.17494793127758612 -0.05362239657395662
0.3840402736783233 0.20137169268141974 -0.007804941094647688
