# .PCD v0.7 - Point Cloud Data file format
VERSION .7
FIELDS x y z
SIZE 4 4 4 
TYPE F F F 
COUNT 1 1 1 
WIDTH 798
HEIGHT 1 
VIEWPOINT 0 0 0 1 0 0 0 
POINTS 798
DATA ascii 
0.4120502652850746 0.16826147332594132 -0.05282723762181263
0.3176674324286637 0.16211744927636573 -0.002112237807779138
0.49637872555778983 0.32112476222492603 0.20482593855081177
0.3980686252886585 0.2137149116613557 -0.010789144815461782
0.37909723845993426 0.23121159464042762 0.09324550522293862
0.3726545314994212 0.19144806735369002 -0.09743001512921978
0.3994343049736244 0.23899479233134002 0.05741607220883793
0.40333459887867207 0.3101731642985044 0.07171010047537152
0.40145268729268935 0.2052833748327174 0.012962162010381917
0.3926318970776208 0.1675240759071528 0.07661911220341722
0.3934875315211741 0.21464452634344866 0.03925792308274367
0.3581377006209294 0.20146365271949662 0.07814482268764777
0.45399104971326665 0.24283861162206222 0.07927974352102751
0.4892898946435764 0.21311391985071282 0.04248537975502131
0.42858305836342936 0.20091116540257303 0.010503591442301285
0.3428027322131726 0.16929653216259055 0.01698856575696084
0.40816676173436406 0.2427016363933916 0.033560544786695345
0.44168776784842123 0.2824225571636987 0.14499166521571283
0.5006316431179698 0.2633735575174967 0.06385839481590949
0.38463484536366366 0.21399318687763014 -0.037220857191741175
0.4864916549633591 0.2090753280695452 -0.016233364640100945
0.4578078300739321 0.2100813409860507 -0.05080966708023027
0.47413541394011816 0.18728379683344087 -0.08255141587599724
0.46198626024694533 0.210975146982463 0.008746770753219835
0.3845735157420904 0.2023895617383289 0.0043628041842112
0.35395636992686264 0.24568738504410703 0.12690375217059113
0.3830014796965031 0.20583535665628006 -0.006282901416795994
0.2987903026701417 0.23320807518615538 0.06819120564252046
0.42631821936055303 0.22029753150522424 0.039333645552574126
0.36743538686120303 0.21071684438237526 -0.0313753367764491
0.3210975387150654 0.2293529603777813 -0.03681093529002055
0.424728005785596 0.2077223705290976 0.01111513412084264
0.4378199069253981 0.1998301040482886 -0.04507623408316874
0.3382638510072695 0.16865539233209859 -0.03473708387576835
0.4169387099914701 0.23583386241074322 0.03503073428784376
0.4448042954066693 0.21461409913980845 0.030976713656883703
0.4053130200264832 0.21892237772127032 -0.0033921631118403184
0.3959809896362003 0.17872334534618517 -0.09089140293914966
0.4254629051241068 0.24078751583763847 -0.00011793219044875514
0.35658363772256507 0.21174789984806353 -0.042471803955493215
0.4420150141222763 0.2324416791264241 -0.0019740870307316527
0.39149715179655686 0.19963763963326642 -0.038468332792575666
0.4118785228791495 0.23792050169808476 0.01146209672566556
0.38873768067520587 0.22432957770740813 0.05180335782173984
0.5518720725875426 0.5849796298391823 0.5346963485896197
0.3504211545810847 0.19717708150275826 0.007557525268822474
0.3760086552343438 0.16566402236597355 -0.25838332353748683
0.3765714748700759 0.19779249294217038 0.027241866320025565
0.43559323486167045 0.14757714215227224 -0.05900432190676952
0.5127623289500036 0.20877657409440076 -0.027276828096518102
0.43326226719541694 0.23605942653632894 0.034490551618688414
0.5098915624891163 0.2685009596847152 0.032175849183900596
0.41089441816838246 0.21124738542287957 0.0006222038882981451
0.41073074693639455 0.1848551612412308 -0.00901829800818632
0.4929060129044842 0.2361508037206761 0.0376603615026454
0.3867467564972884 0.18035634167526382 -0.05489144061175466
0.34578095085782934 0.21269728869553717 0.025343181198934417
0.46888185820370154 0.22550710161658571 -0.110482461405212
0.3782805340515836 0.21290220791885872 0.01980304889167428
0.40034339338325253 0.1770794648687115 0.0075788738768949315
0.4334065222636241 0.2211968523686778 0.004419057118226988
0.43461966938468777 0.23703417492282597 -0.005508538986475742
0.3565346752334051 0.1906264637145938 -0.014033376675797626
0.40443161279929996 0.18896981724270745 -0.03585370360454476
0.8253167561416177 0.38021868771133427 -0.4381840837291122
0.30473046536747006 0.15406492798574334 0.061303476312076555
0.35657297523083287 0.22527048264166183 0.004262773498879824
0.35092148484841346 0.19284716495474186 -0.029084219422216506
0.3714032366716822 0.2189571671540591 0.014673303727505527
0.46099088994500903 0.2156624110041605 0.01817501894220186
0.4505512223042132 0.22393584736676075 -0.05001471615406672
0.42027099129109047 0.22164696746314405 -0.00979153023239121
0.4079895983672941 0.2311665009191728 0.04907967803643487
0.39966821454713397 0.20940743558003305 0.044245920492897994
0.4108259199146005 0.20542669496761334 0.014057081337014665
0.4448838137301294 0.2531877181764344 0.012938739462526883
0.37515942576678185 0.16323957879734508 -0.015080966865696155
0.3862348320954112 0.22520625541183392 0.16584534198210577
0.37819685864826624 0.2137993770592459 0.09729315508096192
0.43287422507799533 0.24198634193498947 -0.024447638162683916
0.4568318886417444 0.2360685862848868 0.023445296801241966
0.4672769138940538 0.20527791978621224 -0.077338353876101
0.47175021711001364 0.23659545649819336 0.11938669209928321
0.32347553925079353 0.19866076343545558 -0.056984188500734945
0.5125409868918638 0.2765470553726175 0.22125775698316374
0.46212337111484203 0.21125303190817135 -0.053716074264229974
0.46836839626705284 0.29395672575660114 0.18118547951260666
0.5070862989547322 0.046484201111923085 -0.0744277046264159
0.4396403170193395 0.2051235374545115 -0.019237738055807085
0.4504717160433245 0.23932847584961792 0.055015069123385274
0.4260691239825718 0.2411486359390267 0.0353439314166053
0.3979133556312888 0.19606325368313549 0.0151488153412771
0.4077597965263635 0.23457886938604133 0.012078405121400237
0.33547115385718485 0.1772704101960869 -0.008288016912644025
0.37894754246444506 0.2653185535892817 -0.01855825320274107
0.4012776460854326 0.20360501672627151 0.0483041404499005
0.38142621120663023 0.20358856201382025 0.06204729896174399
0.40742721915299285 0.2102960085628638 0.0029197291961793326
0.3898564751304008 0.17063285733044609 -0.11158427968658202
0.39411927560776405 0.24693114330966637 0.07167224265435834
0.41087454875804497 0.18908919574144534 -0.08569063715560787
0.36667050556303593 0.23236614861485805 -0.02340697950111803
0.37599285186834663 0.17767926447943694 -0.024414739779686556
0.381756790297743 0.23853561712722637 0.04153335803680136
-0.3489865309779532 0.5842632071500589 -0.35975623043327687
0.3155475019773917 0.18130055831730374 -0.11110901752124391
0.3371686814142123 0.17013447519502733 -0.032051079423297324
0.38338585352197185 0.2182026933958241 0.02224970909318813
0.5212964490199283 0.07928712498075186 0.08514412314804076
0.34055455006821944 0.17137109070904444 0.040160813844153154
0.4308264679762033 0.15817219358652324 -0.010217829791884014
0.314821028853828 0.15465089934316723 -0.015818345838084724
0.39901135999848236 0.2466401233110389 -0.021835826518042722
0.48521090958388413 0.23354096441403271 -0.014743183791466663
0.40247712572612215 0.1942598276251033 0.009298895532680262
0.38110811940634903 0.2181635320166464 0.0014040390545346781
0.3768849008775703 0.1883242016052975 -0.012325750228768584
0.4220747580215942 0.2131138142928961 0.048843598398661925
0.2362056394048011 0.2202325624089383 0.19160691801744179
0.4389679893745324 0.23761210621270834 0.05643368873654708
0.4010102203651513 0.19377992940880517 0.08224448500112658
0.41510194507125675 0.23202644800457506 0.06505131223966032
0.4034678632210529 0.25103841556736484 -0.014040703024221557
0.39808852787847115 0.2315531264144397 0.026394566757076632
0.5880071378724523 0.185094906508823 -0.13580611099952478
0.36474650742651704 0.2252941744771988 0.0948297652912089
0.422329565789866 0.2204648266560838 0.008268006445064202
0.4060291592841736 0.21542780482694468 -0.0360359633848617
0.3624422722695897 0.2130172047464498 -0.033144753573211005
0.37761745177918726 0.24387769902486411 -0.012413407982691638
0.4121416802748854 0.2949691322565684 0.18667819308141986
0.4177274385960885 0.22992588126977864 0.073332976671864
0.4142933795825172 0.22058282102034354 0.0007581850895803655
0.4964577382239952 0.17535709404057798 -0.022444413701578014
0.49870430130259535 0.1824725909252436 -0.05825649143456246
0.5142600944897424 0.290276205778639 0.10107693187867994
0.40384939394508024 0.23250297954831467 0.003774237724599061
0.40440534028032005 0.18400601983785236 -0.0586742434823293
0.4621437876224661 0.16691713306653355 0.08931662391185569
0.36612920864170917 0.19991648208082324 -0.057608449526810546
0.3699030260360132 0.18752990912253154 -0.028736556439568517
0.3676813516802895 0.21054093519883565 0.00016849601534829617
0.419971347841269 0.31049754480284264 0.15717695042098967
0.4033644353779948 0.3308466146172293 -0.4069557611280459
0.41217675581688695 0.1306860171484061 -0.01810242125142736
0.3853802899345453 0.21264256986600572 0.04071653751594795
0.41818050080668456 0.16233269431910458 -0.08101499565842118
0.4633926291930379 0.2073163709751782 -0.06900326055740891
0.39277715193679796 0.21902236023240107 0.01379027144028555
0.421091306330311 0.20721604597089538 -0.021883369439990474
0.33300912895934687 0.19969641600773969 -0.0336237468596039
0.45478850385501346 0.11353023811309981 -0.04179170800325949
0.3861623721091689 0.22733438096628333 -0.032041595509468834
0.06931294967145618 0.12300078009073445 0.24357997244595708
0.41729016828199406 0.19498413692789995 -0.02478927674583531
0.39124841866299676 0.22534873135670352 0.06313779678292519
-0.3585506815620789 -0.30249058465111034 0.2666109395810281
0.3941656213629017 0.23649631910205926 0.04496402722574544
0.4000424913243279 0.14920427661127178 -0.004613099903394868
0.5192392737917544 0.19487340642689333 -0.059116786410925215
0.37743895296694063 0.22361526112229058 0.03030326343782974
0.391961740302321 0.23762495393930294 -0.04743311138017248
0.3749167362452823 0.19936858219114129 -0.13971994568467494
0.41415355016484057 0.2264962211622077 -0.0036806218570433202
0.4625699034859849 0.08978836029388049 -0.14059271120584071
0.3312113724242778 0.22739829044692783 0.12734175587229402
0.4472172466296911 0.2034947991063234 -0.032321622625147484
0.24495342457480263 0.30996282415264886 -0.12139375580804312
0.3475803788052474 0.21116928122376066 0.014763310853197709
0.359152110905967 0.17621968995609905 -0.036499691181575145
0.5160104387859121 0.2435960644062618 0.10585953652044111
0.45041667598613344 0.15439530601099705 0.1080245595942273
0.4760819716300517 0.20599672698600102 0.03665686182917227
0.44692499688666487 0.20437657557957323 -0.058436272479724494
0.4118454101844691 0.22806326715451064 -0.009855249539555189
0.4586941253068062 0.15560821620297816 -0.06953864614413874
0.36902778870191355 0.24420778456894254 0.045348722812093456
0.4221767653968982 0.2009348790118679 -0.04236342234005974
0.35717346947494377 0.19948189054260013 -0.016823027167660598
0.4267440103050433 0.21964461177606154 -0.031645331080142114
0.46163586401740986 0.19049313096007836 0.03336735634628951
0.40853302663801117 0.22892544617769772 0.030357278501611518
0.3913241811193586 0.20702265553549637 0.003388254685262382
0.34123067197623413 0.1943341417580342 -0.011796491146611743
0.33224652777977326 0.15810568534028846 -0.03803383597593779
0.3519506353883344 0.19911144125205738 0.016696340477508897
0.3902137400836523 0.1992245143028839 -0.0343045977619596
0.4015876570027075 0.22167809934116178 0.0025798420149953927
0.4006735667237109 0.2248287808717464 -0.027985581108652013
0.37418179997303014 0.21465304972203114 0.04523025758419408
0.48214431643580724 0.2290643109341488 0.11648511674054873
0.5044091201139906 0.2722380461118519 0.04609382604031964
0.413166948754764 0.21309616892607153 0.05643302119614191
0.29462876339499644 0.1569143828074573 -0.05831352036500448
0.4733313242505801 0.25169521319963906 0.0004368111657981899
0.45346736876213356 0.2633521322483432 0.11230818536067488
0.37299485380472674 0.22671547646220347 -0.013163043923100304
0.4471764743972244 0.2369851521371089 0.005922616762688904
0.3582769791078988 0.32014363675375535 0.18439067302520584
0.4394861689149394 0.19677906277061652 -0.025955353891234267
0.4492246461901459 0.23265637548250595 -0.03650979791555642
0.41041540744333815 0.41035171736882603 0.09157934500251486
0.471558385237131 0.21564534131057655 0.06509589632867119
0.39363037970547055 0.21461844305306954 -0.0070774464455922725
0.39429905766019147 0.2318508969551374 0.04991803138781847
0.4386621134490696 0.2411602441453624 -0.10687978541670873
0.55761502291233 0.20382229148842157 -0.07548799619850399
0.40255160902461284 0.19789169201828827 -0.035296366772513466
0.3842691090306829 0.24314981670224256 0.07366586691205157
0.4166063461393321 0.34443963396880406 0.006669258718957849
0.4286010678607397 0.26784257663840094 0.06904375938952967
0.5662488139187047 0.24950449806267727 0.0032352392251340234
0.3813937548439128 0.22091698356132383 0.049950980852059956
0.7885514911710061 0.05011433312779445 0.11717133445768013
0.3984087202277351 0.2041236534365254 0.011726667160615989
0.4116296676464657 0.23744447554332737 0.017979438453807006
0.4909914293825466 0.2581617839686885 0.046791282558658054
0.41697763521824527 0.23392491041884966 0.043341875300228594
0.4727455469538455 0.20939014436268621 0.01584141430737418
0.4512418358637831 0.34371840797774666 0.2065661311446263
0.39652019407563444 0.1950942907593003 -0.04289319620757226
0.3984277072493114 0.21326020160893222 -0.016336302467124142
0.41590635515304086 0.2345776762982439 0.08110545271584613
0.40253492333944507 0.1819406665366472 -0.01552870113623328
0.4015643005761831 0.19045814779100567 -0.05524212205025947
0.3939152828699548 0.23194165951196055 0.0974025556594853
0.3491022329244515 0.15780711534864622 0.013209977162688347
0.4200891299403935 0.21786109679374022 0.01037407246553812
0.4033258002421576 0.23140895016740615 -0.0036466917469795135
0.34460941660792344 0.25491379461735164 0.05160568901708018
0.2568310936561744 0.1903943706481641 0.041689185526621486
0.46874396080545466 0.24383132597995427 0.05393121012599522
0.4838386197395721 0.19671137404390038 -0.047107385466688356
0.35700599410532163 0.27692426411880433 -0.013304666323563197
0.37427472162593745 0.17001892626760196 -0.05997471947368638
0.3886373952068993 0.27793064170565174 0.09355466617319053
0.4276913771762736 0.21355990896309152 -0.002456644796424712
0.39248797546333947 0.21992721354121159 0.044354534073477225
0.46791622988898496 0.21820729493117597 -0.05674366755374649
0.395581845263294 0.23740310214392935 0.0306417271424948
0.395864355517233 0.23338493986423714 -0.035104259078124755
0.4459843110201973 0.2423043168417678 0.007886320767312327
0.4484809338603668 0.24173583764269324 -0.0309732563741818
0.3296392858747197 0.19128585785861674 0.011670460868430155
0.4347548727645574 0.21005392308715898 -0.12463820615255372
0.3901761102102057 0.20209554471375668 0.02784500966093617
-0.24300731293709532 -0.5762856064666266 -0.02375609489757835
0.4394367491604356 0.21606114195220982 -0.014711491848075298
0.5736034172574023 0.18761565995501428 0.012175174823482848
-0.3310439349206149 0.4431548552003335 0.09107181929726949
0.3253379050329954 0.22668608056679318 -0.015358912254129109
0.2907264751808043 0.22381497376568404 0.06777471700456772
0.3799547897064315 0.17767092387620664 -0.0427430101297972
0.3721261570232457 0.15780360140641392 -0.08829617771345966
0.3972878759186784 0.18005224009937137 -0.04509405951360179
0.39929343028788367 0.20017425591177584 -0.049925924006743116
0.3567425576552239 0.23752926082829617 0.15417962497497228
0.4305194703280222 0.22233655748871683 0.012041552838638836
0.5288709964229952 0.22889359587985325 -0.01698205123564378
0.4002742120196672 0.2216294827645271 -0.01587723258370488
0.32083979830682097 0.16848350415349955 0.009436270364190591
0.4160793513092784 0.24739314772470777 0.06495626088158701
0.42854277777475147 0.2250202732308395 -0.0075299140688116495
0.3237389722632429 0.20501625218957997 0.08013523060778027
0.39351830432944723 0.21004660823797394 -0.020188102087715265
0.37663458242525394 0.16092850957021199 -0.04723605558204724
0.4127913210894434 0.21079459434830028 -0.004595762657203295
0.4307693226851086 0.2503820358900555 0.0962590279149822
0.43485038852131197 0.21214123881995306 -0.004480710701102453
0.45801624268716523 0.2419649958736585 -0.004805558635979423
0.5323099881219377 0.19045693314797063 -0.06534436271329014
0.3352724291906668 0.33176136713809967 0.02043579504106674
0.4739480525757642 0.22850458076177915 0.04451264144427114
0.25423904159498534 0.11474450883650888 -0.3865069193434181
0.3884371709592642 0.22032315459088636 0.03135167338538736
0.46563396498896736 0.21907517047225156 -0.011775458808287453
0.42279972960446344 0.18598449056494815 -0.05775269968705743
0.4372022379153151 0.20887781829195262 -0.049037894017331496
0.3892181631089642 0.22760641431266038 0.03194208891937933
0.4144703308176929 0.18592467239433574 -0.07342835130222625
0.3752134616302527 0.191200647830442 -0.045059887025757916
0.3738084916407729 0.2052789515188067 0.013543453153943119
0.4608774151567161 0.22422843014076932 -0.01544650622639665
0.40217597818465833 0.37461193139243676 0.09213178762938412
0.7382405583383758 0.18736362490753322 0.18320699700230136
0.45367885170767863 0.20734354989590997 -0.05546472935515112
0.2950623566013917 0.17058063369253773 -0.07132400252305615
0.360894185341607 0.24254864188696956 0.11008914821624671
0.42838324116215176 0.20775968640994336 -0.08177700486635331
0.3817726620337112 0.17785619071253223 -0.018140836293326856
0.4342735546512131 0.23750623533628357 0.11117811978496661
0.3924394338998951 0.22601554013542113 0.01322182970611152
0.4390585685828512 0.19910046151710503 -0.02080206600712131
0.45550779320933543 0.23590726837826992 -0.05704373223338166
0.4124540848600162 0.2159489605356555 0.025081927706253282
0.47478594701776444 0.23767394965383914 -0.12001078208187721
0.41613802981855486 0.22136580815273987 0.013982636734795051
0.3862429495414972 0.2490860511799582 -0.002388477809944334
0.43600983567151275 0.22066287898900327 0.023951533415612403
0.45606784964186886 0.17407850160188332 -0.01581391832539225
0.3214196574539727 0.18763163549044748 -0.03419546257470074
0.4256816116216555 0.2371424814402019 0.030124904763908944
0.42956790315435 0.20837053922093673 -0.010317483119180793
0.42566218273633183 0.1625142718481527 -0.08475779908319225
0.4332851054969922 0.2722395742642334 0.01261922680825478
0.4062623883408776 0.2157773503988949 -0.0021426688685863837
0.3805052852044639 0.15063928583481356 -0.0831503159737963
0.4122636478082029 0.2328610497643524 0.04544141129451873
0.37423643797771433 0.20593813720549292 -0.018280449215012595
0.43060177332822036 0.1956960171371236 -0.02830153893425802
0.39584435755472214 0.22366817061497102 0.04888986710537324
0.38165388996941374 0.23726191148256248 0.04031573267312183
0.5032318542847918 0.14959775547802678 -0.19832812377573816
0.3495862568215671 0.20243832283901497 -0.03460930596337164
0.4201773450769224 0.19348300137676233 0.012463652200025876
0.43684972862003235 0.19263920964198178 -0.04304458786731402
0.5239938020523738 0.18338145095765412 -0.05557077644698438
0.3786720688074894 0.20414684004572337 -0.06157608465969133
0.420463167024991 0.20191497421328108 0.06116062772446185
0.3594352798480145 0.1929590566316648 -0.06807781943807356
0.4036392145795844 0.20766905792999069 -0.0026619992551104588
0.39997924619997605 0.2849586228424812 0.08636479551788057
0.48668142861021124 0.190344523815682 -0.027497464350005885
0.44154538770308704 0.1968370987252399 -0.014982078871298654
0.4649970240338632 0.2258329406189148 0.03242810272936936
0.38077307482073763 0.20782746672651342 0.016274947594041578
0.46746378159798496 0.2326941502186628 -0.09527506607804526
0.3445426534520095 0.22182622100017113 0.012301192619588619
0.3568073841350099 0.19674012744204106 -0.029650466588861946
0.38528340231846414 0.18250487010477912 -0.0008145479706911374
0.4014608550701837 0.26808811132855226 0.055720952759102715
0.37014082980265073 0.21559992235390268 0.005009166341238824
0.41323093623630314 0.19400523946112003 -0.02005013172893655
0.4168795131168679 0.2367145778101758 0.024855082328116396
0.3589356004499251 0.3915577835095121 0.17912808400379276
0.4199953258472533 0.24487725774585556 0.04683455186366814
0.6688968262684369 0.11262879423932759 -0.32207965925631754
0.29993079007590495 0.19641642747137666 0.024161240153759422
0.4077483844656058 0.21465870034469958 -0.07145332153044137
0.35535343356373517 0.18626703445076487 0.09865826958733237
0.37489519244194014 0.23608539994023658 0.016190750538555676
0.45036402053540314 0.21964582205319516 0.014504425695150758
0.3591484988865261 0.2146663274176035 0.06972227472476789
0.37682076757658933 0.22044779190588315 -0.00281886236120954
0.47962329448392893 0.239460871959011 -0.10222611951004978
0.44919440449108095 0.22756087844288686 -0.021619049384000277
0.41682828360131907 0.21957672261339667 0.042939208936061846
0.5095945510323361 0.2646641678749688 0.08969294508710846
0.45169979020630535 0.271483000757911 0.08956406885934598
0.4951615460387444 0.23345171532099585 0.029664880552587647
0.3475128933385463 0.2868061973052818 0.05050389489926488
0.4116521565005229 0.25412944272670757 0.019614109122500167
0.3941805362319144 0.2189974782847628 0.03494675804510905
0.44808419295254964 0.32928035661331023 0.05624971190083272
0.4653770420067076 0.19528090629120243 -0.03403277114568937
0.35381581159583675 0.21281632415974627 -0.025351129075858125
0.39630377263446803 0.2896734903056313 0.06952237429462116
0.37012947556732456 0.13983488653602194 0.024816675210672656
0.3478040711036954 0.18496866246323407 0.012234773191778459
0.3946101905000887 0.1819725888697974 -0.09826162205501987
0.4735884166572646 0.23973539673625055 -0.05527838755168091
0.4188051342617598 0.21477936716442514 -0.006851000652773109
0.3477757750447097 0.17592542941865474 0.0981692946964614
0.4730972941928542 0.1869183343927432 -0.014300383759078272
0.28251677905723227 0.2875200780827356 0.15153567268109214
0.441804421327916 0.1627711695594769 -0.020568011172628076
0.34972953403493534 0.19345823658878203 0.00740624820932112
0.49304553153311304 0.24218956967125393 0.017329839952225257
0.4017423780165217 0.25131682789924525 -0.01358383162624932
1.0920374984058583 0.0036000545111676274 0.2502401015534872
0.41112770564012635 0.1923950698270005 -0.04471113243731395
0.3184309484619803 0.192698900769102 -0.08388722748811972
0.40912978236084996 0.2609811175522907 -0.0036771222681153404
0.40369830159797004 0.21643560687414265 0.014463519372242217
0.41869007583891005 0.22642322308763596 0.0038134653639758653
0.3965660207176853 0.14169917394708875 -0.005639282687610603
0.4370268072136696 0.24284143865699548 0.03729428172825067
0.37087104334324295 0.18851332198079263 -0.016755882387741394
0.3959310319421405 0.23355685977162466 0.08168716930029518
0.4513088040118305 0.23992597772868862 0.07570863392786009
0.30117553973173017 0.17526561092745396 -0.014660666923361987
0.42411661268863554 0.21009972083061257 0.0206701339536437
0.43841565424160933 0.2111012464504256 -0.04661281856130017
0.4097659452980196 0.20607728721310536 0.010664000584370115
0.15968345960169472 0.5981921568197492 -0.4841198857861855
0.23009733440805746 0.2468662215779318 -0.1065978069475193
0.4075669371765258 0.18170923130513472 0.03618187495291636
0.40731460998102875 0.22104518605587486 -0.013982375042473905
0.36993142760444186 0.18151083668323054 -0.04827630177933884
0.4947033674743011 0.24296337436533122 0.03929806677479064
0.4309282329926418 0.1942678424263562 -0.06387036201505225
0.6431807270286924 0.22348251033164956 -0.34832351691810004
0.45171715806917234 0.2794881980002373 0.06294831468241568
0.39388635477968137 0.20980787895540232 0.04905713909607812
0.3979177538726759 0.19948723939114643 -0.02055366587578078
0.4903363920336119 0.23827132367372883 0.05325530842745252
0.42499617191298 0.2121857659088846 -0.013039111184767194
0.47919474161750486 0.28915712974037433 0.15871540404108941
0.4369053411566881 0.28003104793239686 0.07413419281030542
0.35293477115884286 0.25694863909110666 0.08511845230322024
0.4834574130382947 0.20414192616053128 -0.01667867817587876
0.4372320121977964 0.2547152373351196 0.01960592569457731
0.43787878842329064 0.22626753263068622 0.12317403624005863
0.3917727233303907 0.20242473838641217 -0.008147345758331426
0.35269388175660765 0.2317297258887976 0.05998505027059764
0.37479895254141127 0.10996883646289746 -0.05408796397786375
0.4707782514421126 0.2863810488661329 0.015267335562043627
0.4087503466406588 0.21910741074572115 0.015375005831728572
0.4095191592733869 0.2301829728682776 0.07214647392808615
0.4400975074600808 0.2160472252761565 0.016182761187309325
0.4006592710142769 0.2510297446741845 0.084502429629012
0.38323110274455985 0.19056965495408917 -0.03739142380103999
0.4132934299019979 0.22882294233500033 0.02227409133026015
0.3689226603586917 0.2469415979437315 0.05834238445038409
0.49408959102694894 0.2495904168587515 -0.0027316768086080856
0.3497186993067771 0.19309260836358533 0.06912943720075759
0.4419959548342405 0.24828579009161444 0.06174333790212927
0.3669877391403702 0.23646723091984256 -0.024006172121076474
0.4054627859246267 0.1842499424590187 -0.017912390021663782
0.40744868097635845 0.22384194018070502 0.14098163107675532
0.3848370453125227 0.1806488184446664 -0.05412970152008256
0.47025258054397057 0.22735592554749928 0.04324303477258695
0.415993391947012 0.2264219433516388 0.046234668019394576
0.46831586207352416 0.27444892067344995 0.07302599465199933
0.4352252178773739 0.21439383762461262 -0.017316383342773634
0.3848334549611252 0.19565762360933547 -0.03501716774809438
0.28248600761261855 0.08456878310218485 -0.04912764333057851
0.43098149211539294 0.22726496099659244 0.027918541006954456
0.3643852985280205 0.22117582109788714 0.03927234688738679
0.406427897903896 0.20450603363826758 -0.009590305049613335
0.3576784116285694 0.1487601512711194 -0.10026574809504041
0.41158605909771495 0.2090308688643745 -0.04013590391232924
0.38238893037996036 0.2011625080972408 -0.022216576665314847
0.29135461290441356 0.19380675820877968 -0.005310513294375596
0.4320944533053819 0.21160691924586672 0.10073400963102586
0.4207242535395892 0.2527494880901031 0.027254785377650137
0.402817084380672 0.2316018064523746 0.030570928408735654
0.47439527205884247 0.2115165180733527 -0.01073282671696063
0.42472567613538104 0.20998716829410569 -0.04646544841830291
0.4770243686029403 0.22512920434567718 -0.036266845551182314
0.4312978152441076 0.24620871486072815 0.006670965249341521
0.41879659731141317 0.2264875218691742 -0.018556939070435874
0.37391113822765476 0.19337689169043415 -0.02259766295873078
0.48956738244946507 0.25174277972722336 -0.013872512902864287
0.4367754816187528 0.23206667206517295 0.01765253791451471
0.6325155867060062 0.2898495715725602 -0.31777037580583567
0.37398058088348307 0.18195249583932593 0.09436775042473755
0.45610259262983277 0.24768689907720898 0.03484343292299741
0.3848412872261804 0.23220305376436556 0.038869622881009036
0.4656201736570438 0.20333513528160552 -0.006863789492868477
0.48640284888591623 0.35399358474862197 0.03385614947524118
0.3712175764230352 0.20329303132531606 -0.06777672218278497
0.38639543052067893 0.20411188882629006 -0.010730434454771398
0.5098251548880341 0.2436031300834003 0.018416239404785983
0.43486295587212 0.2256208578317711 0.07999403514625669
0.4053360086299165 0.2219028231369009 -0.038357496189547646
0.42038461113479286 0.26625458545635183 0.08902948334622351
0.3767983135048496 0.1719092327103624 -0.048900410600623445
0.40753014498068296 0.2080132221098836 0.031822635715855085
0.2694820975502381 0.2023515192327352 0.10895886328032134
0.4379549100378597 0.2030352270890461 -0.05330730850954524
0.44226688556052807 0.25914048855517535 -0.04981945980534874
0.4609856124030216 0.2106866264822429 -0.017874940841480225
0.5210906388289942 0.2745506746042281 0.11019160741352607
0.37354664728255216 0.21845629358114138 0.0689140348623738
0.4387384569997863 0.17775697675031665 -0.1320897016568665
0.34254988591422375 0.18378019525488298 -0.057397773905890404
0.36098459042955255 0.2728367299561967 0.05202246918182141
0.383429441305978 0.7769198504171584 0.9984708407271796
0.3852325413114954 0.17760804864506952 -0.038937118674709836
0.38048636738329833 0.21998043333590545 0.01677978263478508
1.1855832158179709 -0.748747900544771 0.3593131703314043
0.500013413375541 0.25386108290177845 0.007617521030510943
0.34298101732878195 0.22228602486443094 -0.014943078001024901
0.40913961972879065 0.2338638292003452 0.03185547397330879
0.4785144790232607 0.27683271690085576 0.029177952125749584
0.43097578659842384 0.1992418235036979 0.0024902771713470884
0.4042075905602047 0.2240320499405044 -0.04222120320558531
0.3925423230212459 0.20819948230604268 -0.02154029526047907
0.3598399127509708 0.1837446726253802 -0.04332627517931087
0.43965594554443044 0.2443986251940231 0.033341336863358606
0.43700227897519994 0.23648726731558156 -0.1143277691393223
0.3429758721674574 0.15073200901022688 -0.08644211590657847
0.3951351373988814 0.24122576639126692 0.10111816757546421
0.4349507761910445 0.21678014880362184 -0.0761673571974768
0.33265592443878234 0.17356999731985923 0.012219661003086912
0.3469273754357687 0.21413363212269587 -0.083074609924779
0.4134229440988548 0.22488691035388797 -0.0012701758446098665
0.4159160633792567 0.23531189411295372 0.0497938162388607
0.308050171833429 0.21606361632925086 -0.03048491155254851
0.34034962024682613 0.21218386509099219 -0.07660794262989157
0.45235417515084464 0.25055664745912054 0.027542023972443985
0.420978320241602 0.22454266066777961 0.001055157699653364
0.37406513732157975 0.19757603505991028 -0.035187015325533366
0.36864612029651767 0.21506077721170413 -0.017668188844410793
0.4178854018071405 0.2114176137969821 0.009490508550726418
0.42389465137463844 0.13816372711740144 -0.12230931540170786
0.423539208434903 0.5051815552226628 -0.13580332676420426
0.3940626578306592 0.23848801681293708 0.09337970250606986
0.4074818266726794 0.21385785810213065 0.013870996890545939
0.4480144529245109 0.2362238357144122 0.0747178760625502
0.7350354451894674 -0.15534058672467665 -0.11861689025802491
0.36166381382544444 0.23526107434705068 0.06116868275196907
0.5011064068202273 0.2618394161338813 0.08028332227824819
0.40514266103946284 0.21467186616855827 0.0316314634537207
0.4271438097261182 0.23021689898666864 0.005489265028742807
0.3745425632112642 0.2540873310518066 0.01989251408895143
0.4366996054734784 0.23564108795783056 0.009246082107807752
0.4109425772586235 0.19981546404191874 0.003667718220498273
0.4385302638838482 0.25256112164932176 -0.013468603324398032
0.46314211437061203 0.17752333841140455 -0.21112393566409082
0.4449939130319933 0.20211755711842727 -0.050789325618112
0.4136705619243628 0.20006028672878529 -0.03218482777563736
0.26567486919410044 0.14386317238950141 -0.15480530617253407
0.4819526592239072 0.30065437822878494 -0.010493196023872997
0.4179812170342103 0.22415846688929264 0.019359036880558733
0.4795839992613651 0.20333590473026675 -0.10156416008550195
0.4561321420356137 0.2304794280301934 0.006195427091711281
0.3570433869644205 0.2160835423278371 -0.012667071554972154
0.35326868274736967 0.19219556906155333 -0.019219524842384317
0.4538722092820535 0.25382164201374735 0.00021379816038802346
0.9456293618490292 -0.10144802873524839 0.1217204287093665
0.34272610062986075 0.22160201616722475 0.08159545613075636
0.3595947432172011 0.2725347119128969 0.10131655667839823
0.4260558663247025 0.24863383955425888 0.04884373781645479
0.4487646108647425 0.24317154644342054 0.025098994006071962
0.4050762522522433 0.23470131440615205 0.005376398602109589
0.5262233949495112 0.2973927093939892 -0.23302923614426163
0.4171575572282791 0.26906702164181695 -0.006568392240993148
0.4760858099801055 0.17934420124873895 0.07780297784447043
0.42156567894366503 0.17529720942202687 -0.018148803574291605
0.4279182569333386 0.2536355451886152 -0.005382944764647846
0.40088415609142203 0.2119391548377365 -0.009691777647418576
0.39863414802061925 0.21896537783990766 -0.01444016352088795
0.419012689862285 0.2114981570584007 -0.05644473215454582
0.45539117856171174 0.11333034240260531 -0.019885996263042216
0.4370631796636957 0.16950480348094743 -0.06830538067195846
0.39098903794135254 0.11132191581540951 0.012126030989378478
0.38670972589413566 0.22614975330512266 0.004785235799616316
0.3817175238201571 0.18453233716647333 -0.08406505181625334
0.45210593472380367 0.23145922562508758 -0.08686986751172299
0.4758318046373091 0.22524411871241057 0.09718637766700056
0.361558498988245 0.4024396045773244 0.18889335633828352
0.3767509238182214 0.2609725381510515 0.11992742415120006
0.4056437540073432 0.2877986820602416 0.11048567967617373
0.3336453147345253 0.2316645558090329 0.015346561072433929
0.3822203016599701 0.22494742883972663 0.003624446754457722
0.3949570554683248 0.29614915121214835 0.23058628367446943
0.4301777598743115 0.22552573087163807 0.025560054643563035
0.3629663375153598 0.23155733302992587 0.014678736761965183
0.40718345675207956 0.18879496019312114 -0.049062202973630065
0.4104308102486982 0.24412216200063597 0.04461368441336333
0.3615123016880091 0.21934867086011423 -0.0035754689423299624
0.36093627514939897 0.18790669492398138 -0.027910179409758484
0.4231557030362296 0.22396480335029878 -0.008149804204478528
0.41634490894551845 0.27461681172857766 0.08425450100770604
1.4355512461262805 -1.0280207170869744 0.2659287779905384
0.3836564897702175 0.23783131936841073 -0.029341520677206745
0.47428351331168983 0.20814821624932733 0.15201269321374866
0.4156706749046748 0.20339659909032548 -0.0564223019459007
0.34255041982930834 0.16201409509730524 0.0693063101273026
0.4754706618125226 0.2653689556416339 0.08371053766227021
0.380476324237236 0.2277814728795704 0.00688854792457505
0.41554430072818604 0.19030801891574356 -0.04589579977988478
0.4452111513433721 0.24572739912642305 0.041354415271911193
0.38817265786809685 0.22342761482522633 0.0164851202050329
0.42012197799903106 0.24557890955617268 0.0721338424758926
0.44251931701801084 0.23106582924903307 -0.052501705048300096
0.43162144521980395 0.19545607615286542 0.042518240819248376
0.417191883294862 0.22141353163533495 0.014650255218924713
0.4071705361680529 0.2065093350239806 0.002639298812340485
0.4575471742155912 0.2937296132327418 0.1301638523067652
0.41662822422772194 0.21602838770924393 -0.11541874769001481
0.3719124679430763 0.1797431482738432 -0.06686255501747951
0.540980775724961 0.22989498912571094 -0.002120274705191605
0.6915796703359405 0.38181384635277027 -0.30333443395248594
0.3519211652237999 0.17296956661444085 -0.12253466068312946
0.37996123003520665 0.18301588684701642 -0.02963330304132228
0.4185410103503244 0.20550411995634477 -0.032313293044182956
0.4207929216516533 0.20771124542903863 -0.02385760739446141
0.3874654740192227 0.21080277563096672 0.029476218765239537
0.3902690886976785 0.26483118137090855 0.1254808845453681
0.3794795258788497 0.193153816128941 -0.00972313792878765
0.3960863649682551 0.2145032502526476 -0.01792500556155119
0.5058615840904679 0.20440638697903069 -0.059880286511969416
0.46552386374344223 0.23713900534886534 0.029271869333527434
0.26280370401232744 0.16558956627338262 -0.04168625880429033
0.4270734580711917 0.3723131046142498 0.08020140625630745
0.3675267439010952 0.206226515559905 0.02489616366131031
0.46323359404644293 -0.012378585004967135 -0.3468420845842104
0.42384618886509884 0.22143154284498223 -0.013424655289313137
0.3969530705052762 0.24369998842681184 0.06115164322244482
0.34015576946180204 0.19125033161449778 -0.03924183897289879
0.36843771596483066 0.26206576500561596 0.0686636613914402
0.3831690135025241 0.2004576647454428 -0.030726480937872225
0.42709726857890473 0.23702592004335088 0.021990682634225323
0.436294609585957 0.2749096138313689 -0.017642007336121424
0.41683853137928395 0.2021684662265386 -0.03309193790474296
0.3928999101080848 0.21590092932866867 -0.03256603618387999
0.4367057413734301 0.208116667826431 0.005372602752927946
0.3235200056715257 0.2191727314290688 -0.0055714401142381575
0.43905681970161936 0.20258348300981766 0.03568428675202995
0.37916252813576534 0.1762280784263055 0.032582160051291
0.4889637880168465 0.18067699919924962 -0.030809145179858888
0.40088069296376716 0.20155699865000543 0.0026973702608756867
0.4202668221811905 0.22082468197477567 0.013592263949732342
0.41177844134682573 0.21177992054556682 0.0021797777967549337
0.5069215246798819 0.21573390258916447 -0.023231624309687504
0.3635573720737426 0.20961414727256056 0.028990744374567612
0.43846335240799306 0.2337647683812918 0.02834733298362835
0.479761549095457 0.2256563633742843 -0.004003043241866067
0.43520423749654924 0.21236716107054576 0.01291633974352635
0.33268944244827026 0.16030138465839627 0.01298601789962106
0.4772429800512725 0.23399724691233814 -0.052843136442561445
0.41549416408669515 0.20450441089133164 -0.03957250553293079
0.4068373410978836 0.22808298175093 0.03895440386622795
0.4451884149876264 0.22413941819210947 -0.013190154646537167
0.40331103332781026 0.21280092614347268 -0.019795027947154153
0.40438605343175027 0.2061595277460242 0.03784692846333826
0.4606052835450498 0.188023699279654 -0.12891665600643876
0.4011862439548679 0.2200015870926535 0.03701031627343809
-0.228714239386818 0.5475743250927962 -0.1301666899461793
0.4093951888016676 0.23176129280746238 -0.022433290358947033
0.42517794749852555 0.21235412756539063 -0.0094224674665071
0.36402017319989 0.19653190627334993 0.007522021581777949
0.44369920994608947 0.19461795829855077 -0.029648217904366447
0.4692607466426466 0.2573094664367943 -0.021992330914912372
0.303924810861389 0.26514800328156696 0.059122042870669134
0.41085844127185567 0.2149712227003846 0.04024386375613176
0.2811396145274898 0.34019713032913046 0.137320961431314
0.42694743780062083 0.22885456457990472 0.03098093836652538
0.4610587568579234 0.3240600204652253 0.17972097802442022
0.4897832361034773 0.1269666298050538 0.07611676327437067
0.4097776132497444 0.21049528354635072 0.011256666517169833
0.38862298133341255 0.13165486071616783 0.02166572977979797
0.4122846804399103 0.21041082886874563 -0.06467473392115153
0.42797280523558356 0.22552655610419947 0.037571064650791186
0.3447879811062933 0.17597404141974948 -0.03680530284229633
0.3431438081658058 0.17362756023626957 -0.059383229547535166
0.35384880861252554 0.14087243524272708 -0.12388979554853563
0.3552740572910693 0.19993355155366999 0.03450965574437248
0.35811771397473535 0.1784384384536679 0.03611494389426184
0.35333183831312454 0.13289414310197856 0.1140430128017158
0.5503959256096493 0.19040952185524418 0.013703911223316823
0.42156259750348113 0.23389684304379443 -0.0006605044394092374
0.4597699444203158 0.19708744414580792 -0.02399020713787081
0.3988885415075316 0.2875216936919003 0.12718297831384007
0.3791232799667057 0.19757266448101518 -0.08839706968360872
0.4302799959180419 0.22104678414528678 0.012956208258145807
0.4411972609011059 0.26063878870309054 0.061345999449827104
0.41285415135473613 0.15809312244701346 -0.046693228921014907
0.4359789193194814 0.20350634900154319 -0.025844637809143478
0.35981653400793334 0.16854206030612318 0.008340731181490924
0.4935872292824399 0.251746479694404 0.04697191178217963
1.5395426353033201 2.7571193768781797 0.40705286750906566
0.4576824332237095 0.2036417903573522 0.019760017201349456
0.4492321678447695 0.24704410731445137 0.043210177176575826
0.3408406731797129 0.2097035448970388 -0.04431821032365235
0.37867715919728084 0.16078665435746586 -0.14265241822803887
0.41869951222400914 0.2535320858531378 -0.024915172659390805
0.3530987996213071 0.22023213310953338 0.06322064296830376
0.3696999539018577 0.22065873327312602 0.03532466994465722
0.37954290877536323 0.22605497161788435 0.03254314694004279
0.40278582138833485 0.20095690901453622 0.035444978811511874
0.48455852347973405 0.3239576631839043 0.19444822331485057
0.4019719903412522 0.2381227374535939 0.01339250472136655
0.44114474788595714 0.19916378222077924 -0.07904366988483957
0.3952905881840536 0.2740784870817379 -0.04820548358617316
0.47436661972584204 0.20593255731532167 -0.07275633781594593
0.4199090523626694 0.19542723120696337 -0.06956344831688455
0.4088905927793576 0.18260662935779237 -0.004552493315202355
0.41041542951725773 0.1827419891308466 -0.07910970057237421
0.5611678311346111 0.24844360354830997 -0.023594257135727048
0.41242297814071094 0.032942973576325585 0.10295429626324903
0.6498609782719171 -0.1991194998390995 0.35580318920031573
0.4156946850980887 0.26047406355891667 0.010377786684671264
0.3758949314336064 0.20927718029754772 0.01304599189215594
0.38451805289096797 0.20453807807732005 -0.00091055756438152
0.4532309874099383 0.2787896840912367 0.09843404232262287
0.31464074806055464 0.24995078009742144 -0.08964681801877816
0.4522480267291513 0.2019610645340606 -0.06174413518209576
0.44248271226069846 0.16486930081345008 0.03316461522337022
0.3780446021516184 0.18898458181432432 -0.019392843696124373
0.45839850394729353 0.21326806876470528 0.00791984540131807
0.4109398620132083 0.22714846382231713 -0.00517212862065719
0.40994043291036064 0.2142801110177004 0.026566779743305347
1.177566339087008 -0.7719407885211922 0.42319711907886415
0.47567311576055715 0.29481628348621314 0.09385332050766237
0.41484647052422474 0.2088340431147344 -0.053246844874493604
0.3767691773079207 0.22393218150314453 0.027829961834100914
0.5476306201540098 0.2503839958176286 0.047241649915832795
0.43522984685429833 0.2591433077041927 0.042226525036198836
0.2668736979858579 0.1623934830182634 -0.0026037536037790687
0.38000000016666036 0.26980025879797154 0.033447013249158886
0.3307435514218753 0.23171200795025015 -0.10881032875170149
0.4094699750838515 0.259895644902457 0.07646547623033939
0.35946354670203107 0.22985414161981055 0.015437955240940937
0.399830356059212 0.187673581717263 0.003534936724321369
0.39909285493087054 0.2352890353295436 0.04083017816577694
0.407743526568737 0.22527329968124832 0.010253789841826233
0.41737848540562084 0.21731722577126789 -0.025912777436673196
0.5103560855994829 0.21133169933230533 0.06521018686804325
0.40716677387428035 0.2767451833690018 0.010691223941435624
0.5444681107568243 0.24168411954255475 -0.07722173906877572
0.4052273796098689 0.2207830581609187 0.008685640918884019
0.4248575984810543 0.2491917584116834 0.07393244230622997
0.450420471521241 0.27718632149577616 0.08058968366493957
0.3348935156363382 0.17355580057108 -0.02716554429260043
0.39244357131875063 0.21993186260964137 0.056616602059605725
0.3654259220118661 0.16719122938415865 -0.10340914878192109
0.5342315083546936 0.1918169871637474 -0.06275737132850168
0.41704320073208123 0.23353258789160236 -0.004957435148469358
0.03226513810744791 0.07952007752129475 0.34609546635201127
0.4040585335832816 0.21211372685894503 -0.007654608115529982
0.4081932937674537 0.19729192750725133 -0.03674099235746553
0.43479631236309046 0.20617393855835076 -0.02722334409030225
0.47121980573304256 0.29693667082091224 0.09597139309275349
0.3349133828695585 0.2067841253260383 0.045953390027875685
0.3587098857556441 0.22214759077698432 -0.03953622233035503
0.36761891800617263 0.19564007284850504 0.02269018472148332
0.37640950504415116 0.31286600852240554 -0.16604329782627758
0.40377368132419633 0.2285907291418141 -0.006973942192416871
0.3980386039235668 0.22321673526207064 0.029040478261606495
0.4104991235254545 0.24346320850102643 0.05385440814654885
0.5065861550620099 0.23986434555231995 0.042435746923800366
0.4005169254645864 0.2049577741057078 0.048623957663977535
0.3389356302760973 0.23843165607500794 0.043668380438020904
0.47393482346868154 0.23460877315622497 -0.07516108820493628
0.41532888305241045 0.20514881043970945 -0.002417131138656714
0.4144090889287497 0.22745408301736347 0.0009921829213794808
0.4248674353655417 0.22055840567018947 -0.054011228675477696
0.41911642613661115 0.17914635743173335 0.03093285290253789
0.43867893741912667 0.19945045643117965 0.1224388356524031
0.3992039721886158 0.2237998543060371 -0.02962817545477492
0.46384981767079125 0.20474924172046371 0.036639822864572125
0.33202853512369757 0.2692252812433793 0.05872313297933829
0.3695815113457428 0.19717530049267395 0.05216023389138513
0.5494095156665537 0.28126644474139084 0.020013698226264864
0.43861798687314035 0.22940434099530194 0.020294948118007028
0.2870240501927981 0.044235790033923195 -0.15213216343981628
0.4229462820702281 0.18932132418899528 -0.08537385070781056
0.43592895544649934 0.20964206067995406 -0.003014661455381429
0.3880934384966963 0.14986804329532788 -0.026059148829020273
0.41085761491284245 0.25623595902024476 0.12256150213545425
0.44536539321553903 0.24719331322100402 0.029200899049129703
0.36333858419837384 0.21005159855184274 -0.046417539652480855
0.4215369478834674 0.12653534706032588 0.018292567105731905
0.47771771105608707 0.22920317389882428 -0.035150187221603346
0.4817131564651902 0.17453009835148237 -0.04020485353854042
0.4645156600537632 0.23423833698102214 0.030343234960753307
0.4581784984907671 0.14143438149756093 0.04159372900613789
0.4812514699509194 0.1661750431396456 0.050136815179854466
0.43108651414273425 0.12991468751988577 -0.13337885399656102
0.34166332289495926 0.19377077224734762 0.024521471695592822
0.40396550228209094 0.22260857181649385 -0.12426352077144998
0.40816207120815307 0.1843759521724735 0.04790195642132744
0.33787131462958087 0.171821384685515 -0.042046906862921674
0.42244434565756706 0.16040502733625317 0.028960167181139695
0.4279954493768514 0.2554294812749589 -0.0024722061565682907
0.3742941747022428 0.21322663226415273 0.030013773316937886
0.38153496083599236 0.11196826429659268 -0.10506100095082616
0.46965801835295906 0.277771118005802 0.03930143925698815
0.36381041022923455 0.2711083558216103 -0.039596968377964004
0.43727983375680424 0.1529029997651321 -0.14502943771557852
0.38327068454486835 0.20858307937595555 -0.03187981579705479
0.33210550393039284 0.2616471847624098 0.134025485059027
0.4457431199800794 0.25968284204068937 0.044362189118416495
0.3374845633128132 0.2125897148634408 -0.08758100615891351
0.4153455593422848 0.27292594852133334 0.07092232523265807
0.5057376086336234 0.18211112712666022 -0.1135299037050288
0.43576785181556943 0.2613433013102906 0.08065657679459548
0.33193918206335127 0.240844427167616 0.030488192860076424
0.1592847209187056 0.32624613542446923 0.06414230899558504
0.43417844427713703 0.23151370630500878 -0.09514297005236472
0.41316047311460125 0.2181286147481245 0.0056369442589812024
-0.18779706033853927 0.6134207908554288 0.1437029496136688
0.44018574535624566 0.24199701320587508 -0.11617842079087382
0.43046525889090503 0.2027592469322883 0.01332198061282952
0.3388748735683009 0.1688526610759311 -0.016000259611956835
0.406832088947894 0.20108054235659267 0.029250683268983835
0.21817748371378798 0.12093381691826721 0.490668944723339
0.4156173683503823 0.2100668287957035 0.01274470863819488
0.4075918926399993 0.20989691869621652 -0.0036748346170156765
0.4861354375889704 0.1806662504450003 0.004116391970597988
0.4056924025624937 0.19395320788223103 -0.03148166947300979
0.39907883350706186 0.218434642821137 0.050954658584004164
0.4243969781807664 0.2120394734909894 0.02346076077085968
0.4165227792182975 0.21316143438889412 -0.015152184230359467
0.46548246523325076 0.2423388624278715 0.05120607641893571
0.3065802894475098 0.34298273020064585 0.03968838363556415
0.39757819414469964 0.1285164029357304 0.08481947432557035
0.4096364491746698 0.21503266873369853 0.0528326650680242
0.4143981855488903 0.1962585623291062 -0.04312057566036742
0.3636294874591073 0.19773051713929135 0.008089015207644934
0.48821413715853623 0.24927820904918008 0.0037809606099870052
0.5679492234439749 0.1953276074758321 -0.008701967467644067
0.4065837378444712 0.23874409825242537 0.028091075714812064
0.3994696560697406 0.2597894420216278 0.027818660947218632
