# .PCD v0.7 - Point Cloud Data file format
VERSION .7
FIELDS x y z
SIZE 4 4 4 
TYPE F F F 
COUNT 1 1 1 
WIDTH 798
HEIGHT 1 
VIEWPOINT 0 0 0 1 0 0 0 
POINTS 798
DATA ascii 
0.4494063443027585 0.23528631984655135 0.014013918387576041
0.3595235846941023 0.23010691722521415 0.08529047139660406
0.37020832169275764 0.19442664516589048 -0.028358212217895584
0.4203600574719104 0.23589961366297985 -0.0011471004546024233
0.44778565226762623 0.2597092129904297 0.0878678301903193
0.40416790563421046 0.20897228497432252 0.046194599562696226
0.34975529024293905 0.17115302662969611 -0.10663314443235095
0.9092243593301248 1.1802334322041759 -0.18246197372869233
0.4231306351341857 0.2847071494636566 0.11746632844018734
0.38779930708653865 0.1799002607810678 -0.032919728194514164
0.4770879094662348 0.16649920781441097 -0.014177069357288019
0.4272012432085148 0.16054090790038344 -0.03322638965242675
0.39641872703762715 0.20966084342455815 -0.01926383086490091
0.39832505438016597 0.1341965144543451 0.021211844002152702
0.4127910167895408 0.1821605432027411 -0.02278424227307596
0.4068086637485635 0.19587622621659762 -0.06130849749017386
0.3781227379825367 0.2388350074165544 0.06087504821374523
0.44728136071975655 0.2442823806958927 0.039060139289262
0.4456324823042337 0.12755178039043358 -0.036278976594559253
0.42292905216172016 0.22427547697665773 -0.10683433689180788
0.29931022966813714 0.28216904715448266 -0.00029186237973988227
0.42486971720744293 0.19861875691756836 0.008569796628506765
0.40699710977364134 0.2093885562008495 0.026362535880224414
0.42054205427237434 0.22418956917057642 -0.011744272507897335
0.47544437672497963 0.2391534482059825 -0.03993209184156399
0.31137546512721315 0.20212928849477407 -0.08771116027968162
0.4521718430781334 0.21300108621173308 -0.05676322410936052
0.4018734206206602 0.21062551588312317 0.021372350361474446
0.4313793033035438 0.22297936655917283 -0.13976372817222682
0.3814571594812719 0.21754426892987055 0.021211078289525176
0.33011297270846285 0.003833820186244452 0.24118733114158886
0.4219102929820764 0.21571919036730947 0.02894030849049045
0.4093921399559832 0.20972810267457476 -0.001753267839276873
0.4862569312606695 0.14836056832217537 -0.06605570393267612
0.42943423697286676 0.2658354728271064 0.05207060540510611
0.4131982092767714 0.21305830268610748 0.018254593566240374
0.4345380569252626 0.234539459559727 0.03777485214888543
0.3971041237823556 0.1884232752215098 -0.009541878170381324
0.3584038101809597 0.22652207809939284 0.07031012455752261
0.376877401951063 0.1947257509217195 -0.06934837830908691
0.4046009731590061 0.20440210619707955 -0.00877534594383178
0.4183017795199646 0.19700448923150304 -0.18750729669133648
0.3708939566688798 0.0876768483757786 0.3464916106444491
0.3997285902266867 0.1604494381981425 -0.07053369628276585
0.43936724114283265 0.24473032688541707 0.13254644088038958
0.037121210377833336 -1.4454535397455857 0.2120329607613627
0.45773629712070374 0.26604018246041505 0.09903866827757213
0.37771156763469094 0.16623696550544764 -0.06911425286625672
0.4850966407037447 0.2605396547190395 0.03674605934625674
0.3504568520191498 0.3268362169951615 0.29143577381394437
0.4062920029214183 0.1262071115219925 -0.15336051598275446
0.4772002746085491 0.22149161700073705 0.02759890724145464
0.40030043739581345 0.20293355582575145 -0.01624562815558761
0.3931531457806443 0.2544906535158873 0.06633775134771724
0.4031529518335901 0.23610253621789923 0.021786613786147768
0.45869149855434443 0.21745548852896945 -0.012540931427537316
0.3913407354476419 0.20944504003941233 0.03451964493847015
0.3871219524665719 0.26110567908885685 0.09256649603099731
0.3425907059243798 0.18421930895976857 -0.08171243932036987
0.34721263031120486 0.19598747497184377 -0.12683870191693813
0.3536073336355514 0.20598206314485878 0.15155302516296842
0.38793583692941525 0.20001238012358158 -0.00984967144020743
0.3208162014358322 0.18610981934472193 -0.04121054866456575
0.5191526673100384 0.034946502654378264 -0.3474621352608125
0.4069141552454596 0.23112081972766418 0.04676018422938455
0.08981857371369983 1.2624604137496789 0.15037273124899286
0.45421890394837305 0.2235931216184781 -0.029616784827439346
0.4537460206579311 0.36727263043837866 0.1453209410902332
0.3634910716983484 0.18429805018647016 -0.024278180923658965
0.32285626029921843 0.23441498386944204 -0.07046860571418279
0.40420122921204893 0.2010238293289035 -0.0015592031258506722
0.4070660861889479 0.20596360718403162 -0.030289607183874523
0.4005684315541771 0.2539261471575003 0.018161603061486176
0.48177124855575926 0.21646492417146135 0.03664082317676787
0.43689397251256423 0.2432022233834772 -0.0051817998021448375
0.3618451968060299 0.18464545622947526 0.020317382625563596
0.4164664421820561 0.23228923628710163 -0.01287671942705515
0.4218084618144644 0.21326774882822974 -0.08406263872245745
0.451437354420662 0.24506759807988487 -0.020772637797648486
0.5054050762894633 0.2695509285630351 0.018697760772681704
0.4693110716630713 0.26451849058412336 -0.038606738343958114
0.4157148542174127 0.18338266205333298 -0.039606781603026775
0.4361110282137588 0.21188178900587218 -0.06555348812082684
0.26536373506263544 0.2133034934552711 0.10849749172528789
0.4026377820724747 0.25244617783945955 -0.03306362584606859
0.41619305977623355 0.17297698479541168 -0.037988168809675926
0.40499926494766214 0.21810025431656754 0.006410974102422529
0.3431751153338922 0.20768308586026762 0.06596868790896337
0.46427825402611234 0.2191580811056042 -0.05011791430621315
0.4347863594152841 0.2712869974737373 0.1255672853070564
0.5440664908705202 0.37712101308358115 0.12462842504098148
0.41573076124025476 0.19225651490465623 -0.0007832185385154844
0.4816199813324431 0.2183854355517667 -0.06791131809106332
0.41715405993468835 0.21376260760317223 -0.004430788992479506
0.424326721874138 0.23849995059678974 0.02173254771147981
0.36151683913811894 0.24975080220923473 0.07916818876380205
0.4719408000105716 0.2505110973012421 0.06556464799714945
0.42002640519967827 0.15982472071706866 -0.06486507644797257
0.32459366421240077 0.16825927748908498 -0.048612825655993674
0.39863717424307765 0.22162531575176558 0.02598380855054927
0.3972842354336592 0.18935109616374746 -0.016302871797307716
0.43366595892440785 0.2675087210217555 0.11801611168330339
-0.052077343907910745 0.17669061467736924 -0.28500677824219167
0.3889381947093682 0.17705426998946905 -0.05272975510322908
0.4043629675913678 0.16414614588165932 -0.07672165349481475
0.423122491322232 0.21052672387372695 -0.010280572293041246
0.4128330701290679 0.23999610422998785 0.11221258008160362
0.3911518250073982 0.2044265847772806 -0.025111882261626306
0.40956843951499877 0.21129888040451306 -0.007446240599108478
0.369807372745683 0.2246086796025395 0.11510017402184758
0.5242887838511621 0.3388642686199148 -0.0946776592520564
0.4229871218686583 0.21162395902805997 0.018965927013027795
0.4363473504963338 0.25233985840141315 0.013198061060194277
0.4264334669105949 0.22220032345251184 -0.020813552645563504
0.40617613633685323 0.22698238279693328 0.007843870570440004
0.4025070459118183 0.2180984498446179 0.013340269606032962
0.4223444850552056 0.2014315114667795 -0.02716687443368926
0.4347367579917716 0.2665852468975629 0.09411501725145399
0.4125977777633949 0.2457391913519018 0.01977918882779761
0.39365426721795416 0.23424409687928005 -0.0258026752593139
0.4413406693139734 0.16952881766411565 -0.02008141638327743
0.4526099570527151 0.20582904775073985 -0.04208096923767357
0.43700576909731126 0.22675116920909488 -0.011104735012779088
0.39021132020300797 0.1972813592708178 -0.010621918759255777
0.33811573224140545 0.1778285459250526 -0.020737644853042525
0.4044299657545736 0.21473913940633338 0.016328404797505414
0.3675950621834829 0.2402994656617068 0.06457334374518098
0.3833240376426943 0.3018967752301478 0.12958578446318825
0.41519099519625513 0.22863555696520166 0.047848736128756286
0.40582656918013527 0.3051516455505805 0.2015728708473148
0.40772962546917313 0.18602356641835627 -0.046900372119921485
0.4421698295512897 0.22690976265673157 -0.05614378280188248
-0.702267923449611 -0.8682728236767758 -0.8653732674371781
0.4110493006679832 0.19653732879956465 -0.002967649129061556
0.3709566569002334 0.19923952352633023 -0.020937139026926843
0.442532091619924 0.20779656751153652 -0.11641471134993253
0.4530546584562529 0.22150308685306186 0.03742280130930453
0.3297278012907583 0.17482822843609824 -0.05889950602139038
0.4559710362513272 0.20305510203117194 0.010346860859584694
0.47032693288771554 0.26902968268822747 -0.05480302134185422
0.4416231966229134 0.19984500124135707 -0.014654639990610008
0.3961080353049624 0.2956975020746313 0.11648626680184293
0.3996388971699645 0.225409027410592 0.03161467460301992
0.33808027628198545 0.13037229900201908 -0.06932132862273477
0.3750122952290411 0.2882283946226778 0.049533497707841434
0.4035007364505958 0.20612884765550632 -0.05333371856616509
0.42571001510620476 0.18950436425460282 0.029663217795445007
0.41607242536431954 0.24166276155722244 0.07870040892163388
0.4205997383368896 0.2031644276923572 -0.015373429516714054
0.4041430060503046 0.21684198554316936 0.07509956153998587
0.40865222497413356 0.2275629190186521 0.056043709984734846
0.36922411540771805 0.22000274914600482 0.00744561985936798
0.44134817422138894 0.23649276193935975 -0.0034245646299382315
0.31605943480934684 0.22842101014558125 0.11939725504213072
0.3715204285463187 0.17562388814285157 -0.027377338208282254
0.38538348125709376 0.204979728901435 -0.0014131410736410999
0.39142253378295777 0.1924315149598499 -0.13100618156133237
0.40740351857084534 0.2617854227287637 -0.019521574279877996
0.42984667076197525 0.2034944080241985 -0.04590148871895394
0.3858847982721727 0.19638123841919253 -0.04936914227488387
0.4575686736623936 0.2242186688193044 0.01720495727072091
0.4822269143651283 0.23658498409690765 -0.059188252044748424
0.41769892819986865 0.22914798469851405 0.04600783116433149
0.4168992898609645 0.22736278061805137 -0.0057394423667460615
0.40146912071530494 0.26085915248789604 0.03750862379757791
0.36314154051345326 0.18769565140928535 -0.000391244054839035
0.6411029173747664 -0.21849498117768462 -0.24093475690504818
0.429370782692601 0.17978026927289648 0.027602956007939383
0.4792398777928497 0.2532272357932186 0.04602006669362879
0.3678366343273751 0.1898116474888525 -0.055357017366929995
0.37445481055432595 0.22421788383785213 0.032723498292142494
0.5387137189082836 0.2552982379033324 -0.07309788350715962
0.3589902913383014 0.21116270604025544 0.1424538423499655
0.5198045782685199 0.22216300600332772 -0.02894384292022778
0.4212552921953545 0.17815907264881048 0.014684595078392704
0.4332224594742513 0.2457941236951342 0.04172197304157521
0.40321748986922046 0.20521089010355809 0.00580451985098307
0.4177761694278104 0.196036756456607 -0.032306554446876135
0.6302559999172388 0.8320348831694844 0.8039540533248726
0.46321777299121436 0.23006681846591448 -0.04223833316609671
0.46618147530344345 0.1566750152733789 -0.13710147495746128
0.4002683484739862 0.23803649185947506 0.011266338006862497
0.409654241192527 0.1983779856500405 -0.00373009931423951
0.3501242930130388 0.21981127631855202 -0.008940711724363837
0.5124357053471442 0.2688994030123837 0.054397120032547264
0.7503741044883157 0.10569517580645993 -0.25056593313988174
0.386700062093297 0.20946428600473155 0.05418766071872483
0.47509668672122984 0.19337353203222563 -0.08908595589625179
0.453885489291423 0.21762829918137072 -0.14278697666915718
0.41836649930837666 0.226539459167725 0.012122029657135158
0.41226242717900163 0.20530985125751045 -0.03483345600750454
0.4449993895279363 0.1895269407934279 -0.03652452922173666
0.4013508947986537 0.2128085307760017 0.061978400007262735
0.41759561999839434 0.26626557353012004 0.07195835179231835
0.4253029808851352 0.2338373844177397 0.023295707998045145
0.32394546897839405 0.18679148989974692 0.02636552596257502
0.45011642994177237 0.18085941252570592 -0.012368612027131576
0.3939349821319098 0.21195355250863201 -0.002343374377275609
0.33565065433862173 0.21504599358377163 -0.051420045887553556
0.36305759959861916 0.18271002898120514 -0.0934831409206538
0.37086041245555634 0.1489115471984661 -0.04540826366714157
0.4696943556308213 0.22554258158689322 0.008021777391888918
0.4152720296462462 0.2137120142389506 0.008028733615773831
0.41631133047648916 0.19528527597766754 -0.051190748867753655
0.41261076975555966 0.1685487413028568 0.12298526923268582
0.42035655004113437 0.2089386005943652 -0.02440672716085146
0.44133186229475996 0.21150357309582546 -0.07306711333740168
0.3599491905880967 0.2521177815393969 0.06899157066968087
0.42961561352055355 0.2565194036563412 0.008217580766952892
0.4103711704294426 0.23452525609985742 0.012818493879109383
0.4173385440248296 0.22074402961115425 -0.027601213799954394
0.34412248469911333 0.2268826071264698 -0.08768325498557772
0.31585225726848876 0.16046170055423659 -0.06753964475333873
0.30094631382775106 0.21806671703588165 0.06829388346415044
0.40338828515471903 0.1975356726081401 0.05805382154701988
0.4358906246741867 0.24098681389052956 0.058018790976944956
0.5846214205990634 0.17731996359972868 -0.08772322612357186
0.42404163468938805 0.17984751763779627 -0.053454647087079366
0.45714024649205953 0.18318283050240325 -0.0711984210826131
0.3915509024294863 0.2305603162480594 -0.05141215953671008
0.38189794743078664 0.21511832408799592 -0.002916666619114494
0.4514180219298538 0.20376380813016226 0.050361885228554115
0.40910223387143674 0.18872231159619446 -0.018187966982594617
0.42395815351252963 0.24377815867728714 0.09021378159380333
0.4980148940984037 0.1760644219970402 -0.2517652146748901
0.3958001595219116 0.2505803199397292 0.05289029655131117
0.4432762357330233 0.22571123965985862 0.005058048974916574
0.37652067228316355 0.14058795421055947 0.04187951692523484
0.38589651740598185 0.2241493843761475 0.0450584895937709
0.3133423557897146 0.1688737320921092 -0.0367351595058949
0.38993001030823393 0.20753707672412247 -0.016372432899842693
0.4771056894695107 0.24593797275269935 0.0565583865684971
0.4038896624006014 0.2672751072620514 0.06981623407446591
0.41832842467633213 0.1711651607189424 -0.127383294253832
0.43903922157548436 0.22438339322332013 0.03725752123460779
0.4186762812348661 0.18262387931088142 -0.11004162796146488
0.30330532002275845 0.3198276082694065 0.1990897671061589
0.3807991178752559 0.24308450960485573 -0.008413813266869852
0.43317749860904087 0.22125799381328193 0.0314397378159299
0.4351407123692752 0.207503233617075 0.02803458646968693
0.4428260736940359 0.2014890936254119 -0.04121323594475257
0.358711026464249 0.2086033622206287 0.07449740078141076
0.44033049760685117 0.23098509789889476 0.01024750124155105
0.36761196380042804 0.1612324481827585 -0.10041866648845144
0.41241262420783187 0.18816754680086945 0.014746979939417315
0.3740582546462008 0.21542283738318702 -0.012979821893026156
0.41755706315400687 0.23052119195705245 -0.00975090900487885
0.4154783005075444 0.22799707783451595 -0.07280321711502324
0.479869011331445 0.1867080529702747 0.010932194507702775
0.43301707750873675 0.2456115701015591 0.06974097726860862
0.4035206889063545 0.2184030777865189 0.046232960714917226
0.37009699376932303 0.15203009087578323 0.029266132184631033
0.3736643884172395 0.23405513747012208 -0.06402806486590862
0.5652235283944975 0.21681547434863546 0.05242807609651834
0.39298244950623484 0.2194382948389091 0.02963487855032554
0.41031292826818344 0.20985097957421317 -0.021918983886365595
0.3694125289765964 0.2227897959960501 0.03843536884605214
0.3211450327958687 0.21641534645050342 0.06299147293837848
0.508403753023174 0.2753584889353249 0.00571972436924284
0.2748665260020573 0.1927133417969884 0.10045688502124506
0.44143220184278675 0.24578082041381322 0.02931490865142905
0.40713953412777926 0.20691118003739462 -0.00012572077407924098
0.4932724663658803 0.25831664327097315 0.07282194913534568
0.48378439506132054 0.25040666570104975 -0.02375879287669136
0.4253041019155859 0.127141996696011 -0.30067481349446723
0.5113691466531805 0.24817122370973266 0.0022115205950257177
0.40844040462297926 0.2035553811820563 -0.0029241973822990985
0.38119742078995955 0.19284709065840389 -0.004766952962626192
0.36700800767562214 0.21156689008201113 -0.06542297859040502
0.3793458126735061 0.19264540514295447 -0.0025768789708422446
0.3706586796574811 0.23557439731951035 -0.1188322024201085
0.4980250919908542 0.2541651683373516 0.005382727139306098
0.43289393532970166 0.22792056958287787 0.052459464963874325
0.4077306565382912 0.21331028297291255 -0.1584985639652814
0.45184114102676176 0.24259850898700108 0.011239084568870794
0.45687647588380287 0.24901752812252198 0.06521883821802987
0.38048862239902803 0.18595272799854 -0.043333633277484296
0.4465831902612081 0.2563637524771565 0.054458212683158536
0.43200664712645676 0.23548525338647153 0.01059228159604686
0.3942026241107044 0.22490893510826027 0.009248086504925368
0.4668071435156236 0.2707052969882824 -0.004295199643024716
0.4331947294026577 0.20430133592569177 0.00880249943303113
0.4053829319806823 0.2085940269780906 0.02012131548329421
0.3354396550590195 0.22134908674877352 -0.010176154070890675
0.38884999902140294 0.13058905195309478 0.04862277814615368
0.43180527282892456 0.23588403937390012 0.04484536472280354
0.33559920566098356 0.22313362425208538 -0.03972696416545318
0.4236566626479572 0.18584007011114068 -0.1569185334356007
0.4190173730868594 0.22934153068561614 -0.05255844984017699
0.40369566636340437 0.21077861288722488 -0.010296750437333912
0.4167095441452773 0.19635118708794153 -0.06986527040328383
0.4286158431008289 0.22197002162538126 0.08607339436781558
0.4173346711789918 0.2269130717547938 -0.000621408800810741
0.47675277789394954 0.26121537238792314 0.02406731043524246
0.45787823140534556 0.21611445009213526 -0.07939525420135851
0.5818463847461146 0.10138301244705872 0.05452328176914989
0.33288595436674484 0.21221966532314696 -0.04800201175589791
0.4082336703467604 0.2510598584927948 0.12907572731327832
0.36469547997788254 0.19230754088887636 -0.06982280476344727
0.5334514660267189 0.21913950784147573 0.12627449575120409
0.35243780937196334 0.19935364313255377 -0.030310034693002308
0.3889197919101548 0.21285313181022048 -0.010404330510795035
0.3797176774777 0.20448234852071323 0.0999206572893172
0.7710124512775707 0.3521045346132894 -0.18351274967082531
0.4116294946968253 0.21085597288991664 0.050952201738041936
0.6104808408733078 -0.011154724472874022 -0.1027243383544203
0.4166242140119607 0.1909904319779372 -0.046307170922929686
0.43627838621696924 0.21989036150020524 0.06428252047746241
0.4247254902767139 0.20247568510976066 -0.07085523190258414
0.3851297864898413 0.12489090388061186 -0.0675655803407409
0.3900998871115178 0.2083475578561007 0.00868691129832655
0.36395009213089224 0.1790295112657816 -0.040516491105222485
0.39963247431430204 0.2265038709897027 -0.15155995058367466
0.3375071659202291 0.1581645990357572 -0.05019207508749446
0.43847908369583877 0.17216666876626618 -0.10153650401970538
0.4386719192629016 0.1993231109304361 0.07381483583964155
0.37700051879920693 0.1827440374611058 -0.05190256916368696
0.425543823529992 0.216897473882824 -0.021815579929764795
0.3076953055208662 -0.07422737252412048 0.050814108515595535
0.47185994783666274 0.26195688516489213 0.03053342387661928
0.4294314460250206 0.10262705365477132 -0.09362192637679811
0.3798438221631386 0.20734532801569117 0.034428381625446036
0.43329297539986555 0.45329804227874604 0.13189210976156573
0.4753178694044351 0.21635019395804989 -0.13237930487531457
0.4183262597869941 0.21504271739766523 0.026086308321595197
0.4033212600276954 0.2474255305656925 0.019440960586507572
0.5364607972277611 0.16712490864705387 -0.12431572809322233
0.4031776006029304 0.27246397074026163 -0.0807603598503448
0.44572640776451067 0.22955938769914042 0.021670300546261956
0.42580777756950283 0.2009610946585383 -0.05864412812050546
0.7159770304250515 0.44186762796404366 0.17543977408564615
0.35950835351133037 0.09542459378100432 -0.07488065282879575
0.4360795760420899 0.1514516900247429 -0.019821599613436547
0.3777679661782827 0.24847198285092986 0.015232427658844472
0.48858174124120524 0.14702728035155133 0.005971642086024076
0.4289435893913094 0.256842287360854 -0.05138549711836049
0.38568241250736435 0.18478547902964237 -0.0215023839886328
0.44560237559312554 0.25565522231657667 0.05444839122972667
0.40948236217411704 0.175822394970794 -0.08845728827483867
0.40686052137542106 0.2410407988719072 0.06100125445129834
0.4858932062303154 0.18826781882036414 0.06766910769928813
0.4195558880047656 0.22589127333364445 0.07424761473990316
0.4383002032701029 0.19351062597840496 -0.057034493597058145
0.4101728018616626 0.23510828682640295 0.0016218569758450485
0.4351340612318211 0.19927180784509346 -0.023112597170978688
0.41103294173547056 0.2306470766514792 -0.008839696819450182
0.48322636777400874 0.21178291029183072 -0.040178033051518014
0.42408984940371397 0.23697674765578824 -0.014356393361055098
0.5078686612795735 0.2718129941570737 0.044943594167421
1.184591795545714 -0.013351224602473621 0.3671488389779114
0.36481117584366984 0.2257426785643304 0.06932970906373725
0.3413507726855016 0.16893269884688777 -0.04464383638566005
0.39720795206611115 0.2053835219567901 0.023121911947981744
0.41676268278385464 0.20784761852999623 -0.036612956759057624
0.4624041420080687 0.2603370368325102 0.053123923171227716
0.4130519174402565 0.21875844325418825 0.005522477646280777
0.4168919577958832 0.20854150160417362 -0.0007416995048998842
0.41293237966377205 0.2411916930024347 -0.02736562191290659
0.40307554470709306 0.22661435264353713 0.05138588048235704
0.4239145823332251 0.18228275551274464 -0.04728198043224552
0.46399237093871193 0.24898548005579357 0.031972753850880054
0.41293711445310066 0.24265337435468837 -0.0012962879973770214
0.3117833991872203 0.19764807385755034 -0.01953629291034531
0.43536626114941157 0.19324368493715838 -0.1151073598367276
0.3675479635354151 0.21498253771662235 0.04486293624174209
0.41933123881025836 0.21369601587815623 0.01805466397570399
0.41843662905773726 0.19874850860051652 0.030826505481300615
0.42394088167372956 0.20069068532858125 -0.010996770039668036
0.38290114528405184 0.1866676101641076 0.0056850532488113
0.5262572550988409 0.21583207471408627 -0.052402941711136464
0.4304839698697407 0.22800278558807463 0.038026051913504944
0.4139332015204076 0.21495096053683937 0.057113930080902264
0.38015449189083483 0.2244389115531078 0.021773556024783147
0.4320612916649367 0.21215384881763555 -0.008955498879259949
0.4041075903792546 0.1823732985027533 -0.03264120468961096
0.4347574889379331 0.2045399133934609 0.027737641217441933
0.44653955837372905 0.2745064756955884 0.024849686639186075
0.40437840826680826 0.2432841850309302 -0.05035127046942023
0.403436007053358 0.26948265760358936 0.06187637319439432
0.46814672402058477 0.2306902548213685 0.016829105811197564
0.4461984965888348 0.22425603056333898 -0.09108117941667615
0.39736111877095937 0.10367355361913155 -0.19651022377121308
0.42855939071324656 0.22257213199121395 0.04752209179147826
0.42058764630888845 0.21596123485687713 -0.031635948271244274
0.3618535330162729 0.34614626710634866 0.03076903545044729
0.3883438565953554 0.2276239915476026 -0.0382153216979475
0.36091003465512017 0.20776036864072012 -0.0871745231272314
0.313919042250717 0.17613159187104088 -0.07832308545543754
0.41195408298369784 0.18733042889674323 -0.0034547120743013693
0.4367315852455249 0.18266497947792004 -0.015860128769219273
0.40912890320612405 0.19923886822247994 0.010894835778586298
0.4341587525593127 0.2348564679384566 0.0038118590146893894
0.40220952537171684 0.1786551419090472 0.005541892066119658
0.41465066415986485 0.218052105924869 0.07169830696093982
0.4757674859230008 0.2918280500850585 -0.007351201202993707
0.3969380503667992 0.20214990702004343 -0.007612432866451968
0.3599919809323495 0.21053521858567592 -0.11056928158285473
0.37811622134269385 0.272551073227973 -0.0034239195999532512
0.3985143737649821 0.19175589192191467 0.01594857723887344
0.471255279947826 0.22973721826438975 0.06109430132340776
0.4455964032788131 0.21166791474604452 -0.011604960719878932
0.44282126318867654 0.41330345024607595 -0.014114006311601202
0.4718983792011784 0.08448552439170953 0.10764208825830224
0.317621001742765 0.23166990473683313 0.056250652505212884
0.39669539582624225 0.22532776503905438 0.017240471222237375
0.4337173720957992 0.24411412802095356 -0.0035763465716058818
0.43486143338643046 0.20683296991064992 -0.031322816789014496
0.39016066141898875 0.20974653805845378 -0.0026436173136801244
0.4175728893476247 0.2514691617316487 0.09488648527299404
0.38735396527386 0.20940969832115286 0.015298744685026122
0.3416223435375372 0.19390868845911768 -0.009951651836786368
0.45524599275817934 0.22641088060098014 -0.05333590505057373
0.4480782090298021 0.17578235829944333 -0.053565186809407805
0.48549191906731437 0.2329518030033313 0.04473217838751964
0.45216843957166475 0.2629424028322802 0.020682971557022256
0.41356478936148733 0.22304858109177417 -0.005455704519121696
0.6169229629217341 0.29017414740830816 0.23235974566425455
0.37095141380243035 0.19464818878867618 -0.0012075836426106434
0.4791422827248226 0.2420352039836473 0.05661359585397463
0.38231365302249287 0.19430662252986508 0.03419784296073658
0.447161744557377 0.2156175886468077 0.009863339752286038
0.34479953475693037 0.1725054759208433 -0.06166996748079612
0.3749522552919302 0.17414199754672666 -0.07029530349527136
0.41583398297746044 0.202206774440711 -0.004434087454626479
0.4432935917357952 0.19235770505262906 0.012030203488450297
0.45021107706050145 0.23672885803091503 -0.03473778125837157
0.40406674652084007 0.21549527410475378 0.008799899390751875
0.3788501026066058 0.22010606895389628 0.0644228322256879
0.4452718077324107 0.2903253589786914 0.09733820790631853
0.39717383857060895 0.11392353566481006 -0.27351823443461853
0.41555693801694815 0.22424451750467256 -0.028792091269025377
0.4257454021295928 0.21491966400147078 0.015318485228505097
0.4645071224137496 0.23761021262015447 0.06471627507806943
0.3866897515404162 0.22287478597421284 0.009176060510711181
0.41570388014883974 0.20137922222639304 -0.020225424952542426
0.4142119188433213 0.27048193753111605 0.019241832447960405
0.322044020349864 0.17800415076467857 -0.10139319862477691
0.35336745514823065 0.19309808301480302 -0.020085814503346455
0.43585329481150836 0.23951433342995188 0.05503523669860044
0.3432398027460408 0.17027622881440152 -0.03094109955230806
0.42680273537300195 0.236132500360128 0.028125665857658078
0.43938276867935144 0.22438059502044894 0.026577960934005773
0.5113091224836808 0.21896106124049197 0.002099983925148763
0.4297679367099363 0.19962439774175778 -0.038585804269615664
0.3914106314304888 0.16944528914632428 -0.05851827306585733
0.4280325741061688 0.1927948561520907 0.016700430716014125
0.4135089848049631 0.1485480851965093 -0.025786092898798074
0.3919488340893338 0.25161308711946617 0.0771627720502579
0.3606174910555069 0.23519124417397563 0.032076627866828744
0.41345393774238914 0.20170686239538327 0.029863085285853685
0.36477630182439214 0.23205479614154 0.06337204365703997
0.31295043674491296 0.17956532528252467 0.00036704293127343135
0.3607370956544145 0.20929026210345114 0.021274495068155375
0.41556248242901006 0.2533241997217601 0.056016546577353665
1.7657459018217168 -0.6253328083395218 -0.1565770856140034
0.4075513800933095 0.21993772460209016 0.0052797012337606475
0.5076296529556572 0.26754294457754213 0.1226656780318649
0.4446267187762487 0.22344761157764026 0.033192529386212755
0.4905277778069461 0.2696979346095816 0.02363689219623666
0.41506020073200034 0.20931375526217266 0.04980301593150216
0.19704029491842334 0.21099293274281194 0.03777899482651037
0.41420204538698613 0.15587870788010605 -0.04360249398501992
0.44495808460152375 0.22572974746161378 0.0007394497179689097
0.4283168829732773 0.22623712923754624 -0.01780760457175745
0.4140024979182755 0.22491740037480668 0.08268302471250877
0.47623275959603006 0.204898622648372 -0.05990373572674912
0.4282893192505526 0.21861803447208672 -0.024674349933604844
0.3824296321019176 0.2001847824362244 0.07459511935167029
0.29824143607052633 0.2821908637675534 0.0695259696697832
0.38630867951400205 0.1681473842850636 -0.030576614990877715
0.24036909596904366 0.41375395853904706 0.061184514794973666
0.44303049456704 0.29283969598191106 0.05323322603406666
0.41800994614044384 0.2226460216215287 -0.010755904436862807
0.3818203966030893 0.21063293855928578 0.06306732880187838
0.470004580700774 0.38990784629417874 0.23039544222564246
0.3975414329608782 0.17162886287874812 0.005439225350869492
0.44210102954926356 0.2243235359691198 0.006072756975783022
0.3877473565412686 0.18812475567740705 -0.02053666995578851
0.31952882468137034 0.1981843586835197 0.1187684021256814
0.4183026258132543 0.2198222600184181 0.01462814786390254
0.3989773035355739 0.22335324690487823 0.051479952235496285
0.3897187128025479 0.2267460767455418 0.04722944021888509
0.3788730888490619 0.23459782213717517 -0.00044177830966418696
0.4010227941679858 0.24208696980096533 0.07625892086522867
0.3444816938446422 0.15015291352823112 -0.20252966700036268
0.44544441007801083 0.265368410606726 0.09100035718412869
0.3972583402543819 0.21957926444139275 -0.0071286619282773245
0.4144393679139853 0.2346907933377338 0.025829354582356245
0.36379015649974633 0.24409072975358015 -0.0016040302314337396
0.35388576225125234 0.20655690024806006 0.06545232826358927
0.35990240629314485 0.1479844123877001 -0.05151610937812734
0.3743032109764357 0.1553974482829119 -0.09769834549715029
0.4037849273787657 0.21592416443647267 0.042012506217616874
0.3138149665652321 0.1675661062961069 -0.016036406475052445
0.32405919266946626 0.21060837234274743 -0.057695372277109414
0.5440413686657735 0.2795653027643823 0.1285964120704648
0.4492255859032639 0.2203941843083328 -0.0663371174745464
0.31237624267780006 0.1820322497578104 -0.01612442732343311
0.4322376569252526 0.22378651889570733 0.019352289926160893
0.413269887234776 0.21810810909801148 0.03365008313748774
0.42354393099296317 0.20476616795102132 -0.007540123437081547
0.4077402870913289 0.2257475820410093 -0.0210761842999716
0.40322028230863793 0.23718351229265977 0.07713848318846317
0.398323518309482 0.1900154108288774 -0.021414716524503774
0.45788787126615205 0.2670668625601138 0.06599319807715176
0.3048564879803166 0.19064600450496982 -0.028182870197554166
0.46273789448957814 0.2126878019396088 -0.011901784360077272
0.35622270615451157 0.18406656592458148 -0.06313142699346486
0.39873447156033137 0.24165332998259714 0.03559391430739822
0.45666424487609447 0.1947045037185262 -0.05164583928373645
0.44426603703453793 0.1110656150489433 -0.057075464110582175
0.3777549743711859 0.2085558959334719 -0.11041476190625588
0.42228265639587903 0.20757108714742856 0.006344002835788842
0.5118018913949811 0.23742834829010917 0.014770360056076015
0.37984038970699885 0.212740756571975 -0.06918825567949227
0.46363441821499407 0.2535570198520247 0.031885465799803114
0.4315957352929729 0.22067815257443613 0.030906112790148654
0.46996839220220465 0.16115350284528063 -0.11147533095716256
0.4127407155496883 0.22974421002061263 -0.06907815201208223
0.41609255101820963 0.25357978576940354 0.026927959091082698
0.40132580155241726 0.2068925609621033 -0.0025702210027134242
0.3981264390845922 0.23978736758692776 0.022146813024434664
0.38519810266900834 0.14315483841838272 -0.023134547055136068
0.39211087880181594 0.18947293492801975 -0.05144987577165239
0.4193237670289989 0.2035542085337454 0.021253887497664437
0.34888173438932313 0.2199521672449407 0.027354777181784584
0.3723537278066118 0.32060654654338805 -0.10969386869516029
0.4510944452844683 0.23469012416757096 0.017629663450264843
0.3642444996818881 0.16412057373204902 -0.0479481762852032
0.4455272267862256 0.17541169312190164 -0.0226418893321636
0.40540836580268547 0.22731145867737723 0.008231394479011556
0.41058989819251224 0.21494641172031947 -0.03631747476234182
0.4957933046353844 0.23858057959776602 -0.07290514279222293
0.4797392186877971 0.2673790277283672 0.1021093929312542
0.4095128164017723 0.18902001554407377 -0.04803229826879374
0.40234833920187896 0.21502901404784325 0.04285933498418615
0.44617910377112935 0.22262674749019595 -0.015896522526759327
0.35927806991560374 0.17219011716709076 -0.05050545675565843
0.417979480692253 0.1808181910207054 -0.05692325728625747
0.4332098754784397 0.2768543796948961 0.01591811719229952
0.39396044545790687 0.25680827517528826 0.09153092344649849
0.3152606402046132 0.205313939551786 -0.08365327196170824
0.40920160896888547 0.21698379870740325 0.00191331208756651
0.44175163895657477 0.2164926888791996 0.014099714856143919
0.42129476057831994 0.15586914555848352 -0.1113209972655369
0.40370812562818514 0.2095175657773467 0.035054518874602536
0.4559290839389689 0.19049413905673873 -0.06946567017863003
0.40865211663404466 0.2586277821078511 0.0971382367246747
0.468643137889984 0.22771476709746707 0.07622356387523155
0.45804575285984583 0.17900186501549342 -0.08757302122484134
0.3904669786879964 0.187427812994585 -0.014386341452990337
0.4071179783083352 0.14417051054643082 -0.07552598304511093
0.3959559908555548 0.1877770006391586 0.002003752566707817
0.4343022070927276 0.11577925342824358 -0.08113811997597509
0.4483375521298285 0.24090883189168721 -0.009142457019578387
0.3806794714001427 0.21592963287488942 0.0004913550427261271
0.1651066895665707 0.5371334107530288 0.1253409671431882
0.4417073058096008 0.2112756973707235 0.02192358438121289
0.3416290521907115 0.18998068871090368 0.07254319289179989
0.5485253400934198 0.3553817428777677 -0.4281814680155094
0.31025642256130936 0.1760111026353286 0.019255277368273482
0.37549917450147063 0.21345186723632992 0.02303273036628184
0.49244222025517104 0.21263383015184445 -0.12334664252371397
0.9814070928707963 -0.06377634324461212 0.3728939329874379
0.38537403353780064 0.1967847447605493 0.05048326746268117
0.3604941287852057 0.21179543406648804 0.0954414643935877
0.4643408773472686 0.16863589164697146 -0.10224010470599865
0.31141070957107786 0.25155550306220675 0.020162606985550724
0.4281226824447657 0.219748744131266 -0.009356639453017124
0.4080913423471486 0.22821466085221687 0.01934150408588664
0.4537463083091211 0.2352195888189783 -0.010540331740742204
0.44016239545550206 0.24829886278052982 0.032502480617949914
0.44039681424017374 0.18965730270517156 -0.011116762079524278
0.4591341773203794 0.2250430736652902 0.03066945997366588
0.3958367770062807 0.18437171080120152 0.02486803017195882
0.43446695051900974 0.22934466248393903 -0.005872499595938052
0.3454284157137124 0.1742598558328723 -0.010688585287354613
0.45782077786398645 0.23004194088395025 -0.005291366226856553
0.39808272165004155 0.15381858756461497 0.025902571640912697
0.5195346671492018 0.11250726845490533 -0.022256062387754127
0.41297090339685383 0.22234154673196826 0.025633009415429342
0.3994189253928937 0.21403755984228212 0.0014587795659792846
0.339183256372948 0.2667614291420364 -0.02969297624846945
0.6060437794877629 0.28461677445886835 0.10016866140736624
0.39166694769620847 0.256418668541599 0.10772624636368278
0.3548615943179527 0.14929445558203724 -0.029880239729806135
0.3350026844274794 0.1745544565324053 -0.01918394954145697
0.37552793169945176 0.20756601691175547 -0.0011267316094745183
0.40940352956263837 0.2125584081300076 -0.018480890550080176
0.6712218564395585 0.4998504994557891 0.26982416724538894
0.5058755432857538 0.2328898909995587 -0.017007542820039134
0.42910868977705263 0.20441812186592756 -0.004127159647055123
0.4253086976892746 0.18250756959201908 -0.016059255176685383
0.4194717020828591 0.25077688104423146 0.004366076128690111
0.4451263623844284 0.20400806129757143 -0.030635909475435597
0.455095364231795 0.22511263344298982 -0.006975675453759322
0.493740937792154 0.2594597839452035 0.047141763688244964
0.37159064902449757 0.16741259124792407 -0.14423149815786473
0.13342770516649693 -0.019138090856458234 0.24760224141201093
0.42969318546082036 0.1984218549345087 -0.0395209992862533
0.3816971710163273 0.20795463548313364 -0.04705558074306282
0.43955457529281716 0.22529342755633763 -0.09874755478185193
0.4559485478235672 0.19615570279202643 -0.06071816409883013
0.45573580573423556 0.23182221356137234 0.04080367886496106
0.34394915135658266 0.16706625004060527 -0.0318938975869969
0.38045873831256927 0.234657728321082 0.05817476939387234
0.3091434101565085 0.2772580776722293 0.025515299208080933
0.46075799083047286 0.23533848521222467 0.03984994543108655
0.4282121540634307 0.21494134433656598 0.03654774418609463
0.5498489255098775 0.23120300839046593 -0.11297456501095837
0.43337282967505075 0.23918406150738747 -0.0588791648517315
0.3778203864002876 0.16407452223187136 -0.02646081532262201
0.4526578774011938 0.24078880634603195 -0.020949751416537765
0.4173474456035251 0.21885904733238704 0.0481789860902353
0.49997466245955025 0.20284151934842498 -0.08951134625293378
0.4138646727139843 0.2683952645134582 0.012373426809887178
0.4202115085159335 0.20920458744853931 -0.13756384683458123
0.3935582775102944 0.22651967892892344 -0.07359906277099526
0.4942095088365477 0.19061803711406355 -0.1095223760851809
0.43491631664505803 0.22280636549217547 0.01030685266178466
0.3997255179688608 0.2510900004780865 0.07624330239943333
0.3278375939726743 0.18473019054877682 -0.039587442761614966
0.5323167216274669 0.24019200837909693 -0.08147078697965071
0.39800132182014636 0.21556801462536157 0.03442508548344847
0.41770895505541716 0.2244038290461674 0.10882566008092454
0.34920667912533077 0.20278517890947967 0.07154353001052982
0.4243318377292269 0.18328469198556263 -0.07974157325820386
0.41392300843540397 0.24242775883345757 0.057745494132518616
0.3640328631425689 0.18891290463108135 -0.0055979244995683075
0.4521543509335686 0.215977373435436 -0.09480420922244548
0.29504721352779484 0.2935588655142709 0.016322009279662097
0.3730092801089313 0.21083566060211467 0.0258799634372906
0.4292231010861087 0.21907111780605248 -0.04528102183783744
0.4809852261695653 0.28777303518788244 0.052057559049444535
0.4757886051385469 0.21615273456077944 0.07074129261991402
0.40401204870093466 0.21413614024581307 -0.0028033033214427405
0.40259040801909407 0.19643076346065413 0.04009960758349962
0.41501657527659574 0.221706177711809 0.007532021476094997
0.4098753939328219 0.2345427226048571 0.013440846786807015
1.04715946031601 0.18604139071443626 0.20815091478206682
0.34389898294696764 0.21692040250215427 0.08360177849166917
0.4354160234443327 0.26027095911831566 0.06960423986801345
0.5528555997140643 0.2926677008565832 0.17850360809296717
0.38735996620621904 0.2514111244310584 0.09489378259578984
0.42100310920395145 0.1693101959995147 -0.14051402154416337
0.5571573367379017 0.3266493734955418 -0.017264364778526442
0.6818784655543766 0.5476976911213285 0.9408899422373054
0.3453624717169106 0.24522642445708698 0.013758139779866951
0.3443350228301938 0.16220612243157007 -0.07840508424425252
0.5828163202909025 0.35687692461951315 -0.009675830135265073
0.37515778304418745 0.21807443692605943 0.02543615541353006
0.41906437972190247 0.22162944077990687 -0.09967517720241403
0.42142098458074884 0.2480523018593317 -0.008169248487462255
0.3954572971082655 0.2186857549729666 -0.0017568125067271012
0.44709308422989125 0.3573761460659739 0.16766425027606147
0.4342444403897048 0.21670301960148208 -0.012925912098694425
0.39797955004156904 0.20249137877505063 0.023272818279139074
0.33058007138788525 0.18642867800059548 -0.007951835297319576
0.4394151228881924 0.24400250146041458 0.011647500149607026
0.3880449887605266 0.1390002075500263 -0.0009149446593994526
0.3886165480340935 0.14215065487947243 -0.06692554785490756
0.5595262132797814 0.2141401554673763 0.009025562921095798
0.2665853690727715 0.14222194989947923 -0.1449074939764614
0.45189976163075585 0.2511705025358708 0.06493924797807438
0.3878470559727134 0.20594073628788578 -0.07801498081681757
0.5431998805216267 0.264036430276704 0.03723814668570924
0.0680355626928133 0.2344121509858752 0.28920080599959874
0.4405534164988296 0.21457192151129334 0.0001411111221614192
0.33327261055981694 0.16903185690736677 -0.09139718946754272
0.4844877367991387 0.24861903907327587 -0.017756424457076037
0.4147241843465679 0.18556321824112842 -0.03794204882427721
-0.21682458699382323 0.4200033065893365 0.28303971559139995
0.3816408751720246 0.21168779852419561 0.08490360497407323
0.44128459115385965 0.23261243781985286 0.0016435077332062065
0.5232734429680335 0.22442295145087598 -0.09371439108819857
0.3744610538342954 0.24398988490702322 0.039843058154573896
0.4069297305731965 0.21176646885533046 -0.005749636135078617
0.4187331664649889 0.2366988550250113 0.031813406340887695
0.47415832682654013 0.253496203925593 -0.19736533128117628
0.4262463967201029 0.2124540956304486 -0.006247722648581089
0.5033496613695831 0.2459113382615783 0.06010342321852136
0.1340531862598624 0.36895797328594426 0.06477944952229109
0.43786157093236966 0.21540391871619136 -0.054330111075614695
0.33152733209672647 0.20529043911119516 0.06112319222580709
0.452500875382043 0.2301173139975674 0.0436325002957858
0.40738954932457716 0.2149506043024303 0.03683433352625798
0.4298188118871451 0.2807435950438162 0.056566281244471384
0.4171663989536398 0.19611490198954584 0.023640217694492094
0.3605687514584446 0.2081410581342027 0.008174612049614893
0.3739442471235037 0.17480980086571662 -0.03346950989936204
0.43562755297566014 0.23764734777360275 0.0245471534081787
0.40217546098671164 0.19562981590622996 -0.004313103382045824
0.32680131497843945 0.16341347931094674 -0.016453756771184658
0.32999476589591836 0.14706084695730226 0.010706525128568956
0.4509732701039155 0.28053375230700794 0.03755877284075382
0.41992004175824604 0.2231459382857821 0.019992593725646657
0.3770473475473324 0.25004109208126124 0.048355363293978826
0.4620705659270641 0.1972526612934189 -0.045301924961137274
0.35849046533559203 0.20667895768883682 0.10681051892558457
0.37386840934399856 0.20372303450770346 -0.028871358892956778
0.34046449861065753 0.2029060875003097 -0.03192505449987948
0.43818731797205146 0.2759116851878929 0.04359423269119134
0.3671264026505696 0.17604650519552933 -0.03270521529623238
0.46340457229510434 0.22148278526157128 -0.055532071099648306
0.4270601868440451 0.18240744115941254 -0.02878797672903488
0.4494658662027575 0.21095322144883255 0.006646941887822777
0.45057966010034534 0.22003858381506802 -0.004584092355031544
0.4390029229187462 0.24578448618865423 0.15799203452564825
0.4210645682441907 0.2125290940013116 -0.032853509999128505
0.40252835288001165 0.21810154103881985 0.004473557321318822
0.42636424750554625 0.23871733124566674 -0.00736923966815084
0.4588100410442735 0.19424762543319218 -0.06430043500328964
0.43640615457948684 0.20761449786772346 -0.01070912018390402
0.32283743196518344 0.14124815675052105 -0.0623563064104502
0.38856151667565086 0.16258468150192584 -0.06756463003671342
0.4694370251614828 0.21009543229658334 0.022751512360201787
0.42462561102388463 0.25527528187190285 -0.02669756730267636
0.3490903733417099 0.15730813474715433 0.07436121458314915
0.37017797220592286 0.20739893386404162 0.08123281752058631
0.513821227568954 0.2642324187450811 0.01954379140158835
0.5198623981840598 0.23223718503477642 0.023387429142900373
0.4094601147973691 0.19781345678998719 -0.0067215549441357325
0.275075664372082 0.23880366807922826 0.2985192069372147
0.29193205662814137 0.4256740243546062 -0.01801405624026131
0.29066872475448235 0.2123945594657073 0.05422326943504174
0.025638980808309952 0.6810177265410289 0.228565547143603
0.4245354521643492 0.2646538930710278 0.034505056475580886
0.4228811187677053 0.19986950647952995 -0.02207721844732191
0.3862997250501934 0.2188208572089252 0.001876948794887312
0.42218807860334095 0.1595984512802886 -0.06632683248855642
0.4106395973754928 0.23884182504772866 0.05711263724855087
0.43297529189879924 0.23243845609702873 0.033268724201647615
0.41968151571605006 0.18087218031337216 -0.11352580092594167
0.38987470912610434 0.23835393630025692 0.03992337401086843
0.46598877840015973 0.19701197586059038 -0.08438541583984716
0.3651599421805827 0.2026156564774908 -0.050344573187231845
0.35486231406331115 0.25150917200141976 0.10592167564719546
0.43229921629946944 0.2399648598083104 0.0677191647980635
0.4310186448059312 0.22800229242417913 -0.04400040704371122
0.3670603655108664 0.20639438677773114 0.026432386430570887
0.40737040339320174 0.22669027770103867 0.03760895576021994
0.3827942321113653 0.18150205040385003 -0.0011106736126578198
0.41580457718485775 0.17116545180820708 -0.05372715743780532
0.31652928114590395 0.17699328764112465 -0.05899555357919439
0.4981042048349309 0.33997768768020364 0.04567431731932459
0.4693115558581553 0.17522017180056082 -0.07756433471993773
0.40274539700321554 0.22351678738340297 0.0006545749941864187
0.45766042203780444 0.267441695299766 0.030736590438138478
0.4351474316557926 0.2330048171060639 -0.009768765497867093
0.38658692118607973 0.23179650321370104 0.029535751053458625
0.3251585494801361 0.16626377441838258 -0.025964696923693964
0.3104766883010939 0.14141563916798816 0.03769075440590086
0.3996764375565647 0.25883860080645604 -0.0005920076346797032
0.814658162225669 0.08078336831601973 0.06284634937176747
0.434385785222446 0.26437852673825546 -0.1560211392037587
0.3536398559240297 0.3657351876311168 0.21892309504774232
0.4351425908826627 0.22456683364488583 -0.01858124091423008
0.3414807585446624 0.24819398845910712 0.09960909058978018
0.3892595618293626 0.2403648380850143 -0.033019014595197405
0.4808923665924567 0.23956365412345804 0.05793195203003165
0.45563203810925756 0.2529874466181923 0.017150278391227403
0.42430063682087393 0.21923956827654933 0.023051928577530134
0.4218202856920499 0.2403483966555484 0.09291955478452962
0.35493449233852914 0.186643775124395 0.002490967203740979
0.3383932236883993 0.24434677526096493 0.06689601892514929
0.05018276372985042 0.397680135880762 -0.26879598881498623
0.40689269852158816 0.22687526596131136 -0.03086744876202374
0.3223723730333745 0.21925069968852995 -0.05328236879972792
0.33886610621676994 0.19192095104824602 0.09477561757751118
0.4091667372341732 0.22533246357420467 0.04942739374473604
0.42510196790384214 0.21929493690689128 -0.004686297127506123
0.347385134009329 0.17075379064031893 -0.040352568207325135
0.41555967355071743 0.1993726379533598 0.004538782930083585
0.42989153878781394 0.1753962874192041 -0.08107154606619815
0.4478643066832575 0.2175911511482127 -0.026910488428825374
0.42833651116055194 0.19328586103674184 0.04565578345538768
0.4263652261102493 0.1953769998704047 -0.014981063543899609
0.35206603539270986 0.20574365363717106 0.09158805633850875
0.32306836508190884 0.23809708616231262 0.026611040654316298
0.40598156416939446 0.19395150997004862 -0.05957244375909454
0.4425157498165504 0.2294086007830174 0.041868532615680465
0.3862525524189948 0.1848716653014435 -0.030038881635988446
0.4518268645804824 0.2414986274662283 0.04872895498809271
0.4152228919980274 0.19577787767420318 0.05641138471138163
0.33737598958518333 0.3717376635021594 0.23494892336169926
0.27506934479023926 0.21785298634591754 -0.10605818804688738
0.3538882035045674 0.18148625692948883 -0.031152161434988557
0.3750300537126918 0.21373979807290766 -0.013951894206300608
0.47767989741312533 0.2177587866316344 0.029748712984286385
0.40490845913265616 0.2312250583030675 0.01650438897243589
0.5025927099977707 0.25649072245076354 0.03226902321614489
0.44192567852824993 0.2003199014610857 -0.05040392447105546
0.33949863285596393 0.016982557076133276 -0.2507553611652753
0.44907164826423696 0.23489704610722129 0.042855511396311385
0.45350532643786323 0.24532787333615147 0.013766831771391708
0.3627295015790537 0.2454119922977327 0.13059738172745483
0.45148546324725203 0.22241481603720104 -0.00790257982268372
0.5329053569598159 0.25062170761572133 0.08448481921331563
