# .PCD v0.7 - Point Cloud Data file format
VERSION .7
FIELDS x y z
SIZE 4 4 4 
TYPE F F F 
COUNT 1 1 1 
WIDTH 798
HEIGHT 1 
VIEWPOINT 0 0 0 1 0 0 0 
POINTS 798
DATA ascii 
0.4769886586766603 0.2579844490089158 0.13257941490391545
0.3742961446841093 0.23710966214274265 0.08471717534507661
0.32772283477387987 0.17642777200885007 0.024872500270618048
0.44813198400942156 0.1703916274311723 -0.1296215769447997
0.3727315603048993 0.20288365140554276 -0.0420491947642887
0.41465314799127384 0.20141885122370695 0.0002810831613970777
0.22150447016281305 0.21195926242896235 0.03365053191132006
0.43410167562396396 0.2703085588853753 0.0471076864217963
0.439025337297295 0.2565027301152156 -0.07479824710438265
0.4244368518136099 0.23595523744259594 -0.02040790442498519
0.46677659206645217 0.28359801877510904 0.014289682786753133
0.40332178707288335 0.20164950806085358 0.03171876090570436
0.40790435257117963 0.2095429504573474 0.0667877998924098
0.36945693906480415 0.2180937386774957 0.0024343871344569834
0.49136484480166587 0.14894168893152937 -0.15192757914311983
0.4118565104072758 0.21936104622554353 0.04026606325763282
0.4241471104364791 0.20926343397644587 -0.012427184415770398
0.4473249932061094 0.22423620128606103 0.007712626852082849
0.4179833411841116 0.2094194032725909 -0.020451310881867357
0.43636234502895377 0.26081962725773167 0.041156859989257555
0.4135107352937837 0.2439088541759702 0.06850634833381264
0.5766254466190333 0.3027583767335926 -0.32957936094783236
0.4134090393794736 0.21084524468153631 0.020035971110274886
0.36757103508838895 0.2483261813230797 0.11951635446033038
0.4252462832873505 0.19329362473521883 0.025339821111288074
0.5440982325664834 0.33952304042671244 0.1437008433244813
0.4195941748084806 0.1945320222225746 -0.006015495331212151
0.43057170768712183 0.20479478186584288 -0.00915409945989154
0.31280908773034355 0.11182172815121305 -0.20666656856892018
0.49365118552793774 0.20949548276735186 0.012172989514766641
0.46311587937849197 0.25964537467801563 0.009102656579216273
0.46403439122669 0.22567646390115215 0.016502064213000267
0.4529374576426335 0.23083718984617008 -0.02334802868503516
0.4213158909071524 0.23758088922235743 -0.007340477785589883
0.38501080595646897 0.1417602747790454 0.01915818723313123
0.35736689252490805 0.17193823490157456 0.006864796002119533
0.46968131306479677 0.1765590828082395 -0.04407765265679586
0.39024033843887196 0.20304252766550235 0.0042950865958175655
0.4103773153587298 0.2351249738178467 0.03551058274757679
0.3842283832427711 0.1819884608425042 -0.02084943090446245
0.44537002198413234 0.18916859085615556 0.031094777477278512
0.4402044937079097 0.1626590417289151 -0.07677028906618943
0.4589292861507914 0.10823079986026585 -0.019826775844819622
0.41838407352653917 0.2065112304585881 -0.03161178752591809
0.38829956305075086 0.2187271717458259 0.07434763123839616
0.4051050029610508 0.21613633044994174 -0.025151360342675844
0.39292380089727885 0.210633418669687 0.038217794003244876
0.41570868511598746 0.18099588252252374 -0.013670617469188073
0.43612029978248756 0.22436319543456307 0.0024571851805887945
0.41604517535574814 0.2192933406729196 0.0442808435107338
0.49703839062357247 0.2023165335036765 0.08283180924824762
0.5076292359359513 0.23972661038369836 0.0590060864071944
0.522991510225495 0.27047472800651917 0.060741256079865025
0.4288414210423497 0.20816639863612352 -0.034577416706966346
0.4132526284619189 0.2361440070045404 -0.00742093784273834
0.5013315087329602 0.23812962237823854 -0.0022945016560669274
0.437933283147089 0.2125109186953722 0.051172728342237406
0.5133968392362362 0.2529258451786802 0.04672878429374805
0.39961925106057095 0.265161321594519 -0.11125769830175614
0.44641632797313946 0.17011190563545142 -0.004631889915216902
0.4490391134903291 0.2008652334329497 -0.09815616590654486
0.4219428139511052 0.21376487548951673 -0.01266393586115555
0.3984103034886175 0.2164575719048969 -0.04810194615879482
0.6387023671245231 0.6393793053961474 0.5196227528829809
0.3894249229802824 0.21162965178230309 0.057739317318379335
0.43778434491983376 0.2761244715095046 0.01262323440883506
0.43588358328602794 0.215757934051652 0.015498665249083388
0.35969634854657784 0.1575160050564648 -0.06783413066528965
0.44104775217849124 0.2512692512510313 0.04520216492373663
0.3001372193776888 0.16260804090644854 0.0025016269350430775
0.42337187726516845 0.1597005898419468 -0.029845672328775663
0.4173233588301599 0.209464164396735 0.004413168524905586
0.4538744018533123 0.21153795868285385 0.02304672633312066
0.40847064981812764 0.1875294008001731 -0.061031462169609085
0.37046765046650876 0.18447549490838355 0.04565081564382467
0.4641375791912452 0.22375027406769732 -0.0008713382156031457
0.41261975096861647 0.22929145129111816 0.017008240775879813
0.36894968364374847 0.2539848656868742 -0.05640666215674628
0.40474232389820486 0.23291677649051223 0.022784761134857945
0.43834310576123414 0.18983368050410832 -0.05302754482806904
0.3319664171564227 0.27582190166910436 0.08635858919890893
0.3865049714337374 0.2357763078904469 0.009651566246844823
0.4485624123441312 0.229507977061445 0.01138611403061418
0.40962583699784716 0.22642003220551032 0.01869583302259059
0.43287551697981996 0.21532580419207648 0.06299932421646304
0.6645229542929485 0.35415075269780516 0.21905477070819757
0.4041247260877441 0.1847190639755638 -0.003978882134134665
0.3041866900008898 0.046602033333130066 -0.19653090175975763
0.36745007895001436 0.23090881757579496 0.009416001641994853
0.39519208297986097 0.20846829621362417 -0.017103754072905986
0.3963538112909788 0.230824035378987 0.05927307696337891
0.4228908490419201 0.2492321683009493 0.04696659542636894
0.3738131936294593 0.23759447967071878 -0.007763940195246732
0.49531873281424055 0.21836355370311367 -0.034183786659696125
0.4204030384362625 0.2721090293283339 0.07176799047451254
0.44948359957948014 0.24231183831153658 0.01973045730063916
0.4002328791898151 0.1058298464326839 0.022218825501653328
0.39851822821941596 0.2310947703342663 0.05120140040372689
0.4457734492351335 0.2699727909466958 0.01590562462385492
0.516425115209401 0.05982385250212019 0.08495426402819817
0.38910039844199673 0.239593726584431 -0.01735629923487636
0.5003212742128653 0.18951596203467602 -0.014156143960860845
0.5272505628889519 0.2306267665392454 -0.038461262060394574
0.37241467721236177 0.19863201729984326 -0.0654576421149784
0.4605371333607309 0.279216747997566 0.01749867761938617
0.4054454843211772 0.20355132996832026 -0.02756518676159203
0.39579499265671814 0.1868186975283237 -0.02898470577633816
0.426822595323074 0.27003416971399474 0.00955650618041659
0.43233228104043064 0.19992981636283957 -0.074029894729577
0.44916520000040805 0.25223293492229004 0.03525927551548591
0.44206091523429336 0.202844703163521 0.011878712148089221
0.38304431110779547 0.17349423861355717 -0.09326725440544692
0.43768184065700666 0.22758240127777185 0.013909181565807671
0.42276686219759085 0.22038756125732561 0.019352277865351653
0.4134455460786768 0.23725484697732213 0.02681677648942582
0.41798994931308187 0.21512736612027084 -0.0079618972109472
0.42005730547600706 0.18533442462465644 0.024183352773050615
0.480988811276859 0.23558260322803903 -0.048610231568886775
0.5143751096666023 0.2613337294721134 0.0132317927296981
0.373643053879988 0.21699802470980956 0.1436605089300258
0.37221199348783784 0.19096048095369156 0.05098671844228875
0.4341060852125622 0.21235157110379532 -0.012252779776645184
0.4151995519336822 0.08132994558374662 -0.10069310429651068
0.4668074962661706 0.2486489467628985 0.004667413513004703
0.2786874954932159 0.12770488332927243 0.011841514725148272
0.386421716440168 0.17877867475118592 -0.014029969972199297
0.42090412341693195 0.1857857185440821 -0.030263956036861828
0.41611854087346956 0.22564212615483825 0.020045153444101516
0.3992704098979516 0.24765970786174307 0.06636311886461499
0.524593140798288 0.12647615521196087 -0.06266046921794555
0.3845308592814263 0.18217374677922749 -0.0423586880839224
0.4418090354450328 0.25448647384378376 0.03568507868241966
0.4175843672034887 0.21398457927415393 -0.011739617424893822
0.45418624463141555 0.222648896359658 0.001949339492611557
0.41909100090461493 0.2703937288476368 0.03971194093085728
0.42031678951053664 0.1980775400754453 0.07141806888139968
0.35435806440798956 0.17122940759898597 0.012908302048941778
0.3697671534463325 0.22476214933126926 -0.05354020707778773
0.44867447928737647 0.22030177139704676 0.005598332818493645
0.43970533490434605 0.1930281051333509 0.011095841244127769
0.7036309373344523 0.17601474547367957 0.025865745281407726
0.3827072451429103 0.15857795770465088 -0.01360063529529043
0.3976598948499799 0.18982692336115292 0.0019614407516996835
0.3832888533380867 0.19736518698161376 -0.014115269676011621
0.21766390268763303 0.3409285940545317 0.10983167378257974
0.4370274468679298 0.2416265608740389 0.10352858755669558
0.3533049931354242 0.21241954187158285 -0.04026747922341656
0.3799147405418637 0.32580257822051806 0.10167881672634849
0.4904759456018155 0.18259988879333378 -0.10272959332901621
0.3958639834061728 0.18528146974804827 -0.04997538973394455
0.38588313302690835 0.19233502286130033 -0.048447046855500275
0.4458189175024643 0.22147426468038134 -0.017173430027355607
0.4244431772973627 0.08163070612405932 0.2580849837838741
0.31244681768313853 0.16161178009899402 -0.07542982392448039
0.4104756182129563 0.23771731099594717 0.0971779776691335
0.3492167268757953 0.17596644459860045 -0.019172186718407147
0.8609830738883062 0.5791801993371166 0.34654484143665343
0.4269165963156354 0.24016452652250564 -0.11770390316466717
0.7092841840300821 0.28581808674522335 0.12297869756008595
0.5098648245123911 0.27556229991623127 -0.02531486337881006
0.4777580133035002 0.23841986805726378 -0.018674918204226287
0.4733928306534949 0.23297171210842293 0.007069370665789165
0.5195812445414987 0.6215003012878668 0.34560585929668264
0.41190820747046075 0.2252486578551327 0.013037736047067483
0.45971318094126445 0.24113468728904763 0.03317937059006226
0.43770928251427677 0.2458648752245267 0.09920527862821871
0.4885719387903862 0.12788424284816813 -0.04446675110496301
0.40171584538703087 0.18830968732322617 0.030244926187322108
0.44707769854261414 0.3040510737946249 0.07403643587662145
0.45204528544982736 0.22455110393676136 -0.014429538788377272
0.5110676958909437 0.2493730376043004 -0.04078991237670948
0.40006741265963797 0.27355067648583997 0.05959768406570731
0.4293336747816028 0.21243181533507993 -0.011886712877000605
0.4534270086765986 0.27197346891249197 0.11831218404223875
0.36585178863647627 0.1658340986699045 -0.015116460390601105
0.5391620982135521 0.17337350295559872 -0.11241691439258261
0.44313362322949956 0.24943696310012342 -0.05603495260163527
0.5959704644393327 0.15117073608435305 0.05316609641815262
0.396611035938065 0.2419382630485245 -0.00921251734547468
0.44356888372843173 0.17639572941919823 0.015540354699581371
0.46443922992318676 0.33688830943611947 -0.1632496859775472
0.180758948054347 -0.04339292634584524 -0.032433824695317526
0.4561173724214598 0.13792727670619342 -0.111396317900045
0.48796619322993706 0.30754575450009725 0.04243450933505244
0.4368499183090364 0.2504588246858077 0.09987118941515405
0.40664970139586387 0.2168149566870312 0.007349685198761335
0.4930541615827053 0.2541290539925285 0.04096377564607678
0.30427219545393314 0.1431475980713799 -0.0918885504582363
0.46659674821019337 0.17474888402047384 -0.023854618571760966
0.45989276097179754 0.2043597505758754 -0.0537379306838659
0.4250662364303679 0.22118336029095076 -0.07605545441434458
0.4540116785809971 0.3623877415533059 0.08149049216555682
0.43873722815388305 0.23963918407707752 0.008437208765712967
0.4079075688817113 0.20342845588697855 -0.02416019797688307
0.4253231101366026 0.18431286644931788 -0.10806464657053994
0.43028476763909396 0.2206767240239742 -0.0008799173753004652
0.4402470254062507 0.20517316701710797 -0.024920147847808494
0.43673974508513425 0.23666950427326583 -0.027078897227241328
0.4348705396704702 0.18398266051472945 -0.04176850199471005
0.459464163665416 0.2586062504436768 0.2021385835058851
0.43095084480103196 0.24594746930272038 0.06697352333335971
0.37284011420581464 0.22434172981895983 -0.09119954425091237
0.421270453606823 0.1978844207021524 -0.029479955251701995
0.35702492998061075 0.1896036892474342 -0.08724273235941382
0.8632611024027597 0.0938813511300367 -0.2760782875187715
0.8755988695065469 -0.14625682137011609 -0.11577130197356666
0.44776766580841354 0.2238059723856054 -0.0008520790764237063
0.5668259798377164 0.22124371789522002 -0.018074434374128145
0.42328928027859547 0.2332724524459593 -0.078593578733404
0.43753226675644896 0.1822629218326881 0.005489763500349909
0.46065689223344464 0.24243377123627852 0.017781862197367104
0.4874705980412557 0.24485958935142094 -0.06797482397146837
0.4246039392470209 0.23349663622789762 -0.03898454853199951
0.3884301989990604 0.16638668140203094 0.051153206427287046
0.4307311366704596 0.25205386566332777 0.04152378948982971
0.3457870287969911 0.1768389496511702 -0.010538350630355353
0.41432806529564914 0.2386997916502196 0.07651028150388584
0.48379345897545534 0.2474281004969896 0.02327079105947405
0.45006959139575997 0.1564874599599193 -0.019438472681912344
0.42254222436206135 0.13308218299130203 -0.0690575543796399
0.4609443800192139 0.24555155759422576 0.0011732388365999213
0.35262845173983237 0.15652337015831108 -0.0216830699094146
0.44599323506712096 0.20124775394754124 0.01386275248805191
0.4933718285036264 0.2461787880639008 0.04678869843317557
0.3214070816566732 0.25210845523189107 0.09826911840141861
0.5636396501382137 0.3558819524584891 0.0014182107379383524
0.4244258377747201 0.23280370866747546 -0.004657073134453071
0.4058074549903381 0.17496322298279665 0.018373511927862296
0.35116668731500056 0.20211083966223953 -0.00509079049106731
0.439003747249032 0.33164267026427297 0.00621137661809712
0.49743783712382594 0.2442941807507566 -0.00998315202595279
0.3959089578895032 0.19960881649765838 0.050145195471770876
0.41798025450907517 0.20817557986700308 -0.011315410686535188
0.48562389468565925 0.25635460169331736 0.020653127675302585
0.49041775237915886 0.2435341915621052 0.03381098011882955
0.5543033192615212 0.14069481859186794 -0.14274970535467446
0.33795889307610594 0.2656987994380984 -0.009650099764073161
0.3395819832334297 0.29632120853875676 0.1888765792634075
0.5223705256457407 0.21804084302746674 -0.0875159760155384
0.2616504720508459 0.2557586758911725 0.20637434062618354
0.36048853789274915 0.18763846676422702 -0.02154416230976608
0.5076772646512211 0.21772690635367553 -0.08785119923351203
0.4192193004904823 0.2150698788676948 0.013512394881502132
0.4647129044525684 0.2507147499115945 0.03143009297997423
0.37530714840103485 0.1969049981988178 -0.024613115571071376
0.4537002543914639 0.3124015315202229 0.06514141627071979
0.4317814732632428 0.1840766435433494 -0.024270565405885236
0.4266238753420737 0.2107708867071949 -0.009858114390738137
0.38116040977240573 0.17770497721846823 0.018447653673206332
0.3094652663991724 0.1948109249386789 0.005804023714176765
0.2870804195414678 0.2420914627330717 -0.09778846343064629
0.42088883267059884 0.19277137221621388 0.010872901332334095
0.4081442894500782 0.13962098756900332 0.13955527566892556
0.43178520135140275 0.20004880208284703 0.007328167762779003
0.39780202434853607 0.17979928086640484 -0.06128385585446949
0.3799367895735486 0.21434794595239737 0.019792260155995223
0.40861539052417584 0.21941873216140095 0.0013774505254389169
0.4800886404632507 0.22873484791131204 0.04707181799548721
0.3208819432698533 0.35828737107826214 0.054844490004981594
0.47990152285748877 0.2524733630736762 0.07978028596544107
0.4896922276161604 0.2904917008874577 0.05015092518584652
0.41381872618535454 0.2613140381098873 0.04237058535801452
0.4141224613916563 0.17598395273711276 -0.09467757889541417
0.4018683961534748 0.22173496683799954 0.029005587708155645
0.3338053492933142 0.19551383659758415 0.01762457526842809
0.42865622116605095 0.11225831901793981 -0.33853406980270506
0.4311596960666719 0.20734638282667106 -0.06703275840126821
0.3619699284387252 0.17382112159012308 -0.10104253841996069
0.3762868541329567 0.19467762707395764 -0.027821358439382493
0.4166906009502611 0.20695356305688506 -0.026935892876764456
0.3499589676094672 0.1919137889334479 -0.033540650113707215
0.49907180572546395 0.2000128371756773 -0.2327744862752752
0.3307607575340512 0.14757316994159453 -0.011745440749251657
0.3928295261109014 0.236128885853077 0.007507101167021801
0.4276456542812923 0.21055728591002776 -0.011139391316760339
0.3970415600199857 0.2144432330557322 0.02315088867082693
0.4298484483178129 0.2659875114264594 0.2510709285383115
0.43437430734165616 0.24663256402125455 0.10545418161594
0.4060418683623652 0.1741089414500152 -0.09324964523037238
0.46052064011726657 0.18319090474940936 0.11601515362693249
0.364289804447111 0.19716588656028478 -0.00306882451101842
0.3369339779832501 0.10995710411012283 0.06257794938133543
0.35591158837699766 0.16869137462370531 -0.01476644870544419
0.3451634752163102 0.16379974185042556 0.10669065718354886
0.34711079111940535 0.15414362001945392 0.01626227230855193
0.44848554538398844 0.2013605521665056 -0.05288849586710853
0.38304050923963473 0.25575575800542083 0.035806664913820896
0.4167669664348068 0.2130483841778954 0.0027958546820059382
0.376118149430539 0.18917979223775205 -0.025770289057376772
0.43141165911258383 0.23890099636147966 0.03305841480754168
0.51792117975873 0.21527046137657635 0.04031344260209835
0.40333244688773107 0.22237006023067352 -0.057263464144625686
0.5301384896514492 0.44277328703569196 -0.06610779072028095
0.4391897527115134 0.19821977560346227 0.014638900170155011
0.4344437303049915 0.20095197128620157 0.007350396148240179
0.2571904478982958 0.2542084789826049 -0.1059655779417028
0.4457803543429293 0.22392727742962393 0.05170150523295547
0.5176825972540371 0.09241387769405662 0.16078984391918993
0.5256815736771046 0.4324841995325812 0.10430213703151026
0.35194040220004297 0.23849124020628665 0.05737120937733664
0.5837136234477782 0.021219130477788894 0.039606635563842474
0.4571620725837846 0.22564561840681563 -0.04439631107919695
0.4435139927679188 0.1551698083415829 -0.14048865651700737
0.4271403453397795 0.21510095523620976 0.030625427726562293
0.36968896627021763 0.20853630057656858 0.008559699030698198
0.4325920203248472 0.22989718910950785 0.012048465520322793
0.3728227284618697 0.191132625490269 -0.033859449046701684
0.4702580036173032 0.25372963427450657 -0.0010987440204672794
0.44334346916460277 0.2090735998191775 -0.03643752844530468
0.41138598878694665 0.22262304848959502 0.036580266040914466
0.46157580942605136 0.17790949207754636 -0.15341455434219142
0.41295768006148137 0.20711209282464438 -0.0048556683766491915
0.4096453206431079 0.08760886082585273 -0.12769162201408335
0.447507010634979 0.2526372205142593 0.04474680995994618
0.5840888857654818 0.3193922431815963 0.10379254877682342
0.37269956658275305 0.21986644428960744 0.010425280532501802
0.5427031975038688 0.28514288863387094 -0.025503534437774533
0.3753182638997856 0.20067373646821807 -0.014190506897790556
0.42866442106856084 0.267900815531533 -0.01207060890240541
0.42698386294676993 0.24393415178165867 0.0011313005503552631
0.36432147849049556 0.20909772852601805 0.11292910307300019
0.2924415311915425 0.18143228144751333 -0.039484962590393025
0.5231771850917255 0.24560467680093723 -0.011336818054672904
0.4559320147986341 0.2755059528994792 0.007118233807887009
0.4187302895889218 0.2241459340559402 0.0005521540892345911
0.42525358704475025 0.2040328654462087 -0.026485586388304228
0.46112330095668597 0.2352724830121531 0.07514157523081622
0.3473859504507857 0.23374302899810573 -0.1340581448771161
0.45675819523384575 0.24663556111623564 0.07746164779749165
0.4793842428312587 0.25513843179028584 -0.0010076540836507775
0.4115469338705964 0.20049870433707895 -0.02763533952715136
0.27208377504643977 0.1207470536393771 -0.000471133272753832
0.39008962680316017 0.19737427305474853 -0.0004679286220010681
0.41808021106061233 0.20946160051161655 0.0014271593586272502
0.36810750969956985 0.17705471802572958 -0.0008693315507599664
0.3068491241202054 0.17796070812056541 -0.06651546202027703
0.41208042387168575 0.20535075615336496 0.010761034859484653
0.45223894721777924 0.26843570453442567 -0.07862674995607222
0.418822403071772 0.18001028106704098 0.047390124312698845
0.3811080715808828 0.22284395279919522 -0.11176472797720294
0.44466364366421374 0.18683133692753984 -0.0025913805245778576
0.42919388326662045 0.2247306932391666 -0.03545970450261393
0.27249656410563716 0.17765114910397983 -0.1326582913654022
0.37236278624830277 0.15845619268688438 -0.01185910678260882
0.1444976482718232 0.3759378500154469 -0.014555864027030907
0.5861382816726461 0.1954746502225504 0.10132487863094752
0.3680102734989532 0.1891847085625784 0.014871264896456182
0.5109812831076113 0.29168407459280843 0.07621135372998822
0.7809951325991875 -0.21026960452782362 -0.032178275655411426
0.5453585497193956 0.22331250707057393 -0.1700624887625395
0.421700340645188 0.2307909063216016 0.040676644658972805
0.34356447309536975 0.20488459809077142 -0.05624016833289147
0.45834413031764143 0.1882745921208624 0.04455924695349722
0.5991037752210957 0.05173913989784751 -0.16884840584313565
0.43243296601087877 0.20863259778548127 0.0016390768959411162
0.40322124039545315 0.22694704567001622 0.1010802567890039
0.39539999756942734 0.1432126877941613 -0.018253404205864854
0.3996795946660683 0.19445132744112925 -0.13614995916404382
0.40027612899172027 0.22523280491805053 0.029768319143926192
0.4136498946446352 0.2335770413442475 0.0037370110829897385
0.45510675991170046 0.27646453979923535 0.09066881342589284
0.43276891223803204 0.2418638728364897 0.12910780619007767
0.44950805815116723 0.22807162798430625 -0.013189014817555744
0.43839224640007046 0.2372865143802727 -0.013458430988833925
0.43735569996039203 0.20090291505407265 0.007252032004032571
0.36500922175936523 0.22430190625024693 0.14350849015673361
0.4445197037581181 0.24321611654956143 0.06723699765632318
0.49127333070910595 0.24098605797405526 0.024573687408960154
0.3597538861966143 0.15572918028115623 -0.051025699944332814
0.5250048997827008 0.22205547966188988 -0.048044223797262475
0.3802082502680406 0.14689969036322736 0.003338102974822732
0.47214425478881594 0.2520839716825094 0.07322698347701362
0.3295848391594234 0.18157431781362732 -0.006252941452288496
0.4302673560739265 0.20079189844460643 -0.05862918626418434
0.40939367542671334 0.24186164608707372 -0.01975471074968027
0.4060597675062354 0.2186410877244498 0.08283425301695502
0.4072294775674692 0.2127466913617866 -0.023412282240258264
0.46646024184794044 0.23540705138178453 0.020765408791817208
0.42586300372096275 0.22264533621968496 0.052628305597295366
0.10402537689799374 0.13843411369091996 0.41368555694052134
0.5449563263158552 0.2874614126384927 0.08045999023931927
0.40268827055049883 0.21722655901859866 -0.02959059387919183
0.37154707419324495 0.2421455803321777 0.056243375131430184
0.41294383367058174 0.20220553105448857 -0.007233837311616753
0.3973211581806595 0.3888099120149775 0.31466805141837995
0.4280557212798328 0.2036476428821743 0.03588336529560365
0.4152450522521747 0.2175260046476808 0.043763371235115756
0.518043916584773 0.22291796352351412 0.03998207643576279
0.3392427257174404 0.26025492957603547 -0.016703087022335694
0.4280102318789716 0.21767970948826587 0.06146244351791097
0.4777295696059696 0.28426025580648684 0.0671050303251377
0.3448907802951169 0.2226069713998129 0.07576769780590098
0.4136407986681263 0.21499671692149036 0.007874618626516394
0.41581737391403806 0.1952731469166622 -0.00301336491146742
0.40394690771873343 0.20517583794051575 -0.027150427843054104
0.386422039688469 0.2221656124670517 0.04247981368894216
0.3387490624218117 0.430774762339297 0.2681475715621957
0.43676064589635644 0.219056017188052 -0.010737311459877219
0.52830256980927 0.23581743675137545 0.08516761486805535
0.41038471758439243 0.21151333430071872 0.0877599252031871
0.7924625843281774 0.18628658863431724 -0.43369812382380246
0.39552299855577644 0.16052417172471678 -0.10176248751061223
0.37212438059711417 0.23509059167288626 0.10955011632412948
0.31787400801081844 0.2209777220215159 0.04976629084293904
0.4555614865555526 0.21562565860148197 -0.014070377168366122
0.42483016999183576 0.21944462707929802 0.009401530759362231
0.4450393674270572 0.1866429533480698 -0.007963404423477982
0.4173196714353935 0.14294091868755743 -0.05621247724195655
0.34798636039707276 0.17712361458390546 -0.013166394594307462
0.4236800957647233 0.19712251069094577 0.00100212619145168
0.4090056697413331 0.21191527085447603 -0.016048233781702947
0.3576043830068443 0.37959593760280086 0.19236194067553924
0.4119367889962575 0.20772394215558165 -0.0028823221247762376
0.4516322119795575 0.2640428228946945 -0.0924821058513885
0.3960096807725222 0.23474530419528605 0.015486449528950175
0.37426087613135905 0.14827390102811933 0.04543340353819758
0.4264558639276288 0.2098338398922266 -0.009924964775308354
0.3828220012579493 0.2487831969635721 -0.11153458575947184
0.3952457853999931 0.22685606670913216 0.016853927152226333
0.35096651246102795 0.1555710831354986 0.010194363365982895
0.32988658147246497 0.18488005268187635 0.012700851597244878
0.5443668482713804 0.17211444949670351 -0.010327500612191898
0.38348590957150464 0.17425198069076941 0.02093160024614349
0.4100499619661804 0.24665479254460365 0.024744578400799355
0.45531164946666536 0.20082888872883586 -0.12165498049536438
0.45360207065255054 0.21084484453581354 -0.09683303696087364
0.41042266502350344 0.16308723677620662 -0.0784732947978739
0.42024544825005705 0.1813074121204039 0.060218999154727726
0.4180690587211586 0.2514897403614782 0.0728636166148533
0.45737173131173847 0.28732286851007416 0.09379452430228241
0.3200255773825802 0.17742217369890056 0.022705173614411933
0.4424226989549709 0.18576958256622333 -0.06683333454677154
0.3984317531097332 0.21647391381580405 0.035046387904671406
0.3674957382366131 0.2228711239504264 0.06288562356564853
0.5399571322547274 0.2647366193865395 -0.004082177095710904
0.4231063409981033 0.21642999355476888 0.0021439973823476066
0.4078523523402282 0.1918928674074607 -0.011185785303609919
0.42722377069674167 0.2596748867438521 0.03955249071243827
0.45983752284311663 0.1943496917433123 -0.11219132247325092
0.4416138672696377 0.22988398066645743 -0.007384470351652794
0.321503991203798 0.15273393113635336 -0.007359569223410745
0.4564319093799867 0.21575048174658207 -0.03664959832880754
0.3910131693986756 0.21998971443278492 -0.06366704398570278
0.4035657392798271 0.20229598836121454 -0.06527275324407356
0.4115590888271754 0.19509704431997932 -0.030909122789324783
0.3781520465733763 0.1831429044897277 -0.045084588935196734
0.28375474847518944 0.3307765518426322 0.12788849853663464
0.4354714313855226 0.1946877039348749 -0.05602160339530826
0.39782392695443036 0.1588818427498495 -0.12312598518647633
0.5405083266427368 0.1892459669477944 0.1674739094274429
0.36064937188291424 0.20272315909608096 0.012768023895162628
0.42738343759937436 0.20011344000123188 -0.029724921411428795
0.42162868513202056 0.2053414459213201 -0.024782460867101008
0.4710789854203483 0.32432716811104 0.12745099742511456
0.4550380470172115 0.18610954660543655 -0.022288774392166033
0.42291979044060213 0.22414395307819746 -0.03743664248599998
0.41355991529769653 0.23305424692381393 -0.03372445210868591
0.4544062608124477 0.23264917360495474 -0.04710523360634511
0.40618769539078414 0.2093208774503239 -0.006664715810615007
0.3523315756777379 0.26124887080607095 0.01388848847111035
0.36055760180568086 0.1747587167079132 -0.11914128207470753
0.4023188269854501 0.20132928005786255 0.007102239127561916
0.45713587220319596 0.17977815695203958 0.023885660358786254
0.43391391079079256 0.23526562217104185 0.13857733976736597
0.4322136200940747 0.2188092015088614 -0.058398955771707506
0.4174807113377028 0.20913623011445281 -0.00946263516513568
0.3517494338883722 0.17113474467190315 0.043433841054223876
0.3599083593130956 0.18529650512694218 -0.03167904556201506
0.3933250922976299 0.2705268375829064 0.15391280129080087
0.5144628350519724 0.2850715785085356 0.05461143038704108
0.3876657880459504 0.1761860318967905 -0.0766692331893637
0.4034358960474549 0.26569669056246425 0.01950959730049817
0.4237757240132396 0.18007209278678715 -0.05189903921947803
0.3592331331966818 0.2168763718576372 0.04741957300259969
0.4191157035581625 0.20524274093726547 0.0065519394231046135
0.4326965153755964 0.22379799097144826 0.017141998864076413
0.4854118140700763 0.22507865799502724 0.0019657665511942923
0.4799332708436168 0.22031326000558238 -0.04430493231828336
0.339146507232968 0.14330180867450792 0.003618121865940793
0.38681193041642814 0.20285548065770342 -0.011066214272830166
0.45823946938051563 0.22885085388483617 0.04820670294648721
0.41703159561782854 0.18650064687952295 0.014412937087172395
0.45526726121761385 0.23976732553970237 0.053096312668742485
0.4486482566846064 0.2194785833340518 0.01250411893190062
0.3948331914590142 0.15910709149081015 -0.07530309282246606
0.48761276073892645 0.2510205789211568 0.0010268749071826733
0.4988058927380621 0.26179592949770836 -0.02237645967684898
0.46394917680277103 0.2725816840789719 0.07592625052288327
0.38721369546090045 0.17890621012885788 -0.02859090116049856
0.3610839418057594 0.2152417132263622 0.0012558603449122074
0.4200031874512149 0.17836745101229212 -0.0525890678925407
0.4849945706026517 0.21932310136571687 0.034462920191728585
0.42302680452345953 0.20039454884798147 -0.014473794631811643
0.4358855696490025 0.17110501355682572 -0.046349582044655335
0.4201215618890046 0.18099288613851172 -0.07588675993933691
0.4242706244546355 0.21812715526142767 0.002866189966269417
0.20262867940967055 0.5727273262909875 0.36426177319106046
0.3466513749276885 0.18902285594255375 -0.06271123043526927
0.42664886607568064 0.18706679511689117 0.048586568448087064
0.42425754238358593 0.18642434167772137 -0.10564579609176405
0.41444283522841374 0.16548457920546866 -0.08367821904721495
0.39402280302222437 0.2049419036832063 -0.02918377412798634
0.4127745796511846 0.19976473941977702 -0.016130886958052315
0.4174203274521062 0.22885949137938155 -0.028182219891817795
0.38081546629192076 0.1697200017778755 0.04070736703764055
0.3622007007863033 0.2041409764949691 0.06537235443221334
0.41853143924375047 0.22405700517734317 0.0055753889540000046
1.328008639254989 -0.6316643997019185 0.5867148026659521
0.5040276412328524 0.23917660258435092 0.06132991729701587
0.41398647634966323 0.14239228776105506 -0.04566316938590376
0.4289871934062006 0.20902263250249575 0.0009511331752776186
0.48571271367498525 0.215734112971532 0.0019146204072910677
0.41176109616644396 0.14998354657896584 -0.059552793860206066
0.3788170317424999 0.1853762709390594 -0.08259161101679524
0.4110849452997627 0.20076071549482322 -0.022769602400956046
0.42703570640409794 0.23772655824075173 0.10477441203624949
0.42659771569231 0.19541637055711192 -0.08943227064330017
0.41602623902738856 0.28243275549104396 0.07346629275937744
0.43471794978066214 0.3267266738493788 0.25828990575726607
0.47282539630691645 0.2543240002986522 0.05520870510366649
0.4133739283462887 0.28625165595337876 0.05308666546910956
0.4410263080836785 0.23676253311147377 0.0605017734885962
0.4228593167766803 0.24620598945949723 0.0027970380024271435
0.4286618896773575 0.2022758064851189 -0.01338274687644514
0.40316237543726174 0.2305041435630244 -0.0008100507773036725
0.42802206168417456 0.21228157293325012 -0.006220924424383156
0.5344562250744502 0.2000088958190247 0.024898752348747166
0.43420389761368483 0.23718078413378407 0.018840693609959658
0.23798820367110807 0.10119318411052802 -0.09428060781476688
0.415433571492855 0.21261520581512627 -0.007973719585407935
0.39731125209604556 0.19459262445315062 -0.019499656493323414
0.43857462657842916 0.25239530655289855 -0.006721279838430405
0.45125250682511364 0.2880138473192204 0.029486966689390215
0.39257992080564463 0.14723218991733233 -0.018765648717788963
0.4114201398035675 0.19412898891846453 -0.0016835536876556034
0.3983179209568988 0.19146614771084103 -0.04395350588248448
0.3967773644136514 0.2168934765508368 -0.047370405638716306
0.43886761447038225 0.2405002416464299 0.08882721308258112
0.3504659348697885 0.23461946043860848 -0.02082079123832159
0.38224921003534007 0.2076189645027 -0.050066101761544246
0.39602005202831947 0.19216018545267843 -0.03538827933496691
0.41702942967265244 0.21214629971868249 -0.032081451442792286
0.36267356316385246 0.1604825276697852 -0.038525825883880316
0.4456346261915485 0.22592310971484153 0.016030953436825257
0.40759090731144454 0.24105435994053437 0.03482944109396158
0.4079283214811511 0.20965235277276406 0.06876382993283414
0.38775519938440084 0.23814387890016064 0.10067159876916776
0.45727613368529774 0.22648819559279332 0.09571659009928624
0.43220399843360724 0.23444938110381486 0.0010079438266075158
0.5293025421304662 0.4094760061824303 0.11427904901435681
0.37278032521186333 0.1954697304291102 0.06605537279632756
0.38322786031218925 0.1940843489709323 -0.014921164156845634
0.4629212723317977 0.17550994810787302 0.023559660938190063
0.40382042153594 0.23186683816757636 -0.013314731098859056
0.39268620657075815 0.18490616810099425 -0.00601522053986514
0.45431895169045333 0.14144532536143117 -0.12390713341157777
0.2801551937692608 0.09763996994252011 -0.12872470688563453
0.42655286792088987 0.19832951055833803 -0.10029856345065014
0.5209284676119239 0.24937213767549338 0.04373514142866952
0.3894127579500548 0.19557056369473003 0.04113875825177615
0.4920618300728279 0.23960442308704444 -0.010548041750666926
0.39183209162322896 0.1878035431304994 0.03099927875146591
0.4684476350975615 0.293837422547071 0.1122829383913313
0.3130788131865927 0.139229037381142 -0.054762687448445035
0.452706900153629 0.2191201789688506 0.002880234197249365
0.36858366041775525 0.22352721095153072 0.07053907277969529
0.3890591734041493 0.3065890729284888 0.1306919126921855
0.35706716098798097 0.22082554746839378 0.17631356895601868
0.42918413554799884 0.2712390166597771 -0.08654921816105343
0.41700254925419245 0.23492464632793997 0.037432185894545
0.43891932556269353 0.19734921284464235 0.031118643954528125
0.40141748869606886 0.21442655176774394 0.05803958012047872
0.40773636029157956 0.21604023544503548 -0.020200772854607862
0.44560913885067066 0.253559680115103 -0.01610768976799193
0.5177926778567183 0.22656294711634928 0.02704004352914069
0.5040873844919531 0.23511857726586527 -0.029569140355590662
0.40543541173759934 0.1672658394000024 -0.0027008812503765967
0.3759512363807289 0.19508447010643692 0.04356073077242684
0.5122612079450874 0.19478552931850857 -0.07529901323759702
0.4349375247539342 0.21287035920549613 -0.012239923829966415
0.5216099875578664 0.21611930522641387 -0.11847622481852227
0.377453748244875 0.2184776971239728 0.06765149811542415
0.6693178452166819 0.3052778336269597 0.35816708567136857
0.501569195153607 0.2399649157538164 0.017587087289356873
0.4289813888590288 0.21297474021940843 -0.03328743912857135
0.4596959051395544 0.21690118906460043 -0.04011248646332888
0.4392254127834292 0.19920090957941738 -0.052027849705567064
0.39724801729758497 0.23155656045301498 0.13768308947297214
0.3170907488160424 0.15978241386251568 -0.1388731424630123
0.41185220539212253 0.1931603406659832 -0.019105551303368884
0.4573578129556495 0.25793228994797346 0.051277469845160795
0.4746032690673587 0.2641522261645548 0.01839519091966224
0.42476730796948914 0.16581742777174213 -0.0041319249438487304
0.4159563281295817 0.17470328914120614 -0.007773024797856465
0.4082280823806599 0.2093681010653512 -0.011010585897736291
0.3992808728400803 0.23735504030248933 0.028810020216354815
0.41013827270278114 0.194298742857427 -0.01140210175736911
0.4589817772456115 0.23551949648360448 0.0021484064243821877
0.4709681082629089 0.21262677501584903 -0.03732733632135421
0.4522564705751506 0.21468364900249526 -0.003399992776593308
0.4460566539748356 0.19861979648274541 -0.02294267001266803
0.41500400642405566 0.22894612958621963 0.023832973578279848
0.45849773028584195 0.16965770750772435 -0.11665921401078094
0.3588901287429138 0.1743865366010482 0.020362224655087857
0.47741585795171204 0.22851737053299814 0.0008003493034891562
0.4578948926932753 0.1742407649861093 0.5839351354002957
0.42310944804000883 0.2052536201890689 -0.028075395748615506
0.44057231121999507 0.21448901444344415 -0.017732728622306126
0.40210857959681334 0.2104859606339744 -0.04107544285099607
0.34299328812811325 0.1414338502378314 0.1154325682927464
0.43302371990603206 0.22913522576737932 0.015318580024512585
0.38549838749585774 0.32032071532324835 0.045806140086938285
0.44150108989036596 0.18843014319458007 -0.06574925937280796
0.45176436769816064 0.2701478715844985 0.0881339989678338
0.22219391538551747 0.32977267036469016 0.15541255737025494
0.4303758695419617 0.19262196286382505 0.01360512393046065
0.42993990822645856 0.2741948248282142 0.12874560320051387
0.3458666966978967 0.19167878561145812 -0.036552350230607544
0.4489636566610784 0.2409936670713364 -0.06043425683489545
0.4658502716203259 0.26594923163771966 0.015367463760924238
0.19324342253275972 0.4701732310879265 0.3462064609086184
0.3800487917013413 0.1453765709350705 -0.03922911588045963
0.48195378890164875 0.240156499969288 -0.022850935218428958
0.3688077707201387 0.1581323965320678 -0.07588671941419989
0.41293889263243955 0.23194584798520168 0.06575599439699431
0.4006592704414089 0.18607763992298487 -0.014050740767970638
0.4250718754681202 0.23633230755400803 0.03843074893279663
0.3072189226557498 0.19268326891098297 -0.06633445401996596
0.4898146732514874 0.20572439532503495 0.10971960585899865
0.41515714626382305 0.18709399675827854 -0.0793287364528652
0.3648197479619739 0.21187818899301192 -0.00522487990110676
0.47664419187653095 0.2586725549823967 0.02216416753520889
0.3489452772552113 0.13452678971718512 -0.0634124195443917
0.3827021549129199 0.21352648617379089 0.01228747429686905
0.426039616160125 0.15712972722657526 -0.18207057818671046
0.3862429660410953 0.19781313494200958 -0.016836189220327924
0.41276611928030604 0.24925531863446793 0.016921464024136412
0.3124516923938643 0.21880511600102182 -0.01983953705578756
0.4650937164691413 0.24924648338247835 -0.0401054039831763
0.3512313625652155 0.18787848376285865 -0.005522897747013644
0.3584691479595534 0.24966160733052334 0.022602239415050462
0.3067727094532984 0.17052704268027696 -0.05523645540240807
0.512470000854421 0.2899768185760365 0.12271752892092991
0.36469574508149094 0.20920305929439564 -0.11090757287624342
0.438594974174066 0.24233114613383577 0.012050603233774382
0.3967082393238286 0.15122214545587553 -0.06246315171276251
0.6004072349958136 0.35463156086885306 0.12704426771894362
0.38077511011101706 0.22016134875822502 0.004102085705412151
0.23890413687726664 0.16481621066088792 -0.016861645624686616
0.43255623256074216 0.21663481187940192 0.021960241187215956
0.43918846291276736 0.33245052479971093 -0.004707310789939356
0.40705379322488966 0.22245534118380306 0.0022008435861522457
0.32273238336398435 0.1453220991445221 -0.021418430371170416
0.40435983752412596 0.1717477423461844 -0.1382542224541652
0.4697382134794452 0.2088563362443665 0.039254492910956174
0.4097258264662571 0.19984700852202764 -0.035753438839634555
0.4151998701063917 0.16500473729428222 -0.12576423531106684
0.38897131417321873 0.28927072196432846 0.07029713414860339
0.40342999265018875 0.1904518460356286 -0.007849854807574275
0.47852966397326213 0.19569944377056459 -0.062264117784849304
0.42407176861541984 0.22989928993064268 -0.037096529827294944
0.3743415625939974 0.1906354678329194 -0.11627379601533505
0.4528824560245823 0.23313574516939184 0.05400944571988475
0.1145560441063651 0.24706768980828997 0.1321670570771687
0.4355248807615908 0.24592444397005409 0.050266414334259935
0.38699796423739485 0.19560921306235457 0.003315833662099976
0.35976731506849546 0.21166449173188084 -0.016387521850433018
0.42473457818086047 0.1960774246160497 -0.0004703832044867795
0.29327612270630254 0.1538588431470771 -0.11949725482676854
0.37589409912388305 0.13154826210588055 -0.10409928473202967
0.37765998972321313 0.11218751131872295 -0.06219883907272106
0.4086859715246476 0.1612479473465669 -0.038180640630884
0.5128151700001524 0.1925458911423732 -0.023754920387816014
0.3537316739756875 0.21430765475341218 0.05127859649691402
0.3736116583236253 0.246554754048816 0.05030983732163463
0.4166436950939669 0.07038293370325732 -0.06465327539730481
0.471738989652124 0.2901035405708967 0.03542124498335397
0.46975017891153925 0.24251594132925902 -0.04321286922760237
0.397404999734988 0.15954283813354664 -0.03513209221226532
0.32517045012789936 0.15354987226876915 0.03799824310883082
0.4082470492704431 0.24574375592379738 0.04059600826339249
0.3310406816561624 0.08318590065152875 -0.14731566514541328
0.38688802559477153 0.20742814494803952 -0.011415822756816851
0.34484123565898983 0.12534638904693907 -0.03555166756723338
0.3874285718069359 0.20409928260842491 0.007560364592904989
0.4048548993130794 0.22103785900075934 -0.03505525920809305
0.515200877080531 0.292160157165398 0.07354543458444596
0.43621837287821563 0.23479162825275068 -0.003644966119438209
0.41233996380017857 0.18164947574854295 0.017985952247414616
0.4228321002249089 0.2363330724307815 0.03732005557178297
0.4773879257863456 0.27810751686592994 0.02657307397944919
0.4136664021081913 0.2159846035833084 0.004661678626476373
0.4646551072527245 0.1733801623264526 -0.10291226680996601
0.4366312712726881 0.1469138825734717 -0.15075826381439583
0.31669122323924626 0.09937916160237137 -0.16244909265138574
0.4568141789707738 0.1379137313922172 -0.1098275401263038
0.4319028285416664 0.21265674007310054 -0.0075281721073992
0.4095948487519365 0.18568700518525816 -0.0606380870350165
0.32008735476779293 0.18760224457496122 0.08070662159713038
0.36245595776652806 0.18478200971230763 -0.012040608602092107
0.38897243417049765 0.21607213428515593 0.057451306722271056
0.4594135575172942 0.19321877107579155 -0.08189031593008167
0.40730693888093583 0.24014269586513137 0.0750999194733879
0.40685533362719184 0.21607325105500763 -0.05222650248579441
0.42962191960950236 0.21315954046042407 -0.05735205376676333
0.36128053449147046 0.14822998089755401 -0.05822098967036027
0.41633311634136305 0.20002918781466406 0.027563898593939484
0.3461040925473924 0.15051782116191248 -0.09871367874788461
0.4753988949462098 0.17768235387357834 0.02282650545024012
0.32811332087977974 0.19138697605194466 -0.05849234977389983
0.3133612193193045 0.21829914622297508 0.051114361415926624
0.3909783849975952 0.19907491432756785 -0.015143594013565576
0.43260273438863805 0.2152688994590335 -0.011951366329782331
0.4050417100972652 0.1805859394546303 -0.05287839792325144
0.747894189786038 -0.07077806383649943 -0.053522726222922756
0.37486661462426696 0.21157904184295262 0.06214578052389186
0.46706212629507604 0.2646733007078126 -0.016928976728138423
0.3311461638834601 0.18704806858613665 -0.03471383936755501
0.43987679714103933 0.25390126373736166 0.014268822481227517
0.4749628174063787 0.24897383383841998 0.06442372679482844
0.39144310298905793 0.10703090943641769 0.01037677287163774
0.5312818932525545 0.23949722414484143 0.010838889165199816
0.4687736029087546 0.28243532618662925 0.050282875419910056
0.45242598931102407 0.21984659529805128 -0.01073542183590348
0.4823152615489903 0.21901180701867418 0.01690240122063358
0.33269559264795134 0.1503977190793364 -0.012101817162232464
0.44428890441264457 0.23781352390747657 0.013454192235442974
0.7680765445171858 0.3345673760735792 0.19343554944445884
0.4117531919907691 0.25788448542010656 0.014344844052942562
0.5153338074766367 0.24359010720101537 -0.00924689010545876
0.44256592488483193 0.20333941314258652 -0.06979191042231037
0.39068167136804277 0.216292900165854 0.03578884433714791
0.4207171290724716 0.17940234684360234 -0.01101049765216544
0.41267432071563803 0.21670685234110465 0.012689394976362678
0.39593887573059305 0.2903271074244458 -0.006488983866404396
0.38329528520972644 0.1630966565254539 -0.10916208062090504
0.3594960042148898 0.17989896928779103 0.00042053690988552717
0.5400797573877583 0.25980911158828235 -0.03568073169569175
0.47345298418908044 0.24721414075271753 0.02062358293872535
0.3399750554434888 0.21549133797273612 -0.05061584863108237
0.4356763147646632 0.21165212188807914 -0.004284742176679401
0.44407525587207886 0.20701977071519195 -0.20654390086168917
0.4512957191603846 0.15914203941315463 -0.052038437864638354
0.47296685390860205 0.2467978887498532 0.02970098559114831
0.31767254366815223 0.3439340275928089 0.6390446559291547
0.2983076327977585 0.3264149536180412 0.12166482184608185
0.38990465863818713 0.16464186309397633 -0.07793552358809563
1.9471355378717021 -0.32297719476274267 0.4053594982351427
0.4390168036938178 0.20924165240306536 -0.03426885596243778
0.4179658033179976 0.21605974873256173 0.009839826969653132
0.45732289287471417 0.21510347785844885 0.004189172809148545
0.41451840035000487 0.23023555370218673 0.026046487824856968
0.4399389564062801 0.22555423055740675 0.008654592687491913
0.3636523435992558 0.3551485536915209 0.11556158183978482
0.4803492865826371 0.22688346398460624 0.025855819062215346
0.5048995260509912 0.19240454442660848 -0.12582378938938632
0.46064866081118794 0.21203300890734056 0.018944616136394643
0.4270733849613748 0.2081893328031299 -0.09914041965359388
0.3877578271665527 0.18999287282640864 0.10061249585274368
0.4120298863794858 0.28508067394263037 0.13332027580199224
0.40062439854253284 0.21472905302977097 0.02664299160171879
0.44637062770809166 0.22658651811238428 -0.12049706212022215
0.39838559161493947 0.20048514241071302 -0.055580820830527955
0.4919085339744811 0.2605694714411868 0.0004524906695166919
0.34667128912332146 0.18845993584034204 -0.024455406084214815
0.34032263848588684 0.16134293339251826 -0.033541827848225125
0.3399389631838403 0.27283172740649775 -0.05617744297907734
0.4569195011654017 0.24312345846399808 -0.01039743973245777
0.36645448023493543 0.2033080224834407 -0.019789715253011764
0.39794895409968944 0.27156609565165013 0.06861749690590102
0.457414185038175 0.22734333850033295 0.005863881375091751
0.3809732384007134 0.1779380871078473 0.020847009765475377
0.4267297131364103 0.24036322015942346 0.04512898565320711
0.5185280589111869 0.24746621246799805 0.04932916513132568
0.4489251701129291 0.19833663601434637 -0.01773448214198936
0.3310319831937818 0.13165377555364444 -0.11812180152293195
0.4249494677655292 0.21680372024493977 0.17040088416857202
0.3964671963219075 0.20387777109559124 -0.0026827159644824405
0.33406353011952206 0.24487972520952894 0.043332525490626495
0.43868612381314165 0.22448417208929072 0.02457467677967884
0.37242333382130255 0.18545382057337179 0.02132573182356623
0.4875461860589496 0.31819823355012034 0.06991128702452443
0.3447694965130381 0.15712997908386228 -0.06697291538768013
0.39782880650895436 0.2620355401640353 0.11213884878750946
0.5295038289067691 0.26346126410342663 0.0333797025064797
0.39031825012681054 0.2859795011603268 0.0725103107324685
0.4277905221105698 0.22198972546433993 0.00580523669962929
0.4455325183705554 0.2560899875197151 0.03122685514370005
0.03632450944857624 0.3432915075779732 -0.36029589771278836
0.4110662232942417 0.21885142510221556 -0.0024328381910834196
0.39647549613118827 0.19870057075354453 0.02170794226148587
0.3902835216217113 0.0683507875703242 -0.19846437303139908
0.4420280467075628 0.29028247727484313 0.03270951005850975
0.48079049703031274 0.22813626210923132 -0.025640537052169066
0.42553081000804127 0.23628422480032896 0.13884464634300286
0.44584990692305837 0.21925487671987298 -0.028279367865280847
0.34071034751690377 0.16372879055545297 -0.02061247043056369
0.344738500353273 0.15399603870909573 -0.02079604815835978
