# .PCD v0.7 - Point Cloud Data file format
VERSION .7
FIELDS x y z
SIZE 4 4 4 
TYPE F F F 
COUNT 1 1 1 
WIDTH 798
HEIGHT 1 
VIEWPOINT 0 0 0 1 0 0 0 
POINTS 798
DATA ascii 
0.4249010686372685 0.22162685778710056 0.0263909309112762
0.44071974546530157 0.21733501250727727 0.040481609803563856
1.3053568178382875 -0.6097939187128105 -0.3972614305139217
0.36350984887261006 0.19169567278123623 0.04924744227665201
0.3768937905384462 0.23688499089269044 0.07474114551880007
0.2670741581985112 0.2553485738455521 0.1403188815365013
0.29359001982365385 0.1639692536052877 -0.019336249330351052
0.4071909426664888 0.21112708848411899 0.026936496828625422
0.425069828681103 0.16909968892676375 -0.019596653197112346
0.4999798936370752 0.27390208271643246 -0.050277515310199306
0.38398807944167856 0.2024892148724433 -0.05551334032475097
0.513913005165648 0.22245037544323054 -0.04373824194959752
0.4560937690885396 0.2112205550749593 -0.049196736752691095
0.4471933329566724 0.2048327668537695 -0.03829424341294896
0.48600887543980775 0.21816501649880138 -0.12927262095837477
0.42518130141186816 0.1839932685894894 -0.007851752777682464
0.4319621797324089 0.22446866664378717 0.026603452712535614
0.7540955144204844 0.30688197619480206 -0.43442400634918954
0.44928462807443736 0.24937415449582545 -0.0008433287200659834
0.47973496085307943 0.30284309463355896 0.0710326563239505
0.45229678443541843 0.22342575103064632 0.023725806638609015
0.45290945488656575 0.21996296538307547 0.018203891111099324
0.5114016763597107 0.23657951949240896 0.034963273230061986
0.31905368509919185 0.17174950836952974 -4.4390446589659405e-05
0.467223630841886 0.2659021009280309 0.08469141634412836
0.4708515833018083 0.276602947212524 0.10717761431777717
0.42192197363839057 0.21150744749513706 0.0023562559326251176
0.4214068572206031 0.2040240239963964 -0.0038318950716984546
0.4435453998284089 0.16570786123060088 -0.02262796093057773
0.3826791730174648 0.1565143982392101 -0.056361469422739674
0.3881031933037491 0.19631298612580395 -0.004587025661550115
0.4165311985240976 0.22170578379653705 0.05023587210243363
0.4141634870904767 0.23579633737382721 -0.024813765777224717
0.496691852966336 0.26207292927568915 0.10050129591265033
0.3187152527657844 0.16374165522108797 0.03806709052599899
0.5254061367415659 0.31284652126868195 -0.03200204720198485
0.5015764712333635 0.2563675394266056 0.035212266172891304
0.3866227173764969 0.18203578451655744 -0.04979192606103311
0.4172807310847304 0.21785204504911349 -0.01824817011771529
0.3627194683043342 0.1710112111894091 -0.05239372637799988
0.29920342713214154 0.19872580542050855 0.0741443524071741
0.4287726114591237 0.2114496886024284 0.009634380706344814
0.4484829757098652 0.22309045329390642 0.005634282597526408
0.44492400567287405 0.23786849671915888 0.055826587700735786
0.41473513907239123 0.2067290414619265 0.015829376861177025
0.29410192025105175 0.19200622200229134 -0.05374232945897006
0.3917571112931455 0.17004581934116914 -0.13185710938698492
0.4166374201244736 0.23069803983911186 0.09853784272002031
0.35754281578601876 0.16973015083507903 0.03165507361923403
0.4200768709520446 0.22882882102848612 0.12304786866613426
0.4360497451112053 0.185242547186931 -0.1068748055447486
0.3745666406689736 0.20753265450386493 0.018437123369281494
0.3303086075780328 0.2901231931557504 0.02045114779852497
0.4347252714013905 0.22261079045853194 0.004456362007204007
0.4113626986312795 0.21816699317577104 -0.05091120252427572
0.5273527561355706 0.25139726538463947 0.08086435638338685
0.4547433448221341 0.2039831858328398 -0.018644243592973453
0.38744067282661376 0.16679862586282468 -0.005567162445487384
0.4191775387189125 0.23018460593158352 0.08879980459103365
0.42168463811958645 0.2073849713068654 0.06666639637924732
0.49270876560797205 0.24520061262080617 0.07561134174156336
0.4408660764337924 0.24024298536903643 0.023492129226411862
0.41007341235891204 0.1876130729337575 -0.08774199271778116
0.381779698379475 0.25741555247194015 0.11711645124967163
0.4401789966250078 0.21980490262859576 -0.10919263724697714
0.430397262228567 0.20413534554072044 -0.018976923590443562
0.3877512326133967 0.19622758052760503 0.003388493799548087
0.43350532285771237 0.2364818611325461 0.02191554505347426
0.44660097650248076 0.23020163189751486 -0.01180216186656935
0.40235693856138255 0.19036984011549407 -0.018878048617125387
0.4540466105858343 0.31718082465400244 0.09484116546214238
0.4128115382606552 0.23986129599744288 0.049388186623218644
0.48430544964463706 0.1816971236370648 -0.10328656543329373
0.4289626180591313 0.2008991929792927 -0.025847887934077107
0.31680339767987675 0.15563611410583178 -0.059770776634977096
0.4285972781096916 0.2124300379512789 -0.055830402712658156
0.4256444885329529 0.193922964134984 -0.015088044440361159
0.49271456950002346 0.2845087930141119 0.08808187864073602
0.32626259583366846 0.15614500177126445 -0.04400499666941471
0.43385349079122193 0.2291516100118116 0.004920824180729255
0.43654514462255634 0.21759988160769694 0.024757725070912784
0.3238147007211296 0.1197410068989484 -0.09570531448898123
0.4739013454677661 0.2334715392248654 -0.02441242884759731
0.43324355828193006 0.18919242728010488 -0.1463234430242153
0.38643678786837654 0.2322530437871393 -0.03207126529466109
0.536202427352606 0.2382572223867072 0.2826600403529085
0.43295030116854605 0.22307835187893943 -0.027498145907713933
0.3900089292081361 0.17969931667509798 -0.01985627779632182
0.5042093905119316 0.2306462187637237 0.0038613866703656186
0.528718132861826 0.2401536132123283 -0.0016332610432385763
0.46135539831530537 0.17486880108174319 -0.05542943105899667
0.42672964271254443 0.23487096121624518 -0.031147827827851415
0.3717822028349076 0.17509493480238802 -0.062040932848219654
0.4129112604741749 0.23887030987098967 0.03476014328593635
0.4043175537353534 0.2403922514106398 0.03614886920581739
0.38605227292217137 0.19818106315597106 0.029777725039309644
0.4860478157674777 0.23892936234045692 -0.007104039008396512
0.48939247939281927 0.27112065956106335 -0.06848586069358475
0.43071496688835964 0.19977260845044498 -0.037133336826343566
0.40804082112737206 0.21455455725296702 0.0026204764035639982
0.37181726777684787 0.15860927400856895 0.020849369986478905
0.4688441691055374 0.24721382346729115 0.007960856801275895
0.39495009058329344 0.16158165941999414 -0.21904277448844311
0.44503820629419977 0.25565665309900965 0.06095627224847533
0.3555699320798169 0.1479868915463669 -0.06196319302856068
0.3569475743558854 0.19188717940801325 -0.055610742934902646
0.5846210077735918 0.18321996236262805 0.029143340753847724
0.2659202269324368 0.3194094114013808 -0.023512496011704798
0.4627099088133093 0.17697110473622502 -0.11761905096716418
0.38952756965443314 0.2470428110794245 -0.004283193725541423
0.424770374661918 0.19098236964366322 0.02095562749785529
0.28287861245209456 0.24760945056790717 0.02435335102873637
0.32053649791876637 0.18404237119841582 -0.2970750991107707
0.27900461347527994 0.18202641416887388 -0.010018489939710662
0.42326601987898016 0.2136312767626407 0.013911516056822393
0.2934330645473153 0.1873971260441749 -0.05906215338765719
0.5034885996347498 0.2581717549299185 0.0017671684823596934
0.3468111111472183 0.24070215132948647 0.13821307588241893
0.43702419884206734 0.231728554312582 0.012467706236634513
0.4388387386446624 0.20825590059152432 0.03449683847904339
0.3953329896992841 0.17474991611345558 -0.08362044100474009
0.40713981918484876 0.19930378560673034 0.01902955755633684
0.40851597368163084 0.2306182612660308 -0.00603839544740481
0.2545771646737762 0.09587658879254946 -0.03693200745227898
0.4013937649580015 0.18750353181522428 -0.11235165951512727
0.37808030036273976 0.2086561882623812 -0.007207996442559761
0.5049368676544503 0.17402910497810353 0.16248438270284282
0.48598609068690735 0.2157475982346142 -0.004750128914082552
0.43767083529250783 0.27470969296473413 0.08127801642265808
0.4052311498173822 0.2552350614335239 0.10693203986994604
0.4499912489911537 0.22361876545753034 0.01068954487121232
0.42685754226623374 0.2158332365930562 -0.011951858983394459
0.5250508456380487 0.22601859593126505 0.024144097386965768
0.4091740672310209 0.20371242192189243 -0.015944025447140575
0.4082955767972578 0.2191270685309803 0.009816997441475905
0.3814027407423737 0.21831142034771744 0.0340734532761644
0.48124874734855894 0.2587243341141061 0.014848049792306028
8.565788728530379 -0.9910452127914482 5.1443348069965396
0.4020434448959662 0.1956238302858111 -0.023261056610863307
0.43628320438401147 0.23688828881554969 -0.0012587983426612936
0.43988484721404575 0.2300333732478066 0.006489551699502272
0.42261012896781835 0.21738284024308996 0.010580512785949736
0.4396749946338758 0.1731917771599143 -0.05411755813688046
0.4205453186500563 0.2212450297492552 4.287558212467957e-05
0.4444974923516867 0.1978756834026001 -0.05661448007228387
0.44521925687686803 0.22488203208158097 0.03509043437794901
0.4718867150882886 0.23658865333194967 0.037524179387759204
0.4410170803406146 0.2077902413412147 0.03868745545918273
0.413900481440038 0.1639641250179693 -0.07388148585035026
0.48092096403243545 0.23636910619993046 -0.021746430129695682
0.43333715822564045 0.24711084781800707 0.06284167683674013
0.5971900719200391 0.26688491669344216 0.22815252164566857
0.40637140857077725 0.23001257915009887 0.09621846628549235
0.45743903411468523 0.25111971771465846 0.0526939579257828
0.7341045059878013 1.0265109561330519 -0.14304036549654597
0.5162731925706368 0.2571919805506582 -0.012486923402448724
0.4392440166954543 0.2247020491963383 -0.09699488338327455
0.3696738156101702 0.23982330477740277 -0.033221416475896604
0.41256135073966504 0.22432222481903352 0.03260382777935433
0.44629350465172024 0.24709287543342384 0.042432103504509655
0.424848759633889 0.2327156227018321 -0.00032839760667968676
0.5150110670254548 0.26393621558881364 0.11427457819729625
0.4337447504919396 0.24262236755697586 0.023877867764866778
0.40639492357024665 0.20354957486453884 0.01807267798702128
0.47628186695594366 0.216752425213798 -0.08623686371132067
0.4316713598452111 0.21563899331070502 0.01570705385594806
0.4953360549691297 0.28014760355672763 0.1168430058415737
0.38503035955967846 0.1598992003961257 -0.03709101176855256
0.4165217990386054 0.2132661540542955 -0.006666299852057023
0.4494223074493391 0.22842339548071777 -0.0018122377198039885
0.4102944135476747 0.22065626642447 0.055664690201837175
0.4563814239680539 0.25986356501667274 0.083157148985606
0.19960237084019639 0.3303182303636021 0.011451800750108987
0.40320760016400925 0.19451851772265627 0.0008472367499621214
0.44108500233872405 0.2075732607478642 -0.08278694891363614
0.40004355330199814 0.22837086295513132 -0.023943609225312912
0.49675220297143596 0.18854453294744644 -0.0605448439134193
0.4108056167648044 0.2368241960826083 0.06946640781757196
0.46436239892989306 0.20906995899804315 -0.027830960362251744
0.4082548921184923 0.20885540486688114 -0.01841497320386054
0.4082175890429198 0.20972817951574996 -0.02322881565223156
0.40198969582264965 0.2508542367231428 0.0183611130639747
0.4796818680904664 0.23303160294457825 0.16918432281082119
0.40695511904289106 0.17101984413382354 0.19749113151758024
0.37273029920838496 0.13790499794166067 -0.03116119771576109
0.4242675884893572 0.17967983773596075 0.01786880355325593
0.44360963115644836 0.2701991029330628 0.04057632416794377
0.3974155449285348 0.29596173262144987 0.08578913864967319
0.35166007909967334 0.18174306433837728 0.020301792007870745
0.3957288299316417 0.1797286017470867 -0.016740813670949706
0.38161207368392525 0.20022334684652776 0.07709715771525794
0.4457100695744316 0.23813900515045816 -0.025029624073169998
0.4360106982645391 0.23059948899643246 0.0003278331062972484
0.5037600875434123 0.2539566943922864 -0.007494354233898548
0.3703010264948432 0.18931757298365426 -0.042888341243525474
0.3995832207837111 0.2093054637829681 0.011406934096442
0.4085226217813869 0.14673581130887214 -0.021920205968513073
0.4509861432543687 0.2407126461578457 0.0006267622926543481
0.426593662424807 0.2694792320125572 0.04363484922822636
0.36953280661501253 0.25016366930870504 -0.013107663014395143
0.3817674393968673 0.12132694829732316 -0.053254878390021076
0.3780066055645648 0.17763382189939136 0.0023580781792986727
0.45674607245970833 0.21089471496473777 0.01783657685206208
0.41498161166980196 0.21111008345354776 0.01673911024865049
0.4490876294097461 0.2669582557961121 0.11049237243969401
0.42272755174778354 0.16919564172846435 -0.10735186796736684
0.40549437912569886 0.19896952606328 -0.006743291655510575
0.39762042312271717 0.15609047111664154 -0.09215565234030976
0.5029873178557409 0.2660294002956789 0.027892398936373297
0.4504357756592867 0.18366053849203468 0.02859258882386939
0.4687154035562173 0.18878780175262477 0.021193179836274112
0.37065023506971784 0.1817877839664277 -0.01223338864222967
0.4714443098699803 0.22104875655965373 0.001916668485137052
0.4436073073156592 0.23290260684863995 0.04346630517395056
0.4715967974134827 0.21275253499584323 -0.022980096640424108
0.29605992651565316 0.30200389835147234 -0.04427192159050719
0.43141115322455903 0.1740197963519705 -0.015939040810053484
0.38825593072994025 0.19440217918192104 -0.010742691540968963
0.4098895018407518 0.19441476133279423 -0.032355765045195994
0.39942726562242115 0.22016419457747816 -0.03262210312141178
0.4165303847769053 0.21112239782833342 -0.050358213782445205
0.5026441332381353 0.21776682021993565 -0.01863509755420978
0.4087830236146317 0.20509802380738051 -0.03608381204833222
0.46281935993464174 0.20424817468497736 0.0025261714241366917
0.4117047956178368 0.18583475826468998 -0.03928710472561647
0.4971816729195666 0.24188292310552129 -0.008490320025401843
0.431798605878285 0.24111720261674918 0.00400128659104837
0.4541915662370002 0.1897908378682729 -0.01496972008793307
0.5671474101957301 0.29813893999548213 0.10101643599347199
0.40818257255205026 0.17812303046333966 -0.07056611056682982
0.3623623014532882 0.20533584259223403 -0.05465783125855239
0.2893343571835203 0.15278472095306483 -0.0022383546892541517
0.46840745324823274 0.22267822413641625 0.05697419013695537
0.4275461386393147 0.20837952678364502 -0.014610272555202641
0.4247595951238594 0.21790446742292602 -0.015328958672910176
0.4247287221619729 0.1880579920189973 -0.018953201717096135
0.39638885486391473 0.21651787911662268 0.01978723938566418
0.44040166573921624 0.20878166843745305 -0.014062631695850314
0.8260174714576891 0.20624439187164967 -0.15836691180879825
0.504957839473775 0.2772386062100054 0.13425695531449833
0.4678446207066145 0.22346408819612407 -0.00015635363776311806
0.7118071607193031 0.2897724602237446 -0.4087009163796722
0.45344522530649556 0.22256938345225308 -0.025085950337143004
0.44844879777623703 0.21782549702447795 -0.0036636306826665077
0.3983741015650253 0.17764739603606472 -0.025469646487835007
0.41186930181885373 0.19631210828762846 -0.009550082769891333
0.4229600803891316 0.20702118119893953 0.015603686282560147
0.42309248524699683 0.2297315490991565 0.00896266710245186
0.4160690914409315 0.19444299231858508 0.06619308934662627
0.4378962405903053 0.21635925523189314 -0.005434022944754702
0.4303979581532644 0.25552584161110303 -0.03817241744967248
0.46494397528732634 0.2014171537916809 -0.036733610004688444
0.31710569557324675 0.1484354657834217 0.02414201902786317
0.33384722962536273 0.255071192646227 0.16601598896889413
0.4397633606700708 0.21814263687055302 0.10269652240182836
0.46841396033957494 0.23704599152296169 0.036889660110887235
0.3978658630881 0.2204867543145781 -0.042455329250827845
0.3742532273073209 0.2061555188325599 0.043879743686957795
0.502476564109628 0.33629848909538396 0.12985186032204865
0.43803955427998176 0.22767575174648869 -0.02935957987568827
0.44368452815706405 0.2619799817528161 0.06535468411888701
0.4138246979835003 0.19379810383156837 -0.02166473353710785
0.4837321993617394 0.27717644872244307 0.0916928668278274
0.37929386435534695 0.1575599056396726 -0.016783419809655697
0.5139569330412144 0.2177552419854436 0.012099374922087236
0.46394929578056576 0.23824788790830098 -0.05633417598261303
0.4909600680946653 0.28629076243242935 0.05790884392173723
0.4430923693436455 0.26678298096533126 0.09825127922940169
0.4336199031326089 0.23288980373277468 0.003295143492493935
0.44695834581442284 0.2460040139882551 0.0374144337368989
0.39011687911064996 0.22796350801439758 0.08493112558423377
0.37869795011245344 0.1640010103202343 -0.018535533768130108
0.4226623073337237 0.17997439012596317 0.007998064294071128
0.4565697281410621 0.2405664996442738 0.0216719882834866
0.41810456867747803 0.18277492875429857 -0.010589916858918969
0.43982325349712426 0.19721828810318698 -0.016638974749184854
0.5714502930982803 0.25373797970745215 0.037941820647887425
0.356463058718802 0.16160337555629667 0.019295983633497826
0.4529711638141549 0.24792106573549688 0.0060477254570088235
0.44569229873673066 0.3380968788662386 -0.026789854149328107
0.4333021327939264 0.270197780732758 0.025785753852815674
0.4182250329684223 0.20725488461661712 -0.012058718768315657
0.4286390370051265 0.21446661331837902 -0.010938544058831212
0.44657306045078826 0.3266248424125564 0.19670489118976775
0.4443433792982887 0.1775914280394204 -0.06609625273969755
0.4819204007457074 0.27037666264921256 0.08286483506033449
0.6589785346418608 -0.05246203458744958 -0.4211124810430533
0.38315092068017975 0.18872355002476127 -0.009468991382789227
0.41693688406508045 0.2045378775907949 -0.0038463850453780424
0.39842518158063456 0.22122751886050196 0.05389393349440752
0.3814129036681351 0.2108244601400031 0.022100100438592563
0.4503122959544896 0.22514799110288664 -0.04978013837003914
0.44674099357231967 0.21702073653870002 0.006939532454879327
0.4369248677263613 0.20910004768913382 0.0030288594310690087
0.37822461302727106 0.18902582200664142 -0.0477830949695317
0.6173605836242757 -0.11574001729255201 -0.14678043132246898
0.4975404285194429 0.22812982310705365 0.1840672383860209
0.441465488083594 0.20757942752248937 -0.07118952298455383
0.4616347969390233 0.21408351162027373 -0.088230760174838
0.41646040378716975 0.20219863572249608 -0.027407914778308395
0.5090085388840606 0.22749400929725994 -0.010321400510264311
0.395296163996008 0.27088199732423845 -0.05192788330968767
0.434737335022902 0.24865483666127375 0.02719950502410029
0.4578958055965643 0.2206714009220292 0.0011806959508362525
0.44950033775251086 0.17034753467207508 -0.06830410471903292
0.46454205597257214 0.23199150386165002 0.030271630267122873
0.3882687015769761 0.2012326214600364 -0.019263448850182385
0.30936079247298665 0.19682224454538755 -0.0502366766479696
0.4801260667190377 0.26805388717841083 -0.02454095754661978
0.410028420270919 0.22140618319497207 0.08150437465451432
0.4295946402108939 0.1616288928499614 0.051612275449244294
0.3595642653205289 0.18014196280736883 -0.04156010074947858
0.3746203991033781 0.19959418686849517 0.011473010702502506
0.31957886218572185 0.17710530393100044 -0.020077767829008053
0.4128262046514237 0.22423842397998328 0.12385903324715741
0.473078502074344 0.2318963636009812 -0.01649229118240214
0.3879086750830254 0.1881043955118855 0.00034613011786177594
0.5109444212653216 0.24583616571844402 -0.03427563739501238
0.5183552551643515 0.2517250122916721 -0.045275183653870954
0.42480788775003475 0.1902499167093481 -0.015319383293132205
0.41590404891366006 0.21187203458828208 0.021853811420854186
0.42938318339756165 0.24959347288219647 0.1413297562765905
0.38649118706399577 0.17679565102437778 -0.012353734794530169
0.4295127777915724 0.2063387812283537 -0.014167079501007152
0.45922585212996125 0.19562045786169335 -0.01708164073582452
0.36313405441448765 0.18855932571796075 -0.01798995775743606
0.36745597577129274 0.18922032017866286 0.10244616766978254
0.4461138888785712 0.21062303569956953 -0.0029670238193375553
0.485239706694756 0.2861221473495732 0.058610684111229716
0.3940894631397498 0.207571530264957 0.0507563779746647
0.39798760081944806 0.20502467467444774 -0.13636026934338474
0.33865387596407004 0.1605650027828176 -0.14901496888674615
0.37621249227419185 0.17838023480321397 -0.01642617435160787
0.4227306924534844 0.20462079959133916 -0.03286900001344861
0.3429080727681253 0.1637414316499246 0.00671089078099385
0.44822084321828015 0.25208715925359115 0.026625150039933487
0.4035642894934881 0.21279415872530194 0.022473503654751426
0.42562697498377133 0.2585715512821736 0.057180409688896816
0.42552473687180736 0.3084664976823035 0.016316665314292322
0.4109061738286073 -0.05798586974697173 0.11316523912744003
0.4244731511922737 0.22466783048716366 0.007859740377710978
0.39749519788755094 0.20518567758657014 0.0247913111036695
0.46994617428025265 0.2311611884766478 0.07031252125894127
0.3986110249761623 0.1873206205283111 -0.021566043409364966
0.43149581987700003 0.25018155711231316 0.008974663857685528
0.48209281299639883 0.34201800644669333 0.13992274606222566
0.41527089745983403 0.19653570559196964 -0.08167705451617735
0.4166613390644329 0.23883339465882614 0.06285363395465993
0.44789080891175104 0.13578103942954556 -0.16750686360109057
0.36167104289785357 0.17618175623378818 -0.08903609666194257
0.4687110957135303 0.23699329851001494 0.0403998615741159
0.4317328213779774 0.22115534291862105 -0.06401657030858132
0.35371777682019 0.14996430805470595 -0.1302949413492911
0.319230514764385 0.17174100125211567 -0.06714574785846139
0.4517572038715798 0.21459266727838155 0.004281444165826542
0.5655021689800321 0.22448331630050689 0.013170648337222701
0.4220893968569044 0.21671385109232233 -0.023513992760015867
0.4283187954942065 0.22427039900330215 -0.0050391481542675365
0.4051442308176263 0.18940616842218105 0.015406583131749585
0.42804166769495566 0.20983179443952338 -0.00022738889234119597
0.41511978020753304 0.2583364680019997 0.04393779394229114
0.39656945138989386 0.1707881746484361 -0.01527576870509506
0.4787149071242993 0.22897912332891224 0.012238606003251107
0.4539331939375302 0.2675369668884571 -0.012565670457661327
0.4197609578247352 0.21384545945336697 0.04049220856185798
0.3871930315224148 0.2166613530307302 0.07597943152455855
0.4384676094540225 0.20613387463491506 -0.003455052101230649
0.46377550773658527 0.240539353800429 0.04459308146218177
0.3556789009730892 0.17838195135854562 -0.007506990616221287
0.404352326194811 0.1921850596511092 -0.002638049725689484
0.17371777620977014 0.6140748739686046 0.3219356510905982
0.4288302808020177 0.21154469430915412 -0.04416052849943242
0.4561800969365919 0.27752483081206947 0.08678138829718307
0.4465921337859555 0.16772199235725793 -0.018995078205506388
0.35484902709154653 0.185175286135717 0.027064229905946036
0.427940492441536 0.23320523898280499 0.03788307337615038
0.4430141504353884 0.2342182571330511 -0.007877951807046202
0.43754540435801914 0.2114934773447601 -0.04789789708809167
0.39480732679450625 0.2077812378252588 -0.018680628292571555
0.41335386713822686 0.23067134025789926 -0.0006542486873115649
0.4239551211456103 0.15392597374662387 -0.04881132216030437
0.2876217279329154 0.14750697813346392 -0.0841679738747132
0.42546766679633663 0.19960925359200132 -0.09352409485954638
0.549083483706454 0.31584098834498775 0.06442257980832267
0.4429066043400667 0.24065066360563492 -0.0243846105570924
0.5716516992083029 0.24462169974350445 -0.2172370369991654
0.4361497397052574 0.2327460919314035 0.006034804569537755
0.4340680876662759 0.202825697412095 -0.051851539360285415
0.4789158646538567 0.2735646777974381 0.02103875441500236
0.3825830625311255 0.19069695761206162 -0.015066297102805493
0.41578970304010454 0.1822656251697481 0.00608510742586077
0.48763053104097764 0.2501899145649418 0.013110003974091455
0.38624844010860215 0.17223782716220626 0.0175246113812193
0.4299015406968181 0.23026518064271784 0.03058085045677217
0.4399688336732197 0.2094313773998806 0.05987263763105943
0.4015986802031364 0.20209708394314418 0.028133219040427093
0.47801523866515083 0.2291457983027101 0.012879770927554546
0.3893813491837932 0.1700986643865292 -0.09289645981486672
0.4039894312739847 0.2672311345592959 -0.018110749637571644
0.377526322829425 0.21913717481496064 -0.0015906290656886313
0.43293863166481117 0.2234360323484026 0.00310982575000196
0.503574171491806 0.24458312107165625 0.0025876299944513903
0.4394849155459042 0.23096872583455763 0.0038526690798050822
0.3480767117853105 0.12157288866126237 -0.04884644702437413
0.4751167202556559 0.22739538164547923 -0.06006574553509836
0.4240785255958883 0.27207765027975483 0.07628530018349977
0.4290314158288453 0.23882586441001763 0.06544045964653833
0.4082224537779666 0.22607427403892189 0.022039137021579336
0.5139988379957288 0.26274354053666116 -0.007683377652028867
0.38468312769316526 0.2196323891648575 0.02893496829420883
0.45125360121636504 0.22470265742893503 0.030941307118411032
0.5216156255660849 0.2094273650885441 -0.050215118212477705
0.4029862023234614 0.2047562525637261 -0.017153955901818563
0.4358845692721047 0.2104260128280515 -0.06321847671091518
0.42169472826199694 0.24885610701193173 0.06226035391770779
0.3899042913071753 0.14545644119809253 -0.05584400101179199
0.41761961970087214 0.22493618220859446 0.012022551381207336
0.4007552598238959 0.2702332348876837 0.12853225084650433
0.4302785237923672 0.3365354634755846 0.17783315767516683
0.44835309862698125 0.2018832056884463 0.0003887858396893762
0.4404315144206521 0.24016950364178058 0.028723719912520096
0.37548684358039 0.17370520855129712 -0.025721875216149215
0.5509968404738572 0.26780789450543807 -0.018047224625775016
0.39178914337384185 0.19974982712901124 0.028006472188451426
0.2935937502815591 0.15316863003143055 -0.025108888072111313
0.3657425558771621 0.21579930887334342 -0.04167239482808327
0.45706680507765896 0.25689661134774155 -0.04647667403429523
0.40221910872739386 0.22180526247305465 -0.07957947521123288
0.4196151034587672 0.225255718342126 -0.011630765959409928
0.34890400879277195 0.19403894212817363 -0.08066098749637263
0.40295359431166844 0.20218757474690108 -0.014360947146656144
0.4853382897448455 0.2908548238474964 0.004898448969058222
0.4460769215820761 0.1825919617731131 -0.04909580092081001
0.4806386050789513 0.21751496697794437 0.025323840499282824
0.45171335976823457 0.2812456519710622 0.10458511599188114
0.3747073630428872 0.18616266887882205 -0.00681834129053982
0.4207646048809295 0.23942392928820766 0.043939837346528066
0.4614424926616607 0.2318635449997828 0.06424558100769673
0.4582226768894486 0.18186930867992146 -0.03308022834755775
0.43405859911520395 0.18881974844947536 -0.04185790146209456
0.4008821155480149 0.24463704446692702 0.021013667293573235
0.5169456152773932 0.2792073445019696 -0.005615950524060054
0.42370493364504114 0.21090031723107927 -0.000212605119642717
0.4396569711471159 0.19999249442980727 -0.06959676437071494
0.4881051886269745 0.2617562193724723 0.05253094791471824
0.4930126170513347 0.2803712182867173 0.0991645299655346
0.4386484308725329 0.2392519259759638 0.023679647268039616
0.4363199100286863 0.23935088537834304 0.04237312497076573
0.5953239515423974 0.41170340118256377 0.3023362430141532
0.42098759668455443 0.20717847956183277 -0.029640331516546325
0.44478589930380963 0.20594924041827767 -0.037046846838237
0.5217707316050308 0.26341416448414634 0.040470612736271505
0.3941572017638464 0.24495706503472547 0.03216195811589273
0.43360918145297944 0.19843386092028936 -0.01782813462935451
0.3650051717793019 0.14593992124110855 -0.08031777329576073
0.39054848078109217 0.18917752315793734 -0.016494039199713484
0.30365989035325924 0.12239990325103633 -0.0503771500206085
0.3534091312813672 0.168603517164982 -0.04026784794547211
0.4049595304943807 0.21242002606646793 -0.05877266925490687
0.4991394649821075 0.23150375250614275 0.01645655867511664
0.4388250702696155 0.2433366040815912 0.10751755225058446
0.3510844788581551 0.20358347486032358 0.04715241708166218
0.3396962288550185 0.1973995450223356 0.09754925958527849
0.32978344176859764 0.11294360005925341 -0.02288028065737535
0.46542230347181146 0.21569452486778573 0.009677311779114461
0.46854964768380114 0.24433591089663764 0.013561383755387624
0.3553049135399817 0.19417289213225786 0.014386808687916641
0.4299983671880909 0.2200007729773148 0.04482333338202693
0.6298932609669805 -0.058050699554016205 -0.12576437946333385
0.3269859192416362 0.1472319810707461 0.014644253962188714
0.5449215106169731 0.24480798166339923 0.019345650257463376
0.45043852014808294 0.19858829749101403 0.007396355929074616
0.49420778564626744 0.2672862631083319 -0.03109513041823675
0.4994914857727508 0.21124088899733806 0.05079889756611067
0.3704600703150618 0.21032784225840828 -0.11738740830803351
0.40451119199053664 0.19349917137444095 -0.05910873418176266
0.5114923196173038 0.3316511399788311 0.14011318280691398
0.40526454065067696 0.21310762481381573 0.047507267388539276
0.43785603805474693 0.19472653371099113 -0.12209343600594025
0.4354066784722903 0.21847483244235377 0.022597494185703226
0.3996448244160149 0.2239111678439798 -0.04135863221566183
0.4458604403218658 0.23999643053022623 0.02875571474969263
0.4251530424907486 0.18731012821984905 -0.08456912258289151
0.5340088359282618 0.2703654409272218 0.03786310011331295
0.43899948463945293 0.2285253077678817 0.023187692583775288
0.45730050610553974 0.22643546039235218 -0.023916593390495677
0.32060503922178896 0.16736377612200215 0.02655757342110121
0.4421244151258179 0.20526053501413344 -0.02622589690290056
0.35277709288335757 0.26679836538005475 0.016420882873688925
0.40200359023175736 0.15791643681778567 -0.09393638758064071
-1.4338150868301227 0.5417634851426385 -1.6059215789964583
0.39554502371063904 0.23086840823157218 -0.02940537929794118
0.3577674229551633 0.24444647691876753 -0.027413691178708177
0.42451915890404734 0.2217543928345549 0.007306736154916393
0.44420985848830696 0.23671134737764987 -0.09227852120159241
0.38631561409083304 0.22275177488174336 -0.03286433593700622
0.4191511477852714 0.17576941315734018 -0.03383880505244008
0.49683944777922306 0.2251291349520841 -0.03324429033588672
0.3887389697591743 0.1984777671025455 0.029503967609798565
0.405730496109058 0.1790378234495762 -0.018328269607494008
0.46748104343501495 0.36534782885181016 0.03709436317492987
0.4296866711099341 0.22819759533932427 0.09971296775822225
0.46810061838492345 0.24392390636174355 -0.04449919876928732
0.40940042680335864 0.21100256976829712 0.025333156371203813
0.49352600115776113 0.27859605946062516 0.09047521996895114
0.47682568592480834 0.27373509528632667 0.1032054157913933
0.38738309304659424 0.18771215692476062 -0.09532903758186251
0.4141792004411968 0.26017744610851423 0.022243173972611885
0.41429040636819536 0.2301986140019494 -0.001630702854725996
0.4911504783319458 0.24863874449934542 -0.005176607385479315
0.3903855388879549 0.19952774820824004 0.004532757948069843
0.41709204074786044 0.20718728727175062 -0.01774757631683599
0.38371045669872217 0.18974173681334605 -0.08719292957746916
0.40949168256211976 0.18448095416445653 -0.035559832488360144
0.08629448943437978 -0.6807391067675468 -0.20089975706035545
0.397750357992237 0.2191753289997962 -0.01990298181021899
0.4072893104665525 0.16124563663558433 0.027978069808824557
0.4404405609535047 0.22810843173523665 -0.045937195653010576
0.45428860413913696 0.23195606513797884 0.020016918115572935
0.5370981656224245 0.2976666373150181 0.011378185268739571
0.41778912550347513 0.2058909405231475 -0.048500734904393994
0.38696507399367874 0.2379781043785556 -0.0018333374482324416
0.4337614901566269 0.17687608063893379 -0.11953462635030121
0.37151174045719415 0.13532449668679192 -0.03363041435699188
0.3973708864732828 0.1845019421802192 0.038946067461012035
0.31959167868717486 0.08988792130949719 -0.14364871088875475
0.3612766302434238 0.15384543254413074 -0.04511607403594553
0.34947120066576076 0.08561658338365419 0.07064764491859421
0.4445977429485879 0.24563576296877443 0.001233615559243617
0.2816973141990218 0.11877916044306858 -0.014412030600595926
0.4251580692392878 0.2055634466633478 0.0631202209733317
0.44436077079519976 0.23857574077041477 0.09673085455500541
0.37817000364714204 0.1904030453139569 0.10744698687712173
0.37959632715200087 0.2854858235393465 0.08939114043197094
0.45140519893685394 0.21107473479133887 0.004236101251748892
0.37787906238168034 0.15449203640486076 -0.13336709412277514
0.4507481106709008 0.2424681855913775 0.0430984470082052
0.42716294642853825 0.2701670980387689 0.09398778270801245
0.4720120656507305 0.25721068323568375 0.024598874762233436
0.5737685378730362 0.26158949941853393 -0.0004936156724113516
0.460454223245506 0.25695368709051536 -0.05684458356694222
0.3617773072346324 0.17898232959797156 0.04660578702717544
0.23299022267251246 0.11474781895444153 0.01724746215563755
0.48077567378008723 0.23889163134484193 -0.07610269119200552
0.5044697695581704 0.20547076479232373 0.13360670145772247
0.448475450869978 0.22336201037821013 -0.05255078149946257
0.38500773954194756 0.16041725065329615 -0.061674219654463514
0.4412738172809725 0.19240284422342313 -0.043072762658752595
0.44826257288561067 0.17979330642458535 -0.04742373943199141
0.4016422253696703 0.16227001673692598 -0.002413016057744244
0.41078911783623084 0.20435039901033747 -0.008445886869111519
0.45881683801215445 0.2676223642996405 0.03385013835983841
0.200590052820786 0.2109832538509835 0.19895091102769413
0.4516133485688272 0.23466298356149196 -0.06037782406895076
0.4099947451644539 0.21734317473631393 -0.004537231366327887
0.38737971455159936 0.193687317179581 -0.01982514267953661
0.4048878750460858 0.2423994129939615 -0.02446336180192077
0.4222559580031344 0.19642485400234477 -0.060157918641920105
0.41472751790288953 0.19084625329543314 -0.0037932983826181044
0.422988428625132 0.21591844366244572 -0.007533715473130087
0.31477583414874744 0.16971671019709333 -0.06103788739969218
0.4306255886131396 0.2189667531860664 -0.0246827164800294
0.4171290743709477 0.24550132619529563 0.06669296885775111
0.37017790254461147 0.24885398842653217 0.11304436869150436
0.32689762019700197 0.18424895588503887 0.03742673510333816
0.4265389257585923 0.20740019959058031 -0.020718059039978698
0.40719102946405883 0.19615729667944493 -0.025127925126781747
0.444101864795698 0.2621624906293505 0.13076015081813352
0.3702848707698365 0.16433391696352828 -0.024966697933791693
0.44076847913143524 0.20767732680292283 -0.06380136594003716
0.5009678455181756 0.20744494905270017 -0.06649226443860812
0.4449786809712464 0.2212828954944115 0.001460787856387924
0.41086448316309543 0.25911864723610734 0.02762996425964559
0.43634755028116956 0.24628970363053782 0.013781097309006896
0.45322183340584843 0.24689450245699618 0.08723770260112929
0.9294304275644976 0.15841426572853834 0.026977933029428414
0.3188103402187039 0.15205651780433982 -0.07150184285175953
0.44430455542722314 0.18822794213261318 -0.03664220132225182
0.42152852130807617 0.22374824688608896 -0.005020217165849772
0.6284670574666791 0.3384312019090032 -0.06800841996141571
0.45046551475896024 0.15969566829946302 -0.09516771287641745
0.435182863288631 0.18851387784096119 -0.08836301301019489
0.42549172415766634 0.20400752316957949 0.08302251493562096
0.6542650551551503 0.33286173467274693 -0.42792488647745586
0.4320767950096922 0.2256681997422163 0.022645049708728493
0.43005104330988786 0.199452288608839 -0.04302637596265413
0.4616380636450117 0.1965106554299041 -0.013528935862467506
0.3547316316186908 0.2109432365947157 0.07421825287558192
0.4167326760204162 0.21615854278286406 -0.02013458537678048
0.41475423097244857 0.2434706872233221 -0.04688320177957905
0.5076284787472787 0.22792023561947872 -0.039995594554326885
0.4728806714774123 0.37917992427459524 -0.132397128584671
0.32409732531755253 0.16009957886296888 0.09625049525605789
0.29639999970096653 0.26007680724258364 0.044795572668220984
0.4976831589566757 0.10761744935717843 -0.059645382066122465
0.37240767374909467 0.15311758565424327 -0.028899036523100108
0.4192228281111454 0.21207600367189627 -0.02279299486909281
0.3637952096246124 0.20711084693056137 0.009249692720274538
0.4347654260801619 0.1918669421260546 0.03367837798927553
0.5332245798558972 0.18421358015302758 0.08063300415051344
0.44043437374679684 0.20232511519876084 -0.013742287419532317
0.4513874841060215 0.22919005569374917 -0.00412640539889253
0.35143487507471605 0.17890870530158054 0.0799512326206866
0.5735843458301986 0.20960005173301965 -0.02828801154272753
0.4220067967714556 0.21358921489741078 -0.0037621613610951954
0.37183517290958434 0.14134668088672697 0.04776796069913303
0.45919503216494206 0.20188431786340288 -0.023788502960911728
0.32237525041583126 0.18313790906196914 0.01736373992551421
0.3626122060201453 0.15790122730398082 -0.08311009303675121
0.43896523818764877 0.22016143292201207 0.013916420354433967
0.3858620306293403 0.22511247457853756 -0.1252536533222326
0.41519072175404403 0.23914859454365 -0.03518303105633436
0.45668311827388663 0.254192489173505 0.002069153090374698
0.3463810033843231 0.20354898850972347 -0.0437315470604176
0.45764459406271385 0.24771234190745872 0.015659537518374123
0.4445892276396819 0.21819955433434757 0.027284938269957593
0.3927756892010166 0.16384752501046762 0.0185840142639222
0.442149588326032 0.23083467842334926 -0.011751728617156232
0.21077433698431491 0.25704403401473996 0.17195502524020867
0.2945827641669325 0.17375447992992576 -0.06001041904818294
0.4110589675633918 0.2006030301849222 0.09462289851495598
0.4524270980771803 0.21430055765779343 -0.04547343663594461
0.43435372167388664 0.17401946093355036 0.025020622831419814
0.43250396147745107 0.19337612746976163 -0.06568018090644046
0.4213641742621519 0.21543223269203793 0.0937270184745671
0.3098135220303959 0.21851249442323706 0.03118609905317271
0.3675046454578137 0.20764691172642813 -0.025321183798439506
0.3508535529211372 0.14744913594398668 -0.0678261506304807
0.4108672351878937 0.1794726072645858 -0.0025255179614305234
0.40924845207335636 0.19490239487731742 -0.061925465605554564
0.47125110904238454 0.23461515969341917 0.017392940330267948
0.3965563992115051 0.08876498524639942 0.029564823278633412
0.43259178091446415 0.20329934418015227 -0.04447424688058277
0.4559516656176186 0.271148380677829 0.09434627937245921
0.36660780358168665 0.225435212472064 -0.04231204985674708
0.375758878095354 0.16257634397331344 0.009552512647076128
0.43285969858766293 0.22145275119598296 -0.007195947048941775
0.44596743609974965 0.23349329377229822 0.027393089163069817
0.4453721562685189 0.21046020409062294 -0.02681508065836624
0.3629137781042573 0.1939995164261461 0.004831890018650142
0.4451199766261311 0.22446252128219157 -0.0726390022408765
0.34760933495772406 0.17391561742067552 0.008570403454783104
0.3472885992329111 0.2025540853845058 0.018147366201120008
0.43661512559705784 0.2115084997472536 0.020641621598997517
0.4669306293932891 0.25754145158046526 0.03340568318486703
0.4399833387550416 0.2396854028865789 0.05708399416619159
0.3708255397142608 0.21620684034326132 0.11805638133260743
0.4714273584612556 0.2585617119419652 0.042364872560710864
0.41676613766091464 0.18034951276530364 -0.02528024446135646
0.3606918101468892 0.14046668380288452 -0.07649949498527064
0.3505613391731117 0.17067917897182383 0.00016212565481055208
0.4945778323867245 0.27243654525582883 -0.01737731150294053
0.4302566417991329 0.17014614865468047 -0.06416272102489984
0.41072646457652695 0.2118346854193618 -0.020468678651909045
0.4109224892763734 0.266814723796017 -0.019039951540165134
0.47005648656372045 0.20757825014371178 -0.04576713241544894
0.4276325994873673 0.2171044688349042 -0.008875358428227287
0.47102184611736675 0.13134478854229314 0.019377173693840177
0.4479762953358204 0.15391851679027013 -0.024388912722571376
0.33193482928552953 0.11772596932745216 -0.07395808187604302
0.44088656635381085 0.23376049029550927 0.04853521890501611
0.45470487340710974 0.21111053507326005 -0.006244384241313128
0.3914555108978419 0.19217238660488078 -0.014647689578282552
0.36351145794643 0.17626766304422858 0.006551233569197734
0.4188463846956836 0.21041483475111988 -0.005916110875830327
0.414926639175917 0.19168588400350473 -0.06657925619701643
0.3925973805316545 0.20183077178994324 -0.00843560225146689
0.4082557971250367 0.20786990305018094 -0.019359628053649658
0.38406694867035185 0.20974984014006282 -0.019211676238427344
0.42675605150638773 0.24458750237350557 -0.005172079837521437
0.445562117234914 0.20244098282756795 -0.022067172714471894
0.30273955594610413 0.23218550755929357 -0.09805177584310343
0.4203553571893224 0.2340277537135762 0.007850911267127003
0.42224476688504353 0.1930103563740886 -0.024580447815935713
0.4327080101240597 0.19465417681470853 -0.01877830098143818
0.42511734781135146 0.2222009210260012 0.010699153517236937
0.34892229562787236 0.1557718015990872 0.030018815390576492
0.4806142422037851 0.007445299211596534 -0.3656735659937169
0.4500954250964355 0.24800218353882997 0.0312907775312965
0.3546969349017388 0.21700918709660755 0.07587675967869245
0.4175757339979498 0.3070984447756189 0.08429084146663968
0.36280075038769155 0.19819416428809689 -0.01815518963067575
0.4321231195237374 0.1959001654780934 -0.03200445623730275
0.3935325602988655 0.19272869875248944 -0.009036263340419737
0.3868666185651932 0.1932508123955472 -0.013491540047994022
0.4244906350456006 0.27114829375116756 0.11400983695799027
0.2932914047244424 0.163368623770495 0.037784497632884495
0.36717935694571224 0.15639432393778918 -0.013463505881986748
0.36575434897181935 0.19735600311909707 0.032746168466673
0.4805644206586379 0.24301462381743022 -0.030940947555009757
0.39693918048635624 0.275202804316109 0.0018171871624019786
0.3848866919436347 0.22568122458423545 0.01321109258726949
0.4349919192419236 0.15461345703775464 -0.11671324963390362
0.43349421302099245 0.2219100096374973 -0.012388777395756279
0.4800092183822642 0.22487558115092554 0.026033879962909623
0.4060243053289412 0.20207968591731174 -0.01139687316680238
0.47324285256941323 0.252053610771938 -0.044733988758977716
0.5355127963582333 0.19051934884694788 -0.05527246262273877
0.3415083816743447 0.41363565312593664 -0.05325438132925342
0.4221850238288596 0.19004328790207126 -0.07146392009923375
0.4842751437868742 0.28017031947638316 0.03902600356461505
0.27398884566646586 0.2528394541279795 -0.020766409616015835
0.4308941913519959 0.1545008714107894 -0.03725490744015758
0.4702639247712881 0.2391083093043136 -0.02703253297082142
0.4359983102861804 0.2203593977152991 0.04709622867693497
0.4430120060446825 0.8794688745314687 0.07842873031640352
-0.11235629398427704 0.1169861078365102 -0.7259761008473902
0.47649801712367434 0.25810987804790386 -0.021596115685696304
0.46209066327344317 0.25737563030818933 0.013680550304414396
0.39097670958415165 0.14359056994712205 -0.06946668156183478
0.37171351263774 0.17887138107138867 0.0012217834076011513
0.4109243674398755 0.20809473437623183 -0.05832393704184824
0.453736166105557 0.22727523565851016 0.03375368639544263
0.3723265075701647 0.20670953225483402 -0.04444644969380818
0.5300550104277306 0.2546442913616431 0.009553734437957928
0.513406002362828 0.28742697509751736 0.08048991249536641
0.7147499758454785 -0.1606782299686813 0.5826911905622012
0.41590965558160065 0.21078525511680368 -0.04594853565029666
0.3086849020094462 0.20390394351520058 0.07814076933574654
0.39814482137950336 0.16511695762225997 0.04317262731296978
0.48115852669742765 0.2923097739677729 0.030947150251762423
0.39774192102815675 0.19373473991748824 -0.03895778999897459
0.4229598636825216 0.23033257108667726 0.00744469700089212
0.3628150848810492 0.20089396651125924 0.1180440344260063
0.3937381548799834 0.1380676301461108 -0.07461791811368812
0.4873107470857576 0.13413246211750618 -0.08661251190136454
0.31993391478152944 0.1551288362874459 -0.1473692261824482
0.4170672381554539 0.19727415250926583 -0.05305528999741682
0.3791202674509293 0.20378730521957777 0.008361920587958593
0.3938514311666381 0.1991738922044135 -0.0027704750783072996
0.4832547438123669 0.23437952303100928 0.030111050245579918
0.40762371831294786 0.16895772323550773 -0.0470080315039354
0.423240746914189 0.19967780814143055 -0.04942015939101907
0.5059389466592847 0.2309578620028674 -0.02623605424051334
0.425506042805722 0.27526811342782764 -0.007227450640272082
0.3852649445919667 0.017213316769186804 0.32087214700035815
0.35023725624884605 0.12779026622861522 -0.03978802867680997
0.3992971421616005 0.1746481446629531 -0.11828830615404229
0.4923635018039363 0.24505499517533735 -0.002402677860402491
0.2730767651728456 0.19986847685402154 -0.017665752468417395
0.41227079348760753 0.16727771071758468 0.14539229143723276
0.3242683652810001 0.1652890327869585 0.04017460185627897
0.4871808084281639 0.1777240052497575 -0.036433382032328154
0.451029509241053 0.21786908067650756 0.000560221349786616
0.5349183722544808 0.19969688886726544 -0.04179069203657093
0.4678139826901315 0.16466436466089363 -0.1579548333713774
0.8303093465457323 0.4070720710028297 0.06986029744646771
0.3295085181958939 0.15598234527577404 -0.05236452062314356
0.5106104857065077 0.26531831801707995 -0.021771841407954184
0.40514525091032283 0.16069641047741356 0.07017235522178566
0.43188310399699503 0.23964050335445108 0.024890458846428487
0.4797040727297883 0.22171983549623064 -0.015249369496771692
0.4521183218493263 0.24074241671461039 0.02568813855552321
0.21034580739095077 0.02764372414729621 0.05855206760898568
0.44091307585949835 0.22164456312070513 -0.11634474534119477
0.4959597335318051 0.2624388492127565 0.013507843701191291
0.3300861925139742 0.17881616120178023 0.024295472800929474
0.42495578191349637 0.2886100219002685 0.21831054572921005
0.45333278206116745 0.2545710143473059 0.005019211137181401
0.4564968134612286 0.2296856902426896 0.006571526326325738
0.41402069489814153 0.20753504471466044 -0.042736452273786085
0.38861072372390026 0.24058619857133579 -0.13551726954338505
0.45516919393514854 0.21697123770017868 0.006013489538005956
0.40280571092783646 0.1805344188170892 -0.09105795412813222
0.4387503010099465 0.19834797549802374 -0.04655937843153879
-0.5364000582756603 -0.6031356902480809 1.9035027976035224
0.4096955316378086 0.22607922956711946 0.06677900144521232
0.38977750409797807 0.2059539844008782 0.030056784186285768
0.4552574270612695 0.24109150476768093 0.029606814399286918
0.311651590444356 0.17090133354548698 -0.008401403588322864
0.5309347652455187 0.1889427737147713 0.14394690551802114
0.5443645379411208 0.24426083875385984 -0.04863838314105351
0.8968386445467615 0.11417380136832378 0.1545308303429067
0.3961026794741258 0.1987281855079317 0.00774551021197567
0.5323818277662156 0.1869423967829107 0.00517322528790487
0.4135679241668271 0.1929872048570047 0.1018297835318549
0.42416325193107696 0.19973356848736046 0.0636584316194444
0.40729128048894836 0.2131772020463245 0.030793332128197903
0.45616940553664165 0.19619372095654342 -0.004560206502958408
0.419536962959171 0.21392398298155513 -0.02576594986722114
0.4811480255332867 0.2280878315715853 0.04696342979606527
0.28626426462079735 0.15218500810030378 0.026889569289451742
0.37515292140022893 0.182031306138839 -0.027783701774723113
0.4193673432147307 0.22880089780593948 0.01593413077750938
0.46540607277512436 0.20285987494681024 0.056291539822950654
0.40731347639243154 0.2107145390439058 0.026438482678400987
0.37012090767814243 0.18065490327919065 -0.033892063632848135
0.42490972247408365 0.2045450564926199 -0.04082014343003948
0.4027632863466124 0.20484835305765614 -0.01711279800582588
0.4127535640371036 0.20932388112811395 -0.012621908471430743
0.4196674487871803 0.2321776407435152 -0.014460765565104339
0.32798426279347836 0.15544342555568846 -0.0916431755262721
0.4467122917398001 0.2160404503235327 0.0065059738529669175
0.47632718712986843 0.3127488562332701 0.01766573220737655
0.41612759792852216 0.18192446082883862 -0.0975948269060325
0.3987511793441456 0.1963338925390019 -0.06150960198314692
0.3555797386547397 0.12367920407774591 0.032801005575635145
0.4254639573642578 0.19123688710635633 -0.06379813988337446
