# .PCD v0.7 - Point Cloud Data file format
VERSION .7
FIELDS x y z
SIZE 4 4 4 
TYPE F F F 
COUNT 1 1 1 
WIDTH 798
HEIGHT 1 
VIEWPOINT 0 0 0 1 0 0 0 
POINTS 798
DATA ascii 
0.5212426843125826 0.24635280835590834 0.20537300707545114
0.4609782182456428 0.14022026258956544 0.14401114348650879
0.41973161993539065 0.21983606892810315 -0.003522672320144693
0.4489597017125675 0.2303584340440068 -0.02160055190668686
0.4412857074992047 0.21258946264646283 -0.009333766312224157
0.4277147444378784 0.2108390969306697 0.017052549338075096
0.41607462348106594 0.8411215839091 1.0084393081077963
0.47106260365382013 0.24838249470067808 -0.008502975214554453
0.5571090222137229 0.32040494042691137 0.1612355479451395
0.4188160383802142 0.18304516098757517 -0.07754023147074918
0.41989590485690087 0.20646855574696588 -0.04938838824708114
0.36491095293840203 0.15642095906162012 0.062185189198430635
0.33398401148093626 0.19828507476802315 0.04874314216525022
0.48154509866787976 0.1568018144707679 -0.15557629326235656
0.4987957686504956 0.28786762686559086 -0.006808133767918889
0.4162413393210329 0.2123954305697282 0.024520752162800363
0.38334097541273593 0.2200574174345462 0.1076911769917217
0.40836711259481717 0.23846241835806836 0.03783505563455947
0.4781527542030375 0.36292905100552275 0.45894311366099316
0.38483292835474003 0.21160670188909592 0.028368979614072032
0.5380846908972217 0.25285970228486576 -0.007960981946155243
0.4685427453393629 0.24825849344246365 0.04581245521953292
0.4509521449228657 0.19628656157209434 -0.026818104274681787
0.60742347535043 0.23328777581858162 -0.0014177761323708182
0.495805046371089 0.2383446988353768 0.003473211674730692
0.4627795684231728 0.2095727269862664 -0.0025308259701546376
0.36919338277401437 0.1611790277619889 -0.05436187556632888
0.40707134619650276 0.18341845312835403 -0.022110369737703195
0.4115984239298882 0.21655290928849524 -0.04771087124231599
0.5185659674931884 0.17304184463057481 -0.03660835513909433
0.3903360734717012 0.21453269032336664 0.04594150287456955
0.5168906644366871 0.2623959588570415 -0.06590056025551405
0.5266358441943879 0.29494985505428417 0.1594681920692409
0.39642811205180806 0.1967448111940655 -0.014612281735963961
1.092999423506285 -0.08266022852357935 0.14844728353733672
0.3848518255886404 0.17761135873863054 -0.06739137900868286
0.39922727510375466 0.19187318174503787 -0.00565463909217101
0.5190041193529424 0.24127802199186021 -0.05039692084638148
0.4015904899816576 0.16651647669377212 0.0028342545525390506
0.4494023302409289 0.18553502029223523 0.15100238724949122
0.4594342958477 0.22818000608098998 0.02567281215944206
0.350457988002546 0.18093900469798996 -0.029960637365903153
0.40528947494200906 0.17935966080150934 -0.0019740126303418037
0.3964653861293925 0.22443767381400903 -0.018847409648458324
0.4143110076260115 0.20023295669045638 -0.043039500793923935
0.46847695436918 0.20338871693617477 -0.046694741867611356
0.39259628760150633 0.15541425725155023 0.01341595081133562
0.31373329231962543 0.17881589152167976 -0.020827183585538478
0.43049074265377385 0.16524216458893193 -0.10280044665820753
0.4149145454792347 0.2111449149995508 0.009996241622843627
0.4610083759107084 0.21716602737748758 0.05029720036395702
0.4360617800610527 0.14387725373578064 -0.09453721922025693
0.44309564713421423 0.25003797753933554 0.04650743901024157
0.05299823880341137 -0.511276131654455 -0.3932550792999763
0.39323513509626196 0.18397465308825645 -0.0046199262477841785
0.38810274486530716 0.18728518161695717 -0.07488363864794678
0.3628860314517084 0.11068328416216389 -0.07246589006908266
0.42864541290536806 0.2561993462739167 0.07973636503669468
0.4552987455637947 0.18197900514364562 0.009080317576334096
0.49327314752913765 0.16393509517543237 0.047696106708286834
0.5271699484414967 0.25659536388596393 0.011554938191579822
0.4331843379734437 0.22688866566218735 0.030951477973601982
0.5024920206891181 0.30797794883856966 0.11810127873543763
0.42422460401670037 0.22767270551381102 -0.013785100853027643
0.4751730471082283 0.18903286304032463 0.0011837797440676923
0.25266496236764624 0.24706199836282394 -0.23923233482089756
0.4252456617177387 0.20033669341350446 -0.021039086489452075
0.3759499750953239 0.21330109848761936 -0.01879883422688522
0.3966702353498732 0.153314573018406 -0.11826019128830012
0.5126354888679145 0.2278053157303077 -0.0636263455306505
0.43096812861011813 0.21236065205197008 0.09264402203990585
0.4072612890629017 0.16345461970325914 -0.049146105580518906
0.4083657505760243 0.3265787082137024 -0.03346621292257623
0.9929894707967009 -0.10941050045124712 -0.35386263890629266
0.43828483608081115 0.21361138283680248 -0.0023776648320108507
0.35500552001363417 0.25752824714481903 -0.08898411567449216
0.46557931603121006 0.2428814463612241 0.017978430740043905
0.42015806281196433 0.2295631277243615 0.08909051314064698
0.43733048468897096 0.18352588706191852 -0.0349176759005303
0.5127726770124923 0.2973774371867819 0.2550335010636786
0.6408696523261739 0.25577001180423053 -0.25670381688294697
0.4816543884956275 0.2826039569214487 0.058779489560635056
0.3896530926432291 0.17179600095357728 -0.00998820294873326
0.3409046441882424 0.1752717765093479 -0.031267222570988906
0.45119031384477637 0.22824694559473357 0.00199008841090631
0.4514867900061148 0.2105551563362269 0.016254487821555585
0.4418355680722925 0.20693900768756635 -0.011882780492882716
0.4329191416040601 0.21769854727321558 -0.0970833061401919
0.36714508263224843 0.2277757064899788 0.07654713123127976
0.3878471969642163 0.19907990383912022 -0.12821564325005852
0.4376982207015203 0.2168220081596246 0.032852946043732345
0.44802949340612486 0.23557842679073815 0.033138251256474405
0.40890548151025996 0.1533119016897473 -0.02777163366891955
0.4381755580269129 0.20431959471883943 -0.10514475941124601
0.4657298135226 0.2405895830053737 -0.005668363719706804
0.4542501670914163 0.1932939678408161 -0.036008856021013
0.3659018826795375 0.1594035542120622 -0.009612792278062443
0.39696463455398145 0.1671682415863387 -0.10202879309775881
0.43677641282863533 0.23032967588517295 -0.03204576306598028
0.4301750715227399 0.2527395050323662 0.11569405988646508
0.4062040517177934 0.18119116235035904 -0.018122902463801438
0.5155006373858271 0.21400969589114993 0.023721587743452233
0.49329505930747075 0.23961445388638936 -0.025052974975466213
0.48512236960894484 0.2524097806463601 0.03291817767862426
0.5123482957226031 0.22029682340786394 -0.1388866664372017
0.4993754259969023 0.20766570421284314 -0.07911774662154869
0.5233859527871232 0.2291037029790033 -0.04134251985283299
0.3486739678797619 0.16943435825336906 -0.006269133380953917
0.22926748474600345 0.2573773277570979 0.009661547441723428
0.25931550158666994 0.06935195828327778 0.04937320016084357
0.3975275938059326 0.2363992716181258 0.09822780294950917
0.4410675110752038 0.17422061557826396 0.04600445165232259
0.4351840431843641 0.20245623424730752 -0.03931871858183911
0.47401346292191704 0.247811648206266 0.07238269546391507
0.4147860642598715 0.20415146048510735 -0.037120038222781204
0.36321216973985315 0.16295459638612897 -0.05918407720760399
0.4106739202391907 0.1901063130947307 -0.0762513311852615
0.5702536010302026 0.2411583409403164 -0.030123342742115256
0.42993651173836156 0.2204254249711255 -0.03754918790943407
0.4734908942479308 0.2329912220237702 0.015179468456139489
0.49647119945414886 0.2887991754182906 0.019656311854632236
0.45591562878018976 0.2128779699046106 -0.0031344287927481673
0.4286463793568771 0.19696818901516622 -0.0053287045078462825
0.486466967971495 0.26429312929903404 0.0031529683274698073
0.43630239847468033 0.20867563361268537 -0.0033149498635509644
0.4321531785531647 0.20953091095367427 -0.02611424112993177
0.3337863048953409 0.1792400254125539 -0.03988400133960113
0.4529116997978804 0.23975461744200288 0.01436887043470847
0.35874136276083846 0.23632467680906188 -0.14446180280933163
0.43362222484992685 0.2399504764593985 0.037061308704522844
0.374458421108784 0.18420395777907572 0.08183179682853847
0.4603383537900356 0.19254642739130645 -0.2040959248976293
0.36554713099931746 0.17859641642156987 -0.09387285505718523
0.3839309350418887 0.2295867863592207 0.016208196706642752
0.4410790490029797 0.20153772152514193 -0.025901703198528025
0.4145859547319617 0.1969125081996026 -0.044259670407825524
0.4629046884785737 0.2229015748516474 0.0035940056370264983
0.41255380590666846 0.22525652710686472 -0.01657425350970243
0.4299719037908005 0.20246881064394984 -0.004462532334116531
0.4815114386677237 0.25684541360485014 0.11554975151186397
0.4253718726191238 0.21747439522651746 0.0042456607455818585
0.40577624215126207 0.13742202408414528 -0.1464209509522334
0.39804331331876597 0.1761940326276914 -0.0023692782217352715
0.536520616223811 0.29651586906155103 0.0703717238078525
0.485927280828065 0.21924302803650164 0.015388651592758151
0.48642543813853933 0.2456624345190619 0.07946474663418712
0.42412282521141265 0.1964903159058622 -0.02208837161703059
0.47734203881441317 0.1996625210428249 -0.02812461538263733
0.3435333939982286 0.16712234106091728 0.003112106253936986
0.4844679969591539 0.23607322257727503 -0.03113155021503644
0.3300380293978975 0.2141010326157584 0.018968358669525287
0.43438469387017165 0.196481379295534 -0.0798272222140497
0.4817129380044207 0.1780119739854058 0.009073640002185357
0.4108216728457421 0.20696369069335674 0.04002629037026395
0.17193783124155004 0.14578190487483766 0.26036572314316686
0.5010388807838382 0.26692932407246417 0.00790519776622034
0.33820396330273184 0.1561660812037644 -0.0324526002104335
0.4533840519243597 0.24276210091784378 -0.006256408259361024
0.49694966326134704 0.23234311308928568 0.04849096617974169
0.4553398040826693 0.21371541450611176 -0.11100517352190309
0.5041554141746758 0.24657766552442695 0.005627566715446619
0.3470985615584965 0.25212373220787754 0.08508489672303199
0.4047656798991568 0.21083080012137145 -0.05630275118974737
0.34913285775974146 0.18863912695090335 -0.04044169245253215
0.5003208472609515 0.18149981146353866 0.037752865020621584
0.41034929689439537 0.19102159189668555 0.014123714688992095
0.43576936399209387 0.1803562070599014 -0.023257168390259153
0.4978823616324348 0.2553844026819263 -0.0509940684690946
0.4602735096537458 0.20474381708780243 0.00692235900864091
0.5202861447778133 0.18415537919456426 0.1186010667001085
0.3975810854855837 0.187377378762136 -0.033422995805693745
0.33102848129259144 0.2507563508880253 -0.05327245867147212
0.34983290707681647 0.15041936996854588 -0.020940949558109878
0.43995718056461897 0.21146479879575963 -0.040407205759720455
0.6310662421982016 0.1848375148165644 0.05911857064141657
0.41581049256087965 0.22934274437648128 0.06204010716649577
0.44005576599981566 0.3017455810422547 0.06620878262862107
0.41997046015175954 0.2332540725640797 0.05597749252130768
0.4570072893477004 0.24843031456327935 -0.017253493413988963
0.5071256217100029 0.2356809844368115 0.05293739092536498
0.35561981671932585 0.22223155196321898 -0.009176868056925969
0.4259007998996651 0.21522557371369544 0.0009131411052152316
0.4656480553635447 0.2428807268159403 0.006636910516846228
0.46805920137690293 0.2476418200402577 -0.00793933971323213
0.04646233720185933 0.2080472858351925 0.7623218414169628
0.435476896653995 0.2272360604076482 -0.0038876007640737953
0.5133376557044613 0.16754348320773715 -0.18064387914492386
0.40478189297360245 0.2357022499720216 0.0058386526471423394
0.4388304133318712 0.14076965890400572 -0.1510108783420634
0.43389667821003286 0.19681987636639064 0.06263513272973853
0.43984866380841936 0.23280974418668166 0.009800580571962314
0.505224902988175 0.266539138156503 0.08586876310394587
0.37920091870701356 0.14128423412192603 -0.05475221800463714
0.41418644596237186 0.19770467644838163 -0.04123438120107892
0.45205999573302336 0.22254692350793448 0.0025939719563154995
0.43679773093728613 0.18249521702344396 -0.1689437789509043
0.33409462011962887 0.08213865329831549 -0.06389573508371882
0.4089035294783656 0.21453966889457377 0.031050855508027553
0.36954280745175083 0.20484912003627187 -0.03011655298442406
0.4639878778192923 0.21401725582569497 0.0017282561924787387
0.4302706497584552 0.2171344792416221 -0.11989451780928562
0.4970788936928443 0.20437542150389731 -0.028717580342714655
0.4718684953055856 0.2261566950337084 0.018995630280244313
0.4585359982241357 0.19077715488515423 0.010923009284383056
0.41575503320878227 0.2286590461377216 0.06613154013808753
0.5183290232192519 0.2046325059304479 -0.08210176973405225
0.5088975615843481 0.3301685269337611 0.1933226701723072
0.3796285486401416 0.20062783212600266 -0.026712483837371792
0.4505714405223955 0.2234659109131769 -0.04125105018638919
0.4756074922031388 0.117295582537281 0.10405183399342377
0.5235840919258976 0.2597010848020318 -0.013288113617051067
0.4304267712421108 0.24351050703751298 0.013275777349292639
0.5275901049733136 0.23116350052596601 -0.03851657846030321
0.3755604314155363 0.13582547776751142 -0.1173894888426048
0.44465689027090605 0.22509235096725888 0.022665557236905443
0.4116836681859155 0.19670941177118095 0.004232218980064317
0.4353616263667277 0.1789945571725866 -0.017013211083821034
0.4524256288585917 0.2543165401560259 0.025782138467917548
0.37830543503477543 0.18694784438642387 -0.021636057910484396
0.4192206476283218 0.23982358294742312 0.23463694274286695
0.38247762479372227 0.20304076687816064 -0.017511484976424185
0.40176475439889714 0.16822137132194825 -0.069249230865978
0.45153124942567047 0.25893293153775687 0.05579324502659233
0.4753854281276233 0.227931628782855 0.026237436259805236
0.3850946560394277 0.2214297970062944 -0.17727798821019292
0.41403007262108815 0.2957577676099561 0.0965782038486509
0.4692646178631037 0.25973480719974873 0.03848979931238716
0.385370220363086 0.1990308121363853 -0.01928226031708391
0.3997250583083769 0.20420317293550738 -0.033856213083168996
0.4845864719938078 0.24089687493093948 -0.019082001618556887
0.4398887538283702 0.22855669421305436 0.0009657241684806195
0.43157036789347103 0.21343377162824595 0.07118511532550542
0.4266789084677356 0.22161110128513428 0.05645118339162991
0.4668353288497542 0.23404670614696954 0.10573645260194553
0.43925163467329753 0.19922081651301937 -0.03040042596353487
0.3905252848850864 0.21166189483260212 0.05469767695544192
0.4711376923949331 0.23760062473299115 0.00734837534528765
0.47908228835359523 0.11089768358920082 -0.10040630310055576
0.4071405297027013 0.1434447821845879 -0.03006535434880675
0.47617951494399335 0.23334755541583263 0.043291784105633724
0.355674076404469 0.18625307635664967 0.0015769952784978614
0.4219466550428166 0.19381350943329778 -0.05481881347049011
0.5885234867397742 0.22282834446217237 0.09205076627416986
0.546990483887555 0.330786427859465 0.05514706584739315
0.5017361544157666 0.26254178272606055 0.061828669132623304
0.3960347575569756 0.33644596504180413 0.09185721377946265
0.4433988970819911 0.20745280697701673 -0.002718453228283124
0.4578983546814186 0.21868437085134929 -0.031258649286186824
0.43656063336040063 0.2305989849026986 -0.009317939437124778
0.42216830761324786 0.18588757287329827 -0.01789847830652036
0.4333274865410601 0.20863884836529678 -0.003411273514572599
0.4333709440251994 0.25679747089047567 -0.0009016434223099168
0.34481369228880965 0.15802113252334493 0.01933002822653407
0.3442278982389553 0.1680824651118087 0.07774933635923276
0.4663667508179259 0.24742339776321387 0.0007881784183325635
0.4141096295239777 0.1783128034901722 -0.01774990384535613
0.5335390117619454 0.1820146385175292 -0.11428452817148127
0.4517972149932916 0.251340078875387 0.058024623406026876
0.4999464726152354 0.21557470503930176 -0.013420182857743157
0.42266412507602524 0.22760870609465655 0.05131521912268511
0.4218754537377123 0.21381749805648553 0.051011088017332895
0.4156613493027237 0.18681828352818286 -0.09501142837143561
0.4207100977163236 0.17882710858222595 -0.09549383635420838
0.46105455752243074 0.18524499658221316 0.013336959096164946
0.3516509788017004 0.20212015362906754 0.038815323806971946
0.41955202461079466 0.19552971425910926 -0.05119305551771447
0.41814941985123255 0.19546406392089466 0.01510643283211266
0.44375553669325996 0.2762443544831399 0.11166758878196958
0.384921588655331 0.16218993121094627 -0.04211224554137516
0.4432346765828754 0.22454580610347818 0.020168320493823444
0.17073791267318938 0.15134119529537315 0.5878668959769584
0.4199374911634095 0.19380021437844164 -0.03902093217038782
0.40618240838053055 0.20615305027965292 0.046740887267674225
0.4746791700763282 0.2176928875804549 -0.008243190122641408
0.49030560803501544 0.24865606331931644 -0.06441503407626215
0.3403649693151891 0.08221918566670183 -0.13581957381710197
0.4390046667512024 0.20294998197914538 -0.05943133150870494
0.40669005074971665 0.2565848982868033 0.08628153454743881
0.4891513416942246 0.2571846125365056 0.006357451217553489
0.20275698853686208 -0.1802846073362332 0.06221340885345228
0.4413665053175748 0.15024815922430435 -0.008932936608360365
0.4067107583548193 0.1657130159773459 -0.015622556645510599
0.43169380426289194 0.2254570083205465 -0.017147957974003702
0.39228395171707575 0.18366773462936692 0.034389100351262414
0.5131065917379658 0.22915231472624953 0.024512329975848957
0.4503390053003784 0.2470558803600511 0.02330364747092517
0.3608790421446315 0.18783039065058915 -0.037600245933703036
0.2462578498902417 0.12015503040694853 -0.11169562511017261
0.49282224697881816 0.22515249165245166 0.04883488164344385
0.2685837391867665 0.24692783827323694 0.05485642110051003
0.46872515235952505 0.23197960585858368 0.02178976030526769
0.4433777508300665 0.23522183044504175 0.05416145576924691
0.4139178375995556 0.18038815587459567 -0.004280288109598018
0.43757626420179463 0.21227683926255736 -0.007360577891034836
0.41418112416386066 0.21262535547313632 -0.07191170134623803
0.47189937520788305 0.20906545577261682 0.023937573881738672
0.429408732165939 0.15622813161002114 0.09227932484847656
0.49356501268727015 0.31327044969459905 -0.12874333181551378
0.42444112140802304 0.27065285480225043 -0.06088526177026665
-0.4879855242204627 0.4363410879808356 -0.3758648938085116
0.451853667701414 0.2502192029290029 0.0018073226073624937
0.5074088016391443 0.2730711925151468 -0.04429079587563933
0.4361094423279894 0.21377143522236963 -0.011143122804199379
0.4608156466719606 0.2567718440758142 -0.026158112642789888
0.4141635175919163 0.21603820132057194 0.058921896855054
0.44154494807251865 0.20909320210228088 0.0035226745646355084
8.507849335480842 -2.74108345618572 4.2239593432911136
0.4217617796806934 0.21196736871888788 0.06666688119071296
0.3701380061629749 0.19501537526008406 0.00944006375792128
0.4834535389672112 0.21166766977881935 -0.008917978319431086
0.463955082672328 0.22283590008183296 0.06164013869008045
0.4050329316251009 0.13655356843597133 -0.04680207284310711
0.44814455697178346 0.19584524107058598 -0.005658984627856967
0.4643097347845071 0.1459612210066723 -0.16000135007411131
0.47454469587245285 0.22453060892186727 0.062201028018833426
0.41869361410125805 0.20618090464643046 -0.04070756399705999
0.4370400621556314 0.20613928966301387 0.008422220591199903
0.3310242557096217 0.16181500679758187 -0.0635999727852834
0.37463376430258677 0.1829490108725622 -0.02431565716364048
0.43707112592126407 0.21230021023893642 -0.015637838828070016
0.45934919910084204 0.2811026748381096 0.038215518460887665
0.704355581086503 0.1973415704608925 -0.09355871478260269
0.42380473832461973 0.21033317142236285 -0.03884647582913203
0.3892964398879144 0.215304033066559 0.09301966232362702
0.37003754333332495 0.1940825567700415 -0.028716096258776247
0.4476835286035481 0.1739441888728379 -0.05678784741175491
0.5111096952353762 0.24030925815776527 0.08347606119073703
0.46112990619778316 0.2705314942865158 -0.12666791718271497
0.3608629279439981 0.20156840262208675 0.039401559194800484
0.45158670087695896 0.16173521195580065 -0.03222910652624478
0.4239345187741037 0.1861071317557048 -0.024503365862557303
0.5184556980207304 0.24238787870663714 -0.031469974922316624
0.3862106766383988 0.20017608666596232 -0.11286950583253486
0.4078233080257121 0.18388357626071183 -0.024871699163099947
0.3877081773478892 0.18830508950824765 0.004594389590479864
0.43475518133786295 0.2271687740904298 0.03594518683418357
0.36859264049627427 0.18561840204552027 -0.00733260475425368
0.5315215834293667 0.26103541515172424 -0.013489157387795103
0.42053247631881163 0.216453702613137 -0.0403152139937788
0.5175009527805514 0.26892761207327 -0.016128274501284068
0.4610133862756527 0.28579392933019676 -0.00848078720106571
0.4567068511196908 0.2270668410761516 -0.026819222373077878
0.365681943988065 0.18424427307962787 -0.016291455446548753
0.4473413555627417 0.27400046507898423 0.08315725097902771
0.474179929379801 0.19347312754749169 -0.0567130064591197
0.3721433520362467 0.19287785781466482 -0.10312926355095442
0.16618132700014598 0.1600028650066463 0.09935690063704783
0.5138741516409198 0.206872111954425 -0.01844813049031302
0.43948116673701065 0.2227418260264642 -0.010779431247016191
0.3913451511881334 0.17878270299181054 -0.1062203154307042
0.43552426114766263 0.21920628826620714 0.004452059115180873
0.421388010182568 0.19986218307533932 0.011628635612538574
0.43013688599759803 0.20559589775160703 -0.006763164017002055
0.43844734287503684 0.24376465374587042 0.012103787351691153
0.30621298971310296 0.17254828411535073 -0.02523231288104455
0.4200567780852964 0.18837213406789033 -0.02906496363515032
0.7410684996621342 0.29014086605930345 0.003788703702667817
0.4296017647610171 0.24065074150990995 -0.022322819468726607
0.44648624346888255 0.21389439264059718 -0.012841041445739165
0.34443268172722696 0.11649878953757309 -0.22597790731566647
0.4117483037747718 0.22753828068249504 0.0008291368549748768
0.495038256948817 0.3053380517444424 0.0418750630166187
0.43632419660968935 0.22028666175582146 0.034281425605342974
0.36999016881911473 0.20287040554575242 0.016945801687398898
0.5803871832488028 0.056661552302983864 -0.1608470591331752
0.6501729359852817 0.7136562601824608 0.46149465140779
0.44368444195967527 0.23867537073201106 0.03862083594592036
0.49484868984862374 0.2959511379639679 -0.01877947854373474
0.3480685910104455 0.20876694776271165 -0.03917576624208152
0.4272586153145994 0.22024783683484372 -0.017748479690126828
0.42945496751082146 0.20526776831570714 0.012250061375453924
0.47474595315730994 0.23751417416826826 -0.028109917117191685
0.3966097587165649 0.18987256309324607 0.04343228196452742
0.3433561715505107 0.169572754178688 -0.07161509159499246
0.5484738017028974 0.1633212283065859 -0.007643360748886607
0.33582009883150477 0.15048496136958533 -0.024379942624477735
0.4550489307847556 0.25206191294654445 0.011921382914437118
0.4275674254059538 0.24244136964924223 0.10094994231124588
0.33079659586903176 0.1605176620173836 0.0052948685450360244
0.4629049015578204 0.24071568631805462 0.009783015137301732
0.47290614353147475 0.17230610351862197 0.002605998126199438
0.43457040135658076 0.20663188468094518 -0.022697338608935524
0.43164536073945214 0.19824402121503226 -0.022151358503037955
0.5144524158155122 0.2567035694349187 -0.026595369472289576
0.47909909615103174 0.23516613131289432 0.03112888482664289
0.44794075633014074 0.1714371002096442 -0.038734639713737806
0.4012719674480678 0.11302782198464456 0.04526903982743136
0.5481650045230992 0.20023207998266912 -0.070639040581014
0.3780262376466794 0.18932116604985083 -0.030442477255661515
0.6101811033081219 0.41024428801313206 0.22531827484536393
0.43446141409474137 0.20956987788621007 0.0008525187136001477
0.39954973692132967 0.23544460253174293 0.06484939131783563
0.4787150233142228 0.12403393380469652 0.11583902165948246
0.39856242487007876 0.21540672989529241 -0.006860486673971877
0.5016340207005499 0.2817102044031685 0.013550566565697864
0.3950060178971455 0.22295288103418898 0.016978068860709072
0.7541286070987496 0.14961056966269837 -0.06712073678538388
0.34012799887599954 0.18441914081357424 -0.056983671370687716
0.41581867146442164 0.2539724086045396 -0.0252764044625593
0.44481999043674136 0.23334424303553192 -0.03146413854571506
0.5447885828408516 0.24590043361214953 -0.013102873115968805
0.4177770749820837 0.20902729529714748 -0.008874214045562212
0.5019225232398412 0.21933187143037003 0.043015733305253434
0.5026767476671807 0.23334238917411199 0.041664184842687746
0.35897758780301103 0.19391143320652304 0.052610432590313394
0.4468174484008074 0.22567285064266684 0.009222305927039542
0.4027699510095033 0.190892660000344 -0.0787928493079022
0.38168604712782894 0.23169569649073196 -0.033477372041105014
0.425735873337004 0.17086960815885277 -0.06535783598511102
0.41402797431783256 0.2229030729843373 0.06377305226260432
0.45981117630284984 0.2534942447831696 0.04686786619913619
0.4139851412892881 0.21288956918959911 -0.01827176473133818
0.4270781943705231 0.2156308807130074 0.04498699251283256
0.43697430853490005 0.23120456406888934 -0.002361016026114271
0.49039993483482647 0.23317447496884824 0.028442962260129434
0.4396203235019982 0.21483947554365557 0.013905744012888022
0.5333091958690375 0.24648175638751013 -0.02858942410600207
0.4348873553876018 0.19967430860540958 -0.013079824666874629
0.48891116232312015 0.22632590704756694 0.07650182225908964
0.3533967927559729 0.0973352592165071 0.0007246375106007008
0.5091317414882468 0.20118632796072689 -0.05561227026603888
0.5395564460314688 0.2945578655286596 0.03864623486364849
0.5058634314013517 0.21516120530480976 -0.007514770634656998
0.4145262739386766 0.21466792913086863 -0.014158139759075539
0.4233318552468006 0.16039835191197938 -0.07618240891554251
0.43309974322711753 0.17972320702274658 -0.04275505924847778
0.3744371347542881 0.037046415791678555 0.15086751239641671
0.4051997962422291 0.22536192824398427 0.08513933530917939
0.394926714548717 0.18570612739938497 -0.014356234429556025
0.3975253344934373 0.19800837139869998 0.0112235523707227
0.4203494969255104 0.19825969680880462 -0.09606768486864325
0.3220840795517006 0.16690937290280772 0.026477293135457103
0.4568214124608687 0.2179689488192622 -0.027146622269000886
0.3933600065196572 0.18263642322892792 -0.013805239861341079
0.2537293134688525 0.24458248892290158 0.1435934126760685
0.42050654022278877 0.20009638725480272 -0.015489083702703965
0.4261555538648736 0.22064011533336725 -0.018291204176804854
0.16590395130251068 0.2903746102424236 0.6002427428093995
0.4194118525632291 0.20313122315531018 -0.1051514586834088
0.4012062889201786 0.22643671422555656 0.06917380063502776
0.40393466095719077 0.20677191504719872 -0.00014736718063090848
0.31921638367431626 0.14113474350259025 -0.07696924851670417
0.4716376855782727 0.2845388792846677 0.02757132368891746
0.36587743334683864 0.16909702520501924 0.0051382928391774385
0.5978136506922453 0.21182627658865272 0.013696191653338019
0.4451231054947158 0.2157850719719363 0.0018804155259601885
0.5566553213392638 0.2257451906455259 0.12940451788954022
0.44415110104071687 0.2206285917876869 0.013060759340675077
0.4447915100460307 0.20041197103003583 -0.04244618652973031
0.4968450450831625 0.26654789405077395 -0.01343396955053322
0.4360324783528142 0.23336688137115402 0.033633120711471065
0.5041684003462308 0.2702126799062228 -0.036102500517301905
0.29300026768702025 0.025964329068330017 -0.0892512745424483
0.7874587066569063 0.0785054484496186 0.2587031244567157
0.46421115129729174 0.22003936730369844 0.01906304329790487
0.4219738032681022 0.2279608679156837 -0.013480507139476572
0.2616726337505213 0.1952643786102044 -0.36313298088460044
0.4372731769276612 0.23664259152081968 0.03522167679025756
0.3568647515781578 0.19715006790214318 0.06568060843764556
0.428250861370131 0.21569156691282387 -0.06413756908301593
0.6562444136097838 -0.11778324974734744 -0.21769544223894854
0.3883253711341297 0.270232454267088 0.06696760010184732
0.40046693615585127 0.18480297561386294 0.018124473319886647
0.20583537479942038 0.20008414784848583 -0.1705444222012602
0.4541223608091798 0.2517558356299219 0.024873514870506597
0.35149634078300096 0.12633465466547023 -0.15176158517390093
0.4023324946650746 0.2811260649237113 0.049906622621648467
0.4072525576285102 0.19936815968642918 0.04623514119205652
0.5682829307180128 0.2626847352451307 0.10777080713845066
0.4466763128259714 0.1754215709813991 -0.06627889683244348
0.42205826100459376 0.21266463247448542 0.058127241933959795
0.4484990835231599 0.23134700260571606 0.009603485522632127
0.40682318292633113 0.22324357879109868 0.04377532808544515
0.5224997211109041 0.2262968034159627 -0.01182963154791139
0.43329465960260904 0.2824873423152212 0.06766577346395763
0.4302349677753625 0.3461076206721998 0.1288873784299085
0.41529522586716894 0.21364995778864682 -0.03351043395004183
0.3854635051594215 0.166862927146326 -0.09904678588593185
0.45687304451341504 0.1945204611687643 -0.02958318780929403
0.3419772773086436 0.14548556612081143 0.0062491220473219755
0.4932010726389393 0.2667368709934692 0.002877413523577843
0.4934450562067383 0.24835387697942224 0.02603678271600529
0.318466664212508 0.1700946044617524 -0.10854716744591997
0.4399543170130329 0.21500527068815245 -0.0852614329075152
0.562604406789859 0.25170634295784566 -0.06050005589347052
0.42615774615869384 0.22093320579804754 0.015678498655077533
0.4133516994329085 0.18133444498209883 -0.01643412333103811
0.3558512880398723 0.1456455729181556 -0.03925384348605121
0.7493617388787186 0.08925939290492124 -0.05693218172476122
0.4185108516544176 0.216368691488384 0.00927056781526403
0.41530362956766 0.21923896816986144 0.0796818580278682
0.3884260578787462 0.1895055529329568 0.03343455140070262
0.3544358592002652 0.17850938307748265 0.03428194180963828
0.47198968236489236 0.23433798784931525 0.02892242195824224
0.5278814506279161 0.26469894616846545 0.07133302091526161
0.46370262786041394 0.2975621882312396 0.06296581903512788
0.44607993555133874 0.25992696833634454 0.04725269420620748
0.3975361244425528 0.2593791547836872 0.12619989284178246
0.4046155589112175 0.1644521006034978 -0.010634058855345074
0.43925871145673057 0.23716012255026442 -0.005685235463843696
0.43017379734070005 0.17014535968355915 -0.02001704306223928
0.6101790427480296 0.4411790561219249 -0.7800775172634928
0.37760602409250055 0.167465433856691 0.002475226907904471
0.6451384289037776 0.3159024609447272 0.11753829657070014
0.4548058716798664 0.22148295919441807 -0.0012407261559417293
0.3624738231779645 0.17561113477120216 0.0028753659694871203
0.5132253590431333 0.30057855154302615 -0.06946143533738791
0.5026376491280473 0.2055111807216008 -0.005243286644272871
0.4465689773043664 0.21130256751189336 0.013218504936247655
0.44973967273091375 0.23726536584368318 0.11411845129816811
0.41399866734917623 0.17056691238266808 -0.10859310187611015
0.5019336617067154 0.2973011052311705 0.04977877896182292
0.4051465296636536 0.23800311536413687 0.07836755541794105
0.4269720632983933 0.21746958157925178 -0.0456976336364221
0.3812662544442844 0.18882219077326567 -0.048373046114249973
0.39865783747322325 0.22837593573200365 0.09970833421056113
0.38911847363701213 0.20626660606396285 -0.011451979652917998
0.4825632642410085 0.29557213741557575 0.031117196735110042
0.3637628721298256 0.15032496942710338 -0.05439282093745135
0.47772786112375343 0.23736496168504573 0.0170731073595789
0.42221342636965176 0.1861289626725977 -0.03874383393019798
0.43585083952295633 0.17761433850799335 0.02972873113355945
0.4028243765654054 0.19928789777549127 -0.042466443775140306
0.4261038643563637 0.23614926854986606 0.056559314623996215
0.3331431349072602 0.1730914649056814 -0.04377575260213007
0.43191638159899526 0.19872717957095176 -0.012765782155213401
0.4870037156149465 0.22837674312859235 -0.03012855751637744
0.4816873314905905 0.2806310797508331 -0.016191070386497586
0.48953754868759347 0.19051045972615555 -0.07062969682532128
0.44458783510074795 0.22343385808272842 -0.007217264341747409
0.40070588383399297 0.16748820014265675 0.00987809944265905
0.47669757000684854 0.23004842795677405 0.03883559607632492
0.4667479549550819 0.22742755559085026 -0.08349291337160025
0.4171468024737237 0.2048328978353453 -0.046720400672484175
0.4358115651420036 0.20581226923877693 0.022892902983329577
0.49460495125383375 0.25299538151095646 -0.2508549725749276
0.39710598563978294 0.20302388482295441 -0.003271734631965728
0.46668882660034683 0.21420670925563456 0.015943131757524043
0.4346293472927698 0.1871231138306655 -0.05397781853164929
0.4180161531839133 0.17482182057474915 -0.012432016915056465
0.44072478491111156 0.23271400715498203 0.2118073512567662
0.4380530502992883 0.17756036894475358 -0.01820453212022244
0.4312766169034319 0.19462065963264763 -0.015070649115727974
0.4405922360629262 0.21796429526921202 0.009282306085168557
0.37098015069396695 0.18174037874294413 0.029460180809138592
0.3288494714797139 0.14836462913044102 0.0027531164672041086
0.4591548239327068 0.21207427667269485 -0.015297399398917833
0.44107452212985265 0.20995700299567943 0.003517430576721381
0.4468503552225229 0.20317986705546787 -0.01939765047301023
0.42157695224970837 0.12615265981443713 -0.06738661345580965
0.4038463409464441 0.190675996313999 -0.09220487797615817
0.5148074893995442 0.2846519756288046 0.04451625771397971
0.4186394022453044 0.20255278756457074 0.005459914734842641
0.4045136666943847 0.1281837480782002 -0.15249913666085035
0.39988213070870415 0.17933083407515937 -0.014298223069445726
0.31882858644755174 0.19151474434065108 0.026825099542463704
0.427350431501651 0.2126274684047189 0.005043681511324394
0.4178130866210381 0.21680206520744605 -0.015897221405310802
0.4788218941688456 0.23607768900508574 0.06541317930319224
0.3519069118553091 0.24932950757312256 -0.00212653619860248
0.32966701533393916 0.15574468749115056 -0.07707930815578834
0.39612345118722203 0.19282099026673905 0.026484080356198092
0.3643609386682556 0.10268164306611993 0.3798058314285129
0.429839504679137 0.2076211857689998 -0.03330785583645479
0.41404905822949445 0.17277645830770894 -0.0647220044541541
0.37996575330674887 0.19501137467935337 -0.01464357327131438
0.5452455255086193 0.24795830664297114 -0.06998415640556743
0.4350611664814039 0.21879840053817645 0.03203711661930697
0.5540703643495988 0.2827102285917107 0.43103942627485026
0.46410720405194184 0.23166831541885813 -0.06205908821995365
0.4823069865571199 0.24233002270395332 -0.0439020381589188
0.42775639895729967 0.1802975368950115 0.007699738721356653
0.39936405306522715 0.16876400034027483 -0.05600484684649132
0.3451676704738702 0.18650411771214692 0.023264227159074835
0.3912927116498679 0.1967383616184719 -0.027172379682156134
0.4743827888914325 0.24826314226307034 -0.028315759560399556
0.41887201348382064 0.18467786849818424 -0.037295990473552365
0.5025259802945357 0.2573172117525644 -0.03473297884153226
0.4582288592412169 0.25179599344875214 -0.04408666781057491
0.4209843033454206 0.20856884821429844 -0.0009583236992227739
0.37206749093000724 0.21104276813224487 -0.00810056381347124
0.43646742359388213 0.21411093685702554 -0.005532660436159631
0.6057456711229179 0.059747580708801706 -0.042243662005574834
0.4441404958616886 0.20146807952201584 0.062434194929494424
0.41996499796948683 0.19965801337674804 -0.09076654503613213
0.41910706863511393 0.14418880883167162 -0.0744229477463989
0.4795608283627075 0.2412322417041679 0.060325411992394606
0.4025195008915148 0.1895199557845615 -0.02757985228834059
0.4364758487638767 0.18880392911907506 -0.016653505350902265
0.39847075865139914 0.19292214550489462 -0.03922211374711537
0.457249787201917 0.25442979129761056 0.006403490265427081
0.2798855256701245 0.12257059703360085 -0.2778290262348264
0.4138379194081665 0.20275033747523707 0.08938417406105259
0.5125857280649342 0.26476571439286545 0.030631767698267254
0.4806903923509367 0.22362201081789124 -0.0086463540095707
0.4454667849815621 0.21883930956295217 -0.11579364057817543
0.4026749407163095 0.21780142698180782 -0.03208978807843721
0.43107634382948845 0.19320470893816832 -0.00011367582405341636
0.44354156722140203 0.21053358454057047 -0.0969575850154456
0.44466787931924046 0.20250113038761697 0.02254784821180067
0.3832946953130971 0.17847123526573228 -0.016042604009584238
0.48207766518206085 0.22985579987596338 -0.016891639743917608
0.4689579734009328 0.2249455577961328 0.09354760958086672
0.4065292356107193 0.1748471685475863 -0.1178192636990616
0.4627668395707758 0.2544740151913629 0.06205223422350059
0.36644447780126654 0.12220030946284055 -0.18157800826773496
0.4864688335557048 0.24162738546883133 0.019260700717666168
0.4995360893071279 0.30278022483804534 -0.09285906898284679
0.4481403245113569 0.2710422752539472 -0.028366653733826297
0.45892117961574286 0.25890721017152885 0.0739306545533367
0.4523071214377268 0.239337196301193 0.041941872946964054
0.40400034384936134 0.20193342862302188 -0.012706875008476004
0.4990135411884893 0.21666608089229555 -0.007749720534377502
0.5440579320416248 0.25118747166055755 0.040601204312778805
0.43194042472200067 0.21977717011913 -0.0013846707055478191
0.49516052689611456 0.19690669426304908 -0.1139898497874583
0.31237572166733685 0.29256852468627415 0.04274131264025982
0.42427880146058783 0.20431819292358 -0.026518933918779908
0.434623224256967 0.2108752950518067 0.016257979562126934
0.41394871721661275 0.1571412478163694 -0.22482396849660802
0.4214514414266546 0.22298737518187295 0.02292561336511767
0.4397634260416794 0.23746592212511075 0.011045303888607805
0.39716104469296454 0.2103219433707295 0.018202331799528793
0.39500080214637023 0.20061087874984196 0.0020974676951226456
0.4068027214590586 0.21419804290407285 -0.042221846471449
0.4773570199922119 0.25130810887073096 0.08682342771555795
0.49212595482345023 0.20794151817653983 0.10758555677540471
0.36963944165282214 0.20932693198147945 -0.05624352846407987
0.5714058146554208 0.2352876429647921 0.02674662965796415
0.4241697608835864 0.16695628842964538 -0.07841479561697895
0.47147168960700014 0.24597364708438363 0.03976030224265514
0.604656921283862 -0.009594673199273984 -0.04151322608953478
0.37542903789083937 0.20576506186816346 -0.017318198524662876
0.4607512387098893 0.17457080724153684 -0.029026112773266277
0.41695007575469845 0.18773523609934273 -0.061111891389941775
0.541218111098857 0.2962001064683619 0.03274459553063025
0.3583686446758918 0.1731898915207637 -0.0363823357046158
0.46582301771451284 0.2520350437418699 0.012075225673470413
0.4433638898319998 0.22660711950680934 -0.0034062178949056943
0.49060794133981744 0.2685395900907679 0.05796472677758402
0.45197576452527244 0.2130211174266492 0.009242985371301415
0.433027258707682 0.24431909246601435 -0.029092934942312354
0.3487974268214771 0.1610858223410645 -0.007809042972439784
0.3850608885808242 0.22581211270542667 0.07067067097050028
0.43950002400066523 0.20491718200494802 0.0008640958828465273
0.3718020559294928 0.16405870548254597 -0.06693988893090363
0.4007287004254181 0.18330258432166602 -0.0010511665907984025
0.3725273668743938 0.2777597847560571 0.10160831851590046
0.3799828254905293 0.21500258346799228 0.0019904754542920955
0.5007262418350393 0.24018489452410563 0.027873016459210476
0.43597239964753953 0.20399178706915677 -0.006353622567303319
0.3331924311335257 0.16286287373833375 -0.06729362265559757
0.5533499382989362 0.0734128054596681 -0.057920139415756466
0.3388042357302794 0.17307900369578988 -0.02374945209622581
0.48264786091736767 0.17289661036309667 0.04145816020205473
0.361348858850576 0.17566403650468487 -0.029921036428874004
0.5428663306915809 0.2816061848531888 0.001991966296515102
0.638834604476358 0.1589445950932884 -0.25523773433991437
0.5080157723510439 0.26991584335705454 0.035951986013685655
0.4545793436437293 0.24943371809001746 0.06077669352913517
0.4692528700808225 0.2988240256578365 -0.021851315403523586
0.5021706201305705 0.22422738330752168 0.020668549051180207
0.41814771756048685 0.1997427554991873 -0.05241952476210088
0.5522480738740825 0.01191491490570229 -0.046193758441177124
0.3953702640833541 0.2021512036824049 0.014484042947643161
0.3146421891165687 0.19477559997736194 0.05156085927836784
0.5579926278327179 0.26343008800992607 0.03895968698880381
0.42431667232912673 0.23808615997752725 0.06627221722433774
0.5297881145358758 0.23323557449486998 0.09298133083041193
0.47944100998293493 0.240802979849974 -0.001730453225917472
0.42012834960662815 0.19227478993079217 -0.009141802113845188
0.5114505219970056 0.24726715046170966 0.024445514290533765
0.41443212315435574 0.20167102095061296 -0.001330835408140274
0.4172039804519443 0.26962430707894214 0.08550204423676178
0.4306913974091202 0.21412402914207007 -0.054769439961717126
0.45796518711443923 0.21335714321411103 -0.06513962403457185
0.438536592360407 0.21394727014362047 0.001497854074642646
0.3898836732522568 0.1731698868347138 -0.048641806472176086
0.3575072601878304 0.1749294300156805 -0.006113003638432701
0.41028280959338304 0.20056904676656018 0.04758502341869075
0.4951782043726496 0.23939632856078674 -0.015161054688235254
0.3134210164151625 0.2170045932467417 -0.013358244338121494
0.463908695783374 0.19824649237332892 -0.10626656876506502
0.43691690614809886 0.2356881985972734 0.014708623521386244
0.43365862349236295 0.18796703760894218 0.006310275130246623
0.5838804262391477 0.3031333005033332 0.0370255482952615
0.4385616114877138 0.20977081440955203 -0.026344037938230258
0.3066234272539674 0.11582503003214129 -0.10134173062921548
0.4631762155593009 0.1468457970595125 -0.11826985011329327
0.4369554438358847 0.217491792377416 0.008706170835779403
0.38489148163353093 0.1828725647978473 -0.044908963005212854
0.38845471122445474 0.18574453981594274 -0.06630343016317397
0.4062879964360775 0.17503667361533815 -0.04010416109036896
0.4069139989705377 0.22259350451213322 -0.004081396699078255
0.4904133811282634 0.24146820538371117 0.021711607478465567
0.47544188017656097 0.26338403397468824 0.07634074759863552
0.41664812812365426 0.19554804083784916 -0.03401005047871308
0.4624063053128822 0.2333930011541554 -0.009521714525988045
0.42763071108996087 0.19919916350639255 -0.012657095826199338
0.4529269446694286 0.20276421472411243 -0.06955311520258078
0.4795667139118649 0.2280345704700153 0.014566409156884674
0.3812495624987946 0.1659424288667708 -0.023776600331189002
0.4095321043634783 0.22601969886395068 -0.03129398132644212
0.5219350977041302 0.25549830665613626 -0.059038655508302895
0.39536487035350376 0.15916347557546828 -0.11019217374155232
0.4365372957453957 0.23211039550369605 0.012820324269142702
0.42937663743904864 0.2446767580771052 -0.0003915738091535559
0.4759554418905907 0.2236224297927265 -0.014099143519672452
0.4520685453983475 0.20892647220833283 -0.03648090367401835
0.4144695143755257 0.3267636134339682 0.11608543080640743
0.42946727945843577 0.19381574761243314 -0.03643722456550336
0.3981231605485789 0.16990670391606955 -0.05975180454123574
0.43337075164191674 0.21340217754539026 -0.014867112671453242
0.5118892106889064 0.2315063382474989 0.0738813576215307
0.41291634109214215 0.18207987237289558 -0.011705132678372365
0.4144263025471844 0.17786502434239537 -0.08636542970201333
0.45593831520479 0.26558241912934477 0.07968589028089923
0.4453257178604133 0.20541700806208496 0.03364163344755866
0.30691099488925033 0.24918807823991074 0.02283285302453919
0.4367272395183477 0.21156314010382005 -0.010771939352991922
0.46153880925382396 0.2306738612014101 0.023739943814021558
0.4582309755321887 0.21663558970546148 0.013315130154083477
0.3210844849685799 0.14406020465932556 0.006078213132070687
0.47609806599012927 0.23366518458774976 0.009471568109290729
0.38482530357583755 0.2005820798595721 0.14050522627812256
0.41593943337167616 0.1876579008473982 0.009832845056379824
0.4342163428900392 0.20773713371974623 -0.022026358202467122
0.45737528062409183 0.24688809062872963 0.025197408222965123
0.4795768169687875 0.22537968351652182 0.06118006093569761
0.3936261072578162 0.23843976031277236 0.024999683264240957
0.3161210643737604 0.12842249100057757 0.019420941517381607
0.4125796338606307 0.2020256036289254 -0.015242059553997933
0.42299702638071324 0.23991344250909208 0.0178070576893532
0.42118777697282894 0.22251913724571182 0.005247380295600124
0.3937691067334015 0.2216485546574063 0.025419613216342896
0.4488950598331627 0.20354584048952518 -0.010897188391453483
0.36418317810182543 0.18939594004700666 -0.041419275032410496
0.3371045607432279 0.0968147025104713 -0.011978981261421495
0.3261410198907697 0.1452076854791784 0.04609982343704644
0.3938536228379803 0.2588337210167708 0.09120296251606419
0.383594384794506 0.16437630685086901 -0.06277557179917892
0.3975379766485503 0.1596254664043073 -0.10431174135388233
0.42483854923384 0.20128823701921306 -0.04210532119157051
0.5108013417586506 0.17513465678904083 -0.04181573797255567
0.31022759133887234 0.2250874682657127 -0.01887791849631526
0.3562705486854725 0.16693290660154503 -0.06920363877220836
0.4326767550870869 0.19983961428786756 -0.002805461451387714
0.3748990893605253 0.30336849780007924 0.07739369137838992
0.44498982487280614 0.2425513820588776 0.005688989034354108
0.4685617971742886 0.2339341893018343 -0.019701284752997594
0.34732936368270373 0.17278178408172096 -0.04355111220736774
0.37725279922209154 0.20694206195318543 0.00896518888276887
0.3869794779046174 0.186786199256062 -0.0061529739473087375
0.49764545620814715 0.2935690546567571 -0.028511595789879607
0.3534172247493217 0.14959508558303014 -0.04227284153714095
0.4265467434969139 0.2135837700203922 0.04811674774674657
0.41765872329438025 0.21847377744683172 -0.019785176835384277
0.5047058610699651 0.2570672165174557 -0.05971485627058826
0.4272260545915003 0.2230943071909337 -0.02193247606490445
0.41255381443889405 0.20484961568133997 -0.0201359807232393
0.4727170301735555 0.22669529718243098 -0.0007981367914169368
0.393241302528736 0.20724076221551968 -0.005437475083795107
0.36311618597537176 0.10802813047502013 -0.011455114540524391
0.4829578331301292 0.23511378578666609 0.024415708616999154
0.43258089602494465 0.24132033862574076 0.028044355017001976
0.14488226259209114 0.3335993898185734 0.021483572900450554
0.44104628639310306 0.22329130608764558 -3.029207255167421e-05
0.4249884904259318 0.2391060163809584 -0.018269105893040205
0.4261567652638547 0.1574158665745813 0.062435489545435985
0.38256110305079005 0.1667633188995694 -0.018577546155782443
0.47130155063692314 0.23387467277652263 0.013494958314936412
0.3815709217498551 0.15942462088315779 -0.09330299704964773
0.43232615177035427 0.21181760494111757 0.04100270785906446
0.526394911774787 0.2847901691857828 -0.010873607228319315
0.44504800823172275 0.1527553215825037 -0.08708203507075041
0.3256182624171231 0.2849119666684601 0.10630458779263563
0.45513019048947 0.23191438791174335 0.05988039172071069
0.3796848045055583 0.22482661739823584 0.09041647089676985
0.39459898678347827 0.19540740480991303 -0.0129865871302286
0.4708833791246576 0.2677873734285754 -0.003551232695684803
0.43181317725441204 0.21060678614358608 -0.10713221807064599
0.5930601333516279 0.09483755455678988 -0.12483690953104087
0.4481539671208168 0.2318005724295631 -0.025756928439847115
0.4536542999718023 0.2667482593743955 0.07299402240842312
0.45168741686541125 0.2361408507471765 0.00958464273483628
0.4504183384266014 0.2608550610209903 0.025046828735838744
0.5682231587902891 0.11363487727314237 0.019805093063951063
0.3239636888887105 0.13876805541971748 -0.09635572836862139
0.48415509834671866 0.2566670754330005 -0.02636074385407028
0.43116999955975643 0.23374713734659736 -0.022609151871591848
0.4376480105346303 0.22720016183053815 0.02738934487132383
0.3138270641246379 0.2511491613798853 -0.04565139774862814
0.350515330227978 0.23705717662193138 -0.2657018813046932
0.49442346245444924 0.2508379688997451 -0.002724269945076685
0.4423094966935395 0.20546320041378863 -0.05629415356722234
0.44289555341282494 0.1870776689139575 -0.09097590394520694
0.3956887772065443 0.4120357733025912 0.04094221270642606
0.46511395138206524 0.24029526129953638 0.014350317079674824
