# .PCD v0.7 - Point Cloud Data file format
VERSION .7
FIELDS x y z
SIZE 4 4 4 
TYPE F F F 
COUNT 1 1 1 
WIDTH 812
HEIGHT 1 
VIEWPOINT 0 0 0 1 0 0 0 
POINTS 812
DATA ascii 
0.06080165915123814 0.292595032447565 0.32996427619052326
0.11129938899749448 0.23618562048599756 0.273374683345196
0.20787978012538133 0.07143423431148221 0.2783022647496409
-0.17063714126653906 0.11525050971306428 -0.1564343844754177
0.09075457282634147 0.26747350303654116 0.3086322135793296
0.13186308045145267 0.3337262351743533 0.36071538593469654
0.04567099745429459 0.3359235334203703 0.3107350667294497
0.2939725877611039 0.25071416187934403 0.3633822000058444
0.1105415787666999 0.3124824703442357 0.35666581362423244
0.08456401659273638 0.42926256140786734 0.4044755493049337
0.22927657702905435 0.3277052786699528 0.4073297584909312
-0.31895261951294174 0.2558552847524993 0.14518725821966427
0.6160227765371644 0.20758445209656884 0.20541407297855585
-0.035361878843815475 0.36174089649378516 0.3174424393068733
0.1514882543107916 0.09961375657120186 0.23431233948140573
0.21341401364716717 0.2770523032202874 0.3282342238962883
0.6933916382299969 0.007297415862552725 0.05053987561558415
0.13026350202451908 0.2711618466535697 0.3004143272482054
0.16065405448662773 0.31702718620742587 0.33177824753435914
0.0592552103547348 0.2486269151655165 0.3535044393938733
0.6368784131277891 0.240959528199312 0.1695276498811893
0.10372030347289751 0.270723843011595 0.28430033715928005
0.5824971956823788 0.24734663597527629 0.19680928478113913
-0.03839470826139291 0.2861731684756563 0.2724254398503376
0.02875969928294353 0.337937013336699 0.35229779197730693
0.10323123209751373 0.22427080157919477 0.2880205977812551
0.5850079430306891 0.2516705638493306 0.08499012449570387
0.09372061043595181 0.2882736898743872 0.32774087851208833
0.5094362404772426 0.1693750183262921 0.3521391555868689
0.11166417134828066 0.10036666996664678 0.21617658483641833
0.49532806593381906 0.2565380692062007 0.19161337847326365
0.1146453177499609 0.2732878099458844 0.3560142985413961
0.0621779038725947 0.2644931114146516 0.3062558123364454
0.15520913451533147 0.2826112975237436 0.29056667930773017
0.0722958289683504 0.6137159775724683 0.5182447555258705
-0.1194398003159165 0.07543986914788547 0.5541278244365628
0.594591173925707 0.22040755674352397 0.23263525061931034
0.15442903382265172 0.28326544983548274 0.3392257925004003
0.029907312754829718 0.29214599267142205 0.2978038037719841
0.05434566845099198 0.20460879609332494 0.2764692148353163
0.17846624947569012 0.3338559350517585 0.37530513614525773
0.14561550579708182 0.2530429220784782 0.3535073472069712
0.11544712195326667 0.33663195195646267 0.3022266175318862
-0.03626271938868797 0.29184007786642496 0.2578045428741689
-0.10554691201095068 -0.0894062809109073 0.4476222057657395
0.04986542189708132 0.1711981980993329 0.2269442401538413
0.6104924405793213 0.190370098579848 0.2328397867558465
0.024240490027153783 0.3390172144789574 0.26148105975386216
0.05333501087649495 0.3247709077607084 0.28053802975061615
0.08704912671413467 0.2653165688332422 0.3015612067440827
-0.1280122926801539 0.5459862973748102 0.35350941078647224
0.07567658330080462 0.27336026081803766 0.32508960464021186
0.5506267279762653 0.200204725911874 0.2046196513857126
0.6150510421867637 0.24830513675132693 0.11379525494103859
0.06097825806585888 0.23849934481376067 0.30551741199499816
0.10507073471326578 0.2145435001219198 0.277267539280146
0.032731098852650575 0.32460102878641806 0.28444707155249205
0.12536710042397203 0.30253018090070327 0.2929834083282401
0.11267986589427892 0.19935304245258578 0.2757455382991907
0.09228215742808743 0.2659760061814751 0.31153424305102817
0.1356197162843671 0.3240135969545861 0.35511105748616956
0.10346733787464757 0.2562794446668306 0.31820791148868466
0.06090439765426936 0.18337156537462818 0.24575530270820423
0.04229386202021601 0.26359359123139825 0.30296626936569737
0.0038159937790567255 0.30544282904705256 0.28194052022519145
0.031474518089368075 0.3413956869434571 0.3659552615288817
0.07742669169766714 0.258404679866743 0.3949653157584976
0.10375503118285678 0.3032828224688302 0.2660600751900972
0.059105554037387265 0.2958863880647158 0.29574397103516503
0.09819185692686005 0.27713179892066364 0.3127446955893589
0.08513510945117275 0.2956515417481569 0.2856865629407537
0.021532936301568384 0.2860846120960048 0.2883321859854391
0.25980892124501054 0.3118957017781696 0.40119640219225516
0.19014666966833715 0.2078816026693744 0.29821269689293217
0.05338954547900698 0.2549834974658438 0.2923812260336831
0.7727124313996114 0.11249515774403562 0.05857499022135926
-0.043598583478370756 0.230627411754881 0.23322028432431807
-0.029605682729595628 0.18926423986660268 0.16032069566173845
0.07495475900893211 0.31290231927545165 0.3551486678094875
0.08515102133171126 0.22020673630731835 0.24197865710371502
0.1329959840246886 0.27026196084848664 0.29837062718115703
0.5095343896077509 0.3083833962228937 0.17740278216416527
0.08931164878438835 0.27466204171497566 0.3013601276540072
0.1616698518745494 0.2900811551745619 0.36661841454089483
0.04608188240361244 0.2674914351835298 0.2958023794200244
0.12167570677590334 0.27785327667143633 0.3438054785522553
0.6144778854988004 0.25161055724169046 0.1594911574281923
0.15647187632205828 0.23881501594320298 0.32181424176511086
-0.15850743349415097 0.2559669972493026 0.32193361869306614
0.13390272559921357 0.22788311621323487 0.28054573173858444
0.13609427459749668 0.20860480397412573 0.288704643783916
-0.22368235004535109 0.036753721583835386 -0.12579454234972332
0.5432935795056721 0.1930420323053852 0.2668706484865879
0.6121725625365855 0.19834052970671223 0.24005129759203214
0.08541124920495236 0.30562804540312527 0.2889193094469533
-0.050693963643709594 0.4354728984943108 0.33529751070565794
-0.08726642053032663 0.6261672451557843 0.4285284360436208
0.08111169323248646 0.2451245668256803 0.3031311481814072
0.6991798408340202 0.08433262523074347 0.2856604739435653
0.6079390868093526 0.20447795235426725 0.2161466772515439
0.04771939058038299 0.15918218639973247 0.04898296066579633
0.11938923753334052 0.29398798078955224 0.2842176817645452
0.12566422157837565 0.22340521024386817 0.22184795324074003
0.5824809098399868 0.21206611690587351 0.21355715473389125
0.11138514614080464 0.09676507977211202 0.25482541245384027
0.6031136727153523 0.28216198997472475 0.16982394178924665
0.13686321850616423 0.31237096537633136 0.3540923786356984
0.07422227877847831 0.2966242567212021 0.33899912359132145
0.211514468586401 0.17245355740220703 0.2802969496619738
0.10138659724410104 0.41464237138859517 0.3956045662147858
0.01376123051693412 0.3522400417550955 0.42867123585897104
0.5895191800141788 0.2479488244544683 0.15710372033240105
0.10341282105429173 0.4223209514477162 0.43767753575318125
0.13857193887757546 0.3247990464774375 0.3356291462432779
0.6207901058095047 0.22130854632797536 0.195965888332978
0.07622182490862883 0.2622061742305135 0.3069953381189947
0.10546543724015578 0.260241180590441 0.30896267429960744
0.09171724329547715 0.2935397645125306 0.30157006061830316
0.08828367724677832 0.2715816063289651 0.3472940348363096
0.11292996897881835 0.3154032494154677 0.32770728719286524
-0.06784346257146012 0.5188480106847351 0.37482591097025875
0.6053318880071714 0.25075683265069415 0.1930068966654659
0.6671803782677301 0.22727396945910527 0.1765008162407895
0.5889651510217675 0.2383437681801155 0.1607756666202249
-0.002613339680408444 0.4111219286853327 0.17957222872050238
-0.9126241635275676 0.36206432210462935 -0.5973146993502496
0.07083606955222876 0.2332445062842794 0.29806803744376964
0.052439608092697654 0.40640063412342897 0.3070042831791113
0.5499231063320735 0.22771803349891684 0.21210791761401993
-0.2040912303044422 0.0465648492693731 -0.12796408999383857
0.11256490860992585 0.24821753212233943 0.31337018732911304
0.008953282958373165 0.3505159700524132 0.29026158260936086
0.04701574992415658 0.3225928311626092 0.3098761953821736
0.17291790142840568 0.28582582259558365 0.35303747214982195
0.13134502639886136 0.2646509098968295 0.3356906964239528
0.07082818102048805 0.264285771982685 0.27670041740381635
-0.15913049446142224 0.5765194278432659 0.36873856457023635
0.1730458129517558 0.2505313725292808 0.40791742011751353
0.10229192163724576 0.2659765955122566 0.3622203937382551
0.08447458389898088 0.34603854703274806 0.35146333123500995
0.14994299709123027 0.3042151401857325 0.3434358020435013
0.11361090886208558 0.280536739967971 0.304974484531499
0.12538996536787295 0.24521636772225008 0.2786678820422992
0.08476412929492483 0.2506112092040098 0.3054614186577851
0.06368537375084315 0.2702271306552291 0.2887475488296616
0.026050570553508123 0.36789876801324795 0.3471299149396998
0.07016635394268178 0.3037394580495345 0.31806302966792543
0.09555542513760429 0.2196922515179267 0.23314913186257513
0.13178324260383079 0.2514810144606372 0.0994943791871492
-0.013787766103789068 0.3185327045280246 0.2836292124042643
0.661010807162171 0.23632932266264106 0.14824506738872856
0.07710988676268471 0.26961736062659725 0.3232018270117152
-0.007651758119550323 0.1513849455526497 0.31512922702729895
0.02020119662196862 0.6882152899919163 0.5020121761857439
0.03806040646023234 0.19092413892639115 0.2875936632580789
0.030844404382207813 0.23879461429029902 0.2758338234766171
0.043774814308264354 0.21176488488069367 0.4280083018895766
0.08434165977274688 0.25263506379197054 0.3185144344356985
0.36206161710055085 0.33218609159226276 0.4274128102892689
-0.00520328035341322 0.2451322930663764 0.23712622164765662
0.09252549120770936 0.2846062837002421 0.31820987432651293
0.5838073853359163 0.21320354161262856 0.21276798306934097
-0.13482749112377235 0.32484652281216597 0.32261325940369545
0.09138651433929112 0.20765289532459974 0.3215920924601079
0.12350099218799926 0.32365020067928185 0.34240996063975615
0.1386012691708629 0.40876300576633184 0.43923300440619073
0.10991163912215995 0.2841798724956561 0.2838674789686024
-0.035318857564675454 0.4074754524635722 0.3477851494076276
-0.019842909399017117 0.2817977756353116 0.3740184580796324
0.5246729740818665 0.32381752996333546 0.06596072368336081
0.5907507564177195 0.23004263120120072 0.16463389572012943
0.06693406058172968 0.27695810810593 0.2983598982636124
-0.10491728176202741 0.29688657239225336 0.21241954606136915
0.6739055782934997 0.22460997800240534 0.12144626664979796
0.5824160252975048 0.24759654855505175 0.18318241052534745
-0.059960554428911905 0.23144382931140228 0.2782422101267059
0.11673772512973812 0.39826672876023395 0.372298228109571
0.15042438266242186 0.07315249002226665 0.23257460510865258
0.15919791640487801 0.30449181244878787 0.31962106590373196
0.2880749785126113 0.5681723875672162 0.42629268363926087
0.1103511511428934 0.2524085274021246 0.3709735983461542
0.5759863253936857 0.26052082457485426 0.17208035210370554
0.6428886983657662 0.2954594594389164 0.059869840652282846
0.4215194653740326 0.24281155842133728 0.1500410927616258
0.08106856004485508 0.23102168946667234 0.27600137999503715
0.6087278107204668 0.2326260627266663 0.21374768424351487
0.11275413046476501 0.24201672774040617 0.31178584304001333
-0.01898079781850015 0.29643958878168064 0.2535987514342253
0.0403431308477451 0.35059320467124166 0.34328539854269025
0.5894534456428744 0.2693718556846534 0.17062054825895245
0.5907179862149263 0.30734942778485674 0.10904142037419717
0.024222401866254017 0.3237817993229015 0.28981899312216797
0.10379106339993882 0.2730219530686071 0.32304281948498215
0.11539170470541649 0.15732702358698702 0.3845732012063934
0.6139290088006248 0.19993420836215137 0.22368449395987966
0.48974023144324974 0.28554741961488617 0.16294140038334604
0.5973249323467371 0.21962624106174644 0.20383947853082418
0.13745949652229683 0.23891521982264408 0.3688477859834052
0.18340317412923923 0.1580472972009943 0.2913442103363195
0.0937336874061998 0.2584467225221516 0.3077457526690637
0.44120167335996996 0.34716802563147553 0.4511633111855815
0.14492607614987207 0.43892124928993326 0.4152127956016898
0.24552954315467446 0.19023943064482296 0.4032677930789532
0.08954848258643722 0.3400550250011065 0.32111005678378035
0.31254972562220473 0.2877480117413427 0.3591518534474005
0.09225411216587531 0.28316998221663425 0.3398584718839288
0.08715723317882862 0.25046018550142435 0.2999607680174279
0.06095940513307596 0.3144271898797939 0.32199195696642846
-0.3709802269850684 0.2152486423271398 0.8447274853229771
0.46776381097096476 0.29021064352953374 0.13258966513097903
0.11982341825704168 0.2378489302564617 0.3316581042268467
0.03472149869855912 0.2794039653248319 0.2880535493914209
0.593521643243264 0.22883683936993293 0.1584035700644506
0.5443169355211523 0.1695361424399664 0.3088524871032945
0.45094255302885244 -0.05288235205910041 0.3103694944342976
0.24048974507681464 0.18942099624604225 0.32374024470769314
-0.1446318229949668 0.5470500009824235 -0.10628637276094821
0.12025371106105354 0.23360036548572793 0.2805256638492324
0.028550071922040843 0.12895424978154324 0.2577798654994865
0.5928015616426592 0.23478984695476868 0.20145465853033784
0.1617782012465483 0.2161249057917587 0.31093487649221174
0.6144957720004527 0.26512311520468756 0.19961939012402752
0.5819768882554541 0.279150597380152 0.09648704001071451
0.09743169826970188 0.2710646543377777 0.2996544312837983
0.09139664819527127 0.2632042573472262 0.31571289232564936
0.12212041890393266 0.2729000975407132 0.34064802658167537
0.08720355750730846 0.2543581315096901 0.310130902563742
0.09105489457466831 0.297969122013086 0.30263254571593734
-0.049957316943107344 0.4993829753059913 0.3637622899710493
0.10205820218001804 0.2579335278023791 0.3193162564129466
-0.03993518609362923 0.268023484064571 0.45337697406461075
0.6266286490613879 0.222550785971535 0.16499482794343123
-0.03065510545573602 0.7320432479727117 0.5291226505350579
0.7262993109046363 0.18346392284894364 0.10511189902918261
0.6155556697104885 0.24046108576338554 0.17314897923566264
0.030647051420714888 0.3278446712531462 0.4244240403674695
0.14334878267384 0.3460430196505513 0.37427629548557206
0.29894170766718275 0.25827491015215287 0.3971078486040227
0.08097162013419279 0.2964603662709635 0.2582090068300005
0.1277445347284072 0.32079637517962567 0.33083185753588396
0.07435362765647824 0.2531359193078231 0.29140755136607766
0.1305334706981398 0.14373522342231126 0.24012322566190392
0.08110245640767744 0.20462999974409968 0.28953929273137646
0.6002716050147114 0.242850470523166 0.17898785014628515
0.03649409859997377 0.4497816560705701 0.3730807615933287
0.1804027293989776 0.22024890084998106 0.3648729561091386
0.6004838879010492 0.2952356874381792 0.09044735341595356
0.7647469830690881 0.19209356793055576 0.12734572836835412
0.12448899177169892 0.31760084103414954 0.361452683612697
0.2429755181410087 0.44138544024644943 0.4578698241396637
0.02581851152953618 0.19113614896598108 0.3102980367915791
0.1247669022546063 0.25656727886092767 0.3245329112961599
0.16901684489270963 0.1685643168598432 0.2971743090230632
0.10618083983509052 0.37759627844056354 0.3188641354842048
0.10908293371579703 0.3003104086916011 0.3427522273542536
-0.023497695340381597 0.2768518304462617 0.22963683599087403
0.05891349743041019 0.33753690383377943 0.3881419229356595
0.2339302990787644 0.26671367153488745 0.30235627155525435
0.44431123074654977 0.2551987580654327 0.2441361554842132
0.052029158484373283 0.3755465760401506 0.3751894204007442
0.10972040149971463 0.1585522700951003 0.2572617333154881
-0.17101901860883117 0.09118119777664901 -0.20039854754651287
0.09199577844015039 0.26114609483764184 0.30475794708083015
0.059842872585903706 0.2418840151323991 0.33882239045706797
0.14695837556614322 0.24028513601859913 0.3121449049027092
0.14235197706427982 0.20742053345739464 0.2963287176958431
0.10040423616668193 0.2807745742393024 0.3081288085042644
0.641409718665642 0.21168069892448216 0.20179272478640087
0.014351527404016906 0.4163591687328392 0.3320009522500129
0.15697963329932918 0.22905670069066275 0.25528260433826233
0.11927208473890971 0.2031460700657135 0.27178859939863287
-0.19484313521061836 0.06238869969993743 -0.1780694046385065
0.5847490243104687 0.23810212759732963 0.1952863444596744
0.06138645380579533 0.33713146945132166 0.24338693561705327
0.18362816020993478 0.22800819676140804 0.34974360108878955
0.11656433162136182 0.27224418794932603 0.3133668077325922
-0.3321882919075563 0.06456608597132174 0.08973562221075326
0.007734654341234659 0.42914015169476727 0.36069816441093394
0.558075927707506 0.2301770942835617 0.18747073109034318
0.1387683792147243 0.2767359728205747 0.37834005125665726
0.17153442870187519 0.1741366033266445 -0.004743925250181746
0.06470627466408985 0.2814052237060878 0.305764528191105
0.03001783848171158 0.2759278919175898 0.3079324034366664
0.0856925758744751 0.2671886124052776 0.31608702733851146
1.011210896599266 0.18633775908918437 0.4827078293281488
-0.23996427514445884 0.45723968372888635 0.29802978032559224
0.1706266818689528 0.16728435671072361 0.29497544254036256
0.13965067933021658 0.16200873272434535 0.3161355649946529
0.07463143505415815 0.351438484115846 0.3426670846039599
0.5550008812330702 0.2564562322757098 0.23180622597851652
0.05759700496179221 0.3187930797888612 0.30066921117200707
0.813526531657061 -0.028996883486129832 0.23898701053705906
-0.11226488322344608 0.2491261109050953 0.19156787795657237
0.05778111147523646 0.39226975537820863 0.34369022124266735
0.4947499850357957 0.2882815757878916 0.1515891429381071
-0.012858032914465412 0.19580693330793508 0.24894188900032077
0.14451324685350642 0.16505243338758646 0.30797040461193603
0.685170743037915 0.26438806124068037 0.16299892035131336
0.08624188133072153 0.2827612854942174 0.29550925055912103
0.19433367352253583 0.2538236552256876 0.3090506530267305
-0.017706352047810014 0.36040824116557246 0.30074638737872306
-0.026290793766946763 0.242271214613055 0.22960580727533397
0.14122702852418456 0.26813740041373535 0.3206551549990735
0.009882008364684225 0.043225274927920054 0.177209895190245
-0.02004718443910747 0.3530078615060006 0.3225985884026983
0.07579515746593302 0.2639003861595768 0.31918536889514826
0.5850359945813608 -0.3105631061713865 0.0959023975122193
0.037282973990926394 0.23386172662137028 0.30345558149548424
0.6219799909177368 0.2596216934233553 0.23146679643009804
0.08960768565910371 0.3094909805115549 0.24888362954243348
0.07704649984151501 0.3472795791616363 0.2978003350293932
-0.035546382447094516 0.32871463027481695 0.2926010121285003
0.2112710469095589 0.2625920519963074 0.34016919854781236
0.11985330274046646 0.37711354014798815 0.3659868582899293
0.6245995563377562 0.23757245394935467 0.16967190117219388
0.081211902253159 0.26221004793808333 0.3267360823291483
0.08423968659455738 0.25645451424662724 0.3014276055473175
0.07787432813199757 0.28202707389903026 0.29799445941986846
0.094565974272939 0.2695423439839715 0.31241065813992464
0.11048243591474716 0.29989564381457967 0.3310085348093139
0.113743428764991 0.2402221541055667 0.30041873824447407
0.12987122415621855 0.23148859815714218 0.3670700325962457
0.15041792109101948 0.3516347292145099 0.2276083576326755
0.10076694916520523 0.19214950317052626 0.2921185188997981
0.0903209337424471 0.2003127980874666 0.25664709430822086
0.13621756221554904 0.2065908899044473 0.32469376120084803
0.06389751232427443 0.24930076300944393 0.2866946272635289
0.10751610498303421 0.25983482048627593 0.31779651512101736
0.05727939423449868 0.28522455571406624 0.2946675715132585
-0.04626255053230466 0.41351419718790794 0.3390310567996835
0.133493089215051 0.20405081060552277 0.32424758473018755
0.07089998955902388 0.2756257711825896 0.30973301528790387
-0.013900509855702126 0.47896450190079065 0.3930404700251984
0.12269904471827431 0.3009963697554099 0.3416202188678028
0.08907677258784474 0.26508890106080685 0.30246346904669963
-0.0011810885889360634 0.3362049145376602 0.2929697796612487
0.12009018483129807 0.20644483106360667 0.3623784781022721
0.12404777940110989 0.23228102820650065 0.3800990788184464
0.5543544815048165 0.30575700842479137 0.07732622394775035
0.08216326174024857 0.26651834980626177 0.3214037951852049
0.07802203395090146 0.24955451249491034 0.29648647039303455
0.16576651913780438 0.2877201419603068 0.3033770176979118
0.11148070706698832 0.23462161512131274 0.28244363165623554
0.1651304513552816 0.339438299850471 0.39789876164493876
-0.04392401336085072 0.3841253789155701 0.28932815230984943
0.5630364280268907 0.24009994847867233 0.1582278034812532
-0.06318899042845771 0.4728250557099898 0.33627945271285853
0.1484170095605748 0.29076716229469923 0.3291690143353634
0.17234441272589152 0.26000580272940965 0.38573113157282535
0.0800270850947129 0.28205645851880945 0.31069607206575256
0.04974289217400951 0.21992255509059078 0.290155065660457
0.09794255209477853 0.27119129486514737 0.3151555963250843
0.09079973290181442 0.28800570418138705 0.3246816013699174
0.13382749873431976 0.26664087697676564 0.31310855487156175
0.044296734102474034 0.20005630854169 0.28233358671718634
0.6783316276018923 0.253821577047745 0.11917135837902038
0.0734660604100128 0.3105717445522913 0.3274504500245712
0.5965001211179128 0.23824121678165966 0.17149605663294665
0.12887342895596987 0.22600259513286858 0.28364932589079217
0.0902389045465668 0.2694941910398825 0.3289234146223521
0.7987916900683274 0.4904379595251669 0.04856153976818689
0.0858649329123864 0.2702052335501435 0.3190135621255763
0.08395248278077361 0.2705904317284933 0.32841012727573116
0.028097270360447624 0.3085261412802822 0.30714682670466686
0.08547266363466122 0.2838977438485273 0.3307274988459312
0.6046874376701226 0.2251721125285968 0.25115165146638674
0.08784300445717008 0.2621476632718611 0.3036704873118481
0.45054265800574456 0.1434474437301958 0.3808846971111848
0.1081175923625608 0.16025564840650475 0.25121725912012494
0.01719279288467135 0.33068888902792537 0.3256748499428994
0.07742239195442835 0.1998811528181932 0.2912596744640723
0.6683407994807169 0.2462578190074538 0.07330305009898552
0.14985636658578017 0.24307500996026477 0.3349244338187418
0.11347822077821945 0.2742325800861636 0.2914615352237604
0.0850365800793611 0.2619730678947576 0.3107705866103174
0.0977277369655809 0.259561959552002 0.2999978887968098
0.5975279060003515 0.25395766349085136 0.1684157264879218
0.16583810479372119 0.24675863044326718 0.30660108940489295
0.08197470117542593 0.31035913542793025 0.2929174938104495
0.16129808195979933 0.3183281028056797 0.21593400543284247
-0.11904340456814566 0.5661182224433645 -0.033396957161897944
0.5759588332247318 0.23248103734370318 0.1831580585781296
0.5186959091857943 0.22293950017964903 0.2747811175604653
0.1138689767569474 0.24996313496002642 0.3054034134522112
0.09808944556256449 0.29274334964280513 0.32603674430001206
0.5327003158168679 0.29091839732481617 0.16007301169672417
0.0959125296063803 0.2739121188795792 0.30116463120742765
0.11845596939168956 0.26294775212741683 0.2539046268618108
0.28636668567642687 0.006546827448119075 0.2211778440975536
0.03240340448911638 0.22655432340839354 0.2590098692675298
0.10379444041222996 0.28000056303298493 0.3226851289315107
0.013544788696805199 0.21383169660461476 0.28026090934989156
0.10733461882800555 0.27713958649782455 0.2752511175851282
0.10883197255319033 0.2737238011977894 0.30899537269857547
0.08910585080383271 0.2801995589394579 0.3151191587793818
0.1636414601239835 0.20857170200204678 0.30690538863019867
0.38131497175952234 0.3107897626706233 0.4378556966227336
-0.2031026469377082 0.07769796791879457 -0.10715840514352237
0.09909887023971464 0.2149223042964934 0.2878704717486755
0.13833257148102973 0.2100789592744121 0.30462134248988093
-0.029468070035079563 0.1723972093010957 0.2639007862414644
0.0921460275228867 0.2620687349270554 0.2991188163130687
0.0049947503283647166 0.3500591939546496 0.2645837619358815
0.03069364441503808 0.21291410817607925 0.27091195749312647
0.5205851840513844 0.24258662570392175 0.19709931422190152
0.13772011631095893 0.2574542214856308 0.34489924442065956
-0.035899763541891616 0.24828383584028302 0.3270633798309177
0.5333334443988633 0.21301677058789892 0.15819645533127868
0.6086089976169262 0.22224734942784607 0.12335596900346957
-0.0493673590930257 0.45173563298484964 0.3515515578295805
0.0929372416626677 0.2753994564577056 0.31448404427271726
-0.056005125483324036 0.19075707399019848 0.3147749921066918
0.0881187428890371 0.3235886545712674 0.4583795471447729
0.1400350095730829 0.29991435395373855 0.34470141885201144
0.028881975167877272 0.23586065533334022 0.2803836365586676
0.6175877680531983 0.2327658602341387 0.17023077613715998
0.031248306839074758 0.07716247686425959 0.19459016451361322
0.10585219049802674 0.25521067336447345 0.2847950133956232
0.06348120955081527 0.23146918663027805 0.25473992011384894
0.1524767822271258 0.29368516583659243 0.2710019929442069
0.09289236235824205 0.19380171605786245 0.2771160439112066
0.5711590618746811 0.24990000054312134 0.2067468286530243
0.19131605860255263 0.3947136134706284 0.32452048083952434
-0.004271514367275131 0.26402561054970874 0.2781927918318132
0.005250199525093535 0.2829077780044855 0.28713715888355296
0.033794649696375245 0.28629259186214995 0.2791305193644291
0.6117200439944526 0.24076700904802806 0.20220593490262218
0.63483996897466 0.18901645380589116 0.22086615296601053
0.6369239246117786 0.25312582420342267 0.16352457675013454
-0.1674271395314264 -0.0496658576507798 0.023482954259165467
0.049577087632513894 0.3048530740293103 0.31560567696440955
0.11941872856289137 0.26733689940539307 0.2828325512473242
0.12807456012996 0.3160028096992562 0.3439732472593562
0.1701561856029059 0.14619319349412763 0.2659626293311135
0.6346845417134546 0.2204819232701425 0.19975047966026693
0.12137610660711573 0.16661408207369277 0.243872666867901
0.0665675402627528 0.21255208675779613 0.31461121740983344
0.39049615715605057 0.2672454747066837 0.18358613448560845
0.23628312378998828 0.16858625509641456 0.2862138407049315
0.07525509903162231 0.2479331358293848 0.302647634276795
0.09204055596364924 0.3051991261695548 0.4145629601396479
-0.11624286514711457 0.5657984805891374 0.1849949092979557
0.17030471798619828 0.18619372332540252 0.4182176285343502
0.0989661726379154 0.24682757499218155 0.2836353560450675
0.03041805797698771 0.312638610142983 0.3176204900786388
0.10487447590026022 0.25076313447755183 0.31054981793191416
0.1171517388634129 0.6189157212151741 0.22220106495510095
0.6018424439075432 0.22804779582216383 0.18643686597170017
0.07953648016837178 0.3245814799365121 0.22952201635212077
0.0416467680242647 0.12018871944195553 0.19130565287639456
0.5997497512755956 0.20877186034392992 0.1618050615141584
0.44645923088245354 0.31290468304482033 0.14878499478685114
0.611231546856672 0.2386458660456583 0.17937050307988045
-0.00950109233161811 0.33089251553244026 0.33985028527595773
-0.03459785035686025 0.32532467761203065 0.41548025768884145
0.07239171702505587 0.3314392990337467 0.2576238426120767
-0.046305553191132276 0.4214033326870066 0.7260142913615653
0.0888975139812942 0.17266083269552723 0.31742546884387934
0.5332810160010126 0.12260726867832261 0.21857022681255955
0.09259678999038101 0.2685758004359968 0.30445813828258395
0.668634266390626 0.20216620082860004 0.1783345925141191
0.5335056784550432 0.22099405523337623 0.18241653922841294
0.5959867964456862 0.2484402902441616 0.19052348058548318
0.6176054975898069 0.2804297176482464 0.2768401149598674
0.33343549077630996 0.28817197969225106 0.38826110810059333
0.10982526494650813 0.24009636244576882 0.30623952184078007
0.008672211115765549 0.286967364495041 0.3263852607173021
0.11100656546700804 0.30972319919044367 0.37969897690086896
0.5958837361693838 0.26191933326180106 0.44452776420905593
0.5809953890753121 0.22922790131300985 0.190557977668675
-0.012314774509377457 0.045695974504781134 0.3904503377121529
0.16236733372880963 0.24689405313448276 0.29745352860967955
0.10112473362163144 0.25715371961146616 0.30350052514143044
0.8883063466072798 0.05577239215713803 0.2375467597449301
0.11341638995479286 0.49030543026574946 0.361134592462264
-0.18434469865090364 0.06003603510642108 -0.1592474181055934
0.05295482030351195 0.2959153994795827 0.28625813060421024
0.0911939985543313 0.24118274067754442 0.29087100337523
0.12444790684573093 0.29845441442544995 0.3549882100845707
0.599665838797037 0.22146969770815872 0.1817251555819439
-0.09283027905323138 0.2946127666006362 0.30776314213088085
0.6398744329394646 0.25951049001329807 0.10252375669492153
0.09233874718665902 0.42173704516983435 0.01683995676556549
0.12528135114365568 0.25669207413788797 0.3665730040304709
0.7062473040305406 0.16583011531079705 0.2402151602946958
0.29073870924480616 0.04104614545599361 0.21994416271483885
0.05493019025695389 0.2782930497870524 0.29071054595192436
0.5358636786856579 0.26234813646264854 0.13437113844045712
0.1058027954933749 0.1835586599598571 0.2278905158373874
0.08572241536749914 0.2599453177949158 0.3304170830560764
0.5764414597709759 0.2663989774469542 0.10301257938880326
0.022181851227998095 0.2770907129528837 0.3060961176431647
0.09723121848601579 0.1360435022881461 0.24756357721309996
0.1995404940510923 0.25915234052915537 0.29261614308019546
-0.019974390607870873 0.14389708321431272 0.05869130949766088
-0.042130714276254366 0.3257518889072344 0.2956812717441153
-0.03477000936567265 0.7334592354749532 0.49653230071909604
0.5762631356080306 0.20460489168887364 0.1958635704075391
-0.04971777941486266 0.3436649987622502 0.42633295027525264
0.13566142006477833 0.11585337984894295 0.5871669541982527
0.04210482982708186 0.3553083477325316 0.20741540799322422
0.010341596132860786 0.5016811152324436 0.37301462804489915
0.10790772657978209 0.2526677737666887 0.3052499990373718
0.09100671508046787 0.24811422404422956 0.2935101960384259
-0.008823631023489042 0.2396368344432176 0.27750389749972726
0.4895645033947602 0.23915971278918846 0.16000739871134328
-0.052216430244612866 0.5034801466147485 0.3737853447726991
0.11457432207275531 0.3208720378174803 0.3348185300765749
0.5321683970895776 0.25694821902109766 0.07212567697922623
0.11822442889913987 0.24136654868917162 0.3043583904959348
0.10766162429862902 0.2721786883613788 0.30762329030996227
0.5876724914103022 0.30868723961111755 0.11571686436982986
0.13616139905587943 0.28047653612343026 0.28255523702759433
0.10743144237693514 0.28495970466602216 0.29944578519460663
0.13944610914370514 0.2814378582779824 0.3493423751059481
0.5916615902010278 0.21948759019269914 0.19242238494489072
-0.03775070377940892 0.43271567690339907 0.35281827481705363
0.5847414315753099 0.2500523874535787 0.17133342134056306
0.14250309005291228 0.1667942418600461 0.6864211730130307
0.09256753847685673 0.29979517703998226 0.3079328727335451
0.5705165733657225 0.24048225316454364 0.13676531744550857
-0.03821518623037434 0.36173307149024936 0.2874726046006373
0.08693391777600823 0.25743304979802417 0.28562940123791236
0.30331769183398194 0.6217613330876333 0.5959391254259856
0.13852240120240822 0.260784253355439 0.3259086532952722
0.23697024546692091 -0.08986456307171409 0.47595948303853675
0.19403369686762062 0.12617934537885844 0.27208270825141767
0.09151489283598835 0.14733560524976497 0.2725105559078145
0.10031106887191754 0.2708591401347178 0.33366105793510314
0.13777951605446503 0.25691652347096294 0.3183193600973766
0.0448647879705959 0.26049576428380306 0.27768414896556237
0.6204949540126563 0.1827677065514166 0.23268977919244094
0.11536466508864862 0.2437544873164228 0.29492432445303507
0.2525727254242156 0.2545283862773289 0.22534585221305292
0.09797463151787156 0.24907891317423037 0.30395870624215604
0.07629336921820595 0.32531814296555694 0.3047179685624002
0.10341023809985472 0.28673707178391794 0.337027793734606
0.1372299628583562 0.2865245756219963 0.3031039851260289
0.15270445709930414 0.14093621176908755 0.2786872582781257
0.146428942291692 0.23661554548462504 0.33483064983019517
0.1531959837507344 0.32406255058143074 0.3167581197382958
0.608386083523655 0.26146227751422657 0.24701970308959176
0.4435892814290696 0.056058584913131426 -0.5211720818069523
0.09674572901471379 0.3596865636401958 0.31147678163907244
0.15492867383929365 0.1448951387418731 0.279769678578333
-0.03160941591808353 0.171502121912539 0.2981540444004054
0.09009310110673141 0.23129001728088383 0.3392201189085995
0.06855821468465706 0.38444767030190974 0.38879164228764296
0.1104232596245538 0.29343331939834627 0.2937798122320885
-0.02485162702058119 0.44016630144838587 0.34407158390470727
-0.30417337814154166 0.2993971818688692 0.18536381884541697
0.1844677247474209 0.10670092409401377 0.2722843091671052
0.07310320307223606 0.31766559260302074 0.3204419126300877
0.08881281218344839 0.2639837978932462 0.2950314959566356
0.35796210506632065 0.07315775434901184 0.2805969735775875
0.09294435225001507 0.32552600874790016 0.3556537242026394
0.15869443134820926 0.26009677568904976 0.3276884723867397
-0.11776574449561394 0.3260974768434153 0.2630424520665997
0.05148342234525671 0.26648966100269433 0.4252429169401637
0.05453711029295505 0.26058301836496867 0.28747834793725247
0.11861830202776957 0.23765931367046278 0.29612933733410784
0.6562214086811622 0.2661002274989528 0.14126959745209433
0.02984446838480892 0.3305218492539268 0.38369673055549924
0.909815774053726 0.7452563197610402 -0.028619327289106877
0.5793088221403622 0.25483490835014777 0.1337370672960958
0.057403408406088374 0.27287712821264165 0.3188008736462109
0.11874469292384049 0.2634930467784642 0.28982851348609984
0.14758853616027068 -0.4649003547806956 0.00909410730861282
0.08589090311406267 0.2632555211217209 0.2808418197152207
0.14133242619210762 0.22935069526658936 0.3271689152488051
0.5700769649233592 0.24168378764620968 0.1686847509956806
0.2425608020385539 0.20664635707231582 0.32199758164040304
0.09548609393765162 0.31509477955447096 0.3300507335101486
0.5210080577442113 0.275450712298948 0.19966450191850527
0.5565245910597554 0.2791642470325826 0.017280782922796334
0.1822277239301826 0.2727609999447793 0.352938996042127
0.572228010620222 0.25473494924615636 0.18095450349630937
0.14788755603582615 0.32366100381112517 0.3665827816990088
0.2637295923474028 0.11922231710319409 0.28801872444012133
0.26359656337353954 0.3393284620555477 0.3902986084190019
0.04644014485768366 0.25892274677167393 0.28045419672879746
0.31729946865067404 0.282646152122922 0.4418720561861136
0.03607624004925469 0.07931394056515728 -0.00448092313916959
0.07626305719318793 0.29968599476512736 0.28400178580017155
0.05113379029020848 0.35640983067281695 0.2512513067601958
0.1064394517292726 0.23535975171137125 0.30858795671368
0.16098650744433485 0.26977038202383596 0.33147231477150285
0.009646265375806706 0.2788722191550903 0.28095895734892906
0.13935473457098624 0.26125196382847093 0.35585837463840164
0.10216193203389423 0.2764163842287246 0.2998657144279093
0.10548405242930414 0.3278230024073139 0.3461315452104259
0.10964685407702746 0.24677511722921963 0.32734401448882977
0.11624027757221711 0.35586552072206246 0.32400839297332595
-0.19708542882295887 0.08889913233053903 -0.11290242821240781
0.6035279672149159 0.16851079275440384 0.2286364944075956
0.5843190529982252 0.25910650935176704 0.19310153677214714
0.6107545743942921 0.3355078596704004 0.04954494836641743
0.035197118860850196 0.23228964776726002 0.20290433676120756
0.1875455927405767 0.21585741418780913 0.3349337385983091
0.061338391605488596 0.3020538790018463 0.36847091645381624
0.1320490197251445 0.271386720470872 0.2654662850420664
0.6602199293078286 0.21395568931086473 0.2023942131952623
0.28377630389380215 0.21987300036704482 0.36702950536874823
0.49300883558827024 -0.12391001639645083 0.22211931519264283
0.11517464678807698 0.27156844683912595 0.287203107528029
0.6013553709576342 0.2360895701467598 0.1974280773431758
0.07541047469119633 0.24117600320570887 0.29333380879688775
0.07516330358868117 0.23375576477215532 0.29525478580880815
0.5689516552511122 0.25046737104884187 0.1950161539047457
0.4810855361303936 0.23111042261311354 0.22408848561080674
0.5992895629155726 0.23443353500105957 0.17591292488376098
0.06414717813512993 0.2925571329064951 0.310761972548093
0.027522441929320962 0.27626355753048415 0.3896453493347707
0.56279512326266 0.22300773038627142 0.19815694501379255
0.07486515971365293 0.2585622461137689 0.3377699097592881
0.5877433658671407 0.2138246962836945 0.23114866584226945
0.08233904896403033 0.3255622228876973 0.5529021747174028
0.05552165887230842 0.29831233969778737 0.29299450222887913
0.21693837023693163 0.6165093969284214 0.49446272103566
0.20715024922102998 0.33093862232972526 0.37765326813855893
0.04305216353017727 0.37822224353527645 0.4867718368547429
0.041293343909345026 0.2458794438371399 0.29458395489463385
0.06855399165850429 0.18039335339847185 0.33346053418813426
0.12832450003506324 0.22156330506987842 0.3296985479578325
0.09429371837796907 0.27872023941304747 0.31132351037470585
-0.033250391991686 0.2932474288173239 0.2798784582625302
0.07204548556416057 0.2721720258945055 0.259781650585893
0.5859948208781702 0.23943379343123183 0.16032543176648062
0.6331677202696682 0.19867756370700818 0.1864433470526592
0.052851383792599904 0.28499449015190237 0.34008294579106746
0.06475893588313397 0.21266036846878933 0.2461390406294015
0.08405601360027504 0.24871931674701386 0.2906461264058606
0.6316100516373524 0.42063743223262406 0.16146634757551226
-0.06958808636096592 0.24998616093196802 0.22107581164942758
-0.1972933433787034 0.07624119726835943 -0.14976664667426576
0.5925143277203659 0.1954257675992892 0.24137276840764343
0.11152527528834355 0.29158842352075 0.3091465110781826
-0.20584743769651936 0.6913280227012706 0.425766296659134
0.6399481935999916 0.2726684384392968 0.12872720067304044
0.09086732431507016 0.21190450552518314 0.31372141320231606
0.09594371300408966 0.2790856782024491 0.3088605580872894
-0.04319934363581979 0.4216940469116537 0.3083034212207565
0.15051321170693654 0.23107959834858605 0.33498014109484586
0.5991876107674159 0.23316333340636675 0.1767388863288204
0.11725014732049033 0.2723833051838085 0.33598916597071593
0.611276017457385 0.19927199500607173 0.17340110830292588
0.0864410889190026 0.2673384211743155 0.2872687656332289
0.6667372987409692 0.26974034318755 0.08792609208617819
0.11016680501593612 0.27576010224154857 0.30974533880242916
0.12448054323542124 0.13952821525080594 0.2733232704942168
0.09707256824231081 0.3007442337698478 0.32993680151700744
0.16554611846618172 0.20500581236579762 0.30713176007233756
0.0963349959094586 0.27248112280931025 0.2969191252864931
0.11908723601771953 0.431823700334391 0.3739476600298133
0.29783733254194544 0.4036181943146744 0.3321327066510378
0.12141343824077921 0.24118521141670612 0.334892681414118
0.17276895311454155 0.22819967577021316 0.32777288228237467
0.6135353535100307 0.26975299578492695 0.22858700689573652
0.10670361472722334 0.3046998750374996 0.3765944194490487
0.029545987866129053 0.41391551055336606 0.23618430858090278
0.08171178922302147 0.3772359222402031 0.15080022075412103
0.1184128441412895 0.20502095277687715 0.29640167865636613
0.14934617533025119 0.2053809341239088 0.2786629464028749
0.02746644415312005 0.1442782798260822 0.3737049649307096
0.11250648855560996 0.2626601470343246 0.30657065627119096
0.10692997156814954 0.25004120082692793 0.3038554660443822
0.03981673848906553 0.2818200956134831 0.2851639143833893
0.10493728232081878 0.336707828167107 0.3598454480898994
0.5701282108630323 0.22105207241281732 0.20073388789336377
0.07118342703395797 0.26525870270035057 0.3097313192029105
-0.005386782539574142 0.4190682340560272 0.28588573953047103
0.09112993993096552 0.2905235476310395 0.3257474188828269
0.6102619997991781 0.2532338123522777 0.1714562453954045
0.12917975448024777 0.21780530406050502 0.3098420625299241
0.07529534311305497 0.2702721960934866 0.32289334945167525
0.1486200854484423 0.2336747702083244 0.3605494760159189
0.09160906943424152 0.273698577882044 0.30331223791006323
0.6784827716480919 0.20161204929161158 0.16251715655199916
0.17184816162165362 0.33499520297286267 0.177588988972758
0.14111001375513865 0.26259951487922706 0.3458801529772728
0.09548277845892983 0.261436536413413 0.30187115718310054
0.2731586305008733 0.1879078193688457 0.4568035076409842
0.115389496425081 0.21045203164075588 0.3366150380038846
0.5531880881886764 0.22514691394250974 0.20109225864055702
0.16480206629526606 0.25830931471659824 0.32481140349649706
0.11569902755087469 0.1120188750759894 0.23056630223592833
0.10965065317412837 0.28846724140930746 0.3240512835146916
0.0409546492504802 0.3388086921079889 0.3238004505233931
0.03240415046083456 0.24925616505446158 0.3159742266536796
0.6093318493665549 0.2766290521785919 0.1819186033729494
0.17804795876021728 0.30967778529893053 0.3671806990056439
0.06154089226369308 0.2854576096872705 0.30519224012000734
0.6214745548225835 0.23902148391964317 0.11939164895861154
0.0923758487030284 0.2665858193015964 0.2931108836877172
0.274716244411195 0.24730143948451655 0.33708150743430565
0.07916961270618117 0.29907417484369603 0.3236163702915178
0.09314905300473697 0.21808333811009106 0.2706707074567305
-0.07500007733582947 0.4812156550186302 0.3181408420250307
0.5984515177080993 0.25529401331496615 0.179522851324748
0.03977596671953165 0.3130454908457949 0.3219394485552698
0.061020234251145666 0.3366424698464243 0.3401234063062901
0.08123038167852314 0.24278292989095007 0.2774271657119556
0.2679054325993775 0.356923163216436 0.4308105573311707
0.08786876669823585 0.2742467081930329 0.2982394225210925
-0.2920050441139921 0.5393048631082422 -0.01671846713252023
0.01166498688695583 0.21706723233086223 0.23038972670646274
0.018587030772621915 0.34145015375351306 0.4083459379703527
0.8551241986756111 0.14597233571211632 0.1555239115353544
0.10136516981768295 0.262319585849923 0.31181115087899514
0.19344265821257522 0.3076841138406081 0.22498001408433765
-0.37321085963182554 0.0727488827186562 -0.166543735891878
0.17395285369332214 0.40953078287279254 -0.07543712258269863
0.2310376043424469 0.14748601330092015 0.30173696547899453
0.6635712733774142 0.19343760212665018 0.14406370184738648
0.6493771546395521 0.2406669593273989 0.18053798407837007
0.07192184925827405 0.3341226519877978 0.4034974596530674
0.670145814896614 0.283032359446139 0.15342938528351624
0.1390999739803931 0.24430659833848267 0.3169909171044907
0.5893336570885879 0.20715522160466548 0.2388161745044215
0.0624013759850186 0.26499125498162357 0.28776504116922297
0.07102805251145128 0.2968930581821496 0.38181805535660374
0.11265758785603452 0.25130691879817846 0.3209193190744486
0.07320647429342841 0.2344606006627714 0.20694297011337426
0.565055551015547 0.297048389602935 0.5041702383972364
0.0145700398385884 0.23589367637819691 0.31787451704352065
0.09629365761247755 0.3038090904725834 0.2626601257732091
0.0916337147252193 0.26323316946516684 0.30521232006039156
0.10574400941979434 0.26929562992071965 0.3254276771167497
-0.061391386125791314 0.2818046070548803 0.25004037229143705
0.6239132600784671 0.2367137238194914 0.1971611765364969
0.03654652939273717 0.26171000929743116 0.2751193755541834
0.14915192600241767 0.17120935475128363 0.2280458122407083
0.0879541985352148 0.37672762820730554 0.31671756108406157
-0.2130797777389546 0.39219207165763237 0.2824811722060474
0.6130594753322782 0.27954091180899354 0.061463822210072294
0.07463916073814403 0.2811414001013759 0.30345561226556583
0.4951563263074519 0.2902489840032274 0.1543672200571109
0.10395445195825914 0.28635769773386244 0.31620651474267447
-0.08235567786152842 0.8713581956182566 0.5637410760346171
0.010962787266947771 0.11209724631896734 0.3193882416595102
0.08656229760829603 0.25048007469584377 0.29041306657454413
0.25678961191704275 0.4677964515088604 0.5999316198166014
0.10291975556590671 0.26510857215821204 0.3625994328811828
0.05280337193566709 0.29094909354742526 0.3129868786995189
0.03354734646843838 0.28823806318726497 0.3637979589325937
0.6210413596368056 0.16351028733149064 0.14435077951026187
0.13879798173076097 0.2145150218148899 0.3107997388916317
0.6352572801484371 0.28280853652772464 0.14842125880457502
0.23143216692341184 0.346512323849538 0.3985037685881707
0.5671405233275806 0.29168671430929294 0.10321907437014488
0.08831474870721934 0.2492768458396597 0.25497375342096973
0.043593154191114536 0.19484480544329585 0.2657859826472304
0.10161989143918504 0.274586518852189 0.26420652134788725
0.10372784560149739 0.21103805756203542 0.2874256695671704
0.5699264972442251 0.24037109966948833 0.1475399974378604
0.748441732850111 0.08939025969574743 0.29733473342992056
0.07256846761524116 0.33302257219213516 0.3342287421302075
0.08053000422825107 0.19148281105366038 0.24537632053488778
0.5653131429257598 0.2263647632759671 0.20918183388337752
0.07377065114721404 0.21630503802396106 0.25835896928631996
0.07101270076742594 0.2658123081662609 0.3026104563549836
0.12069922955188872 0.3352173066880937 0.34948059711280166
0.033384088160630654 0.2330730285804492 0.31885548620557813
0.6514836137156692 0.21621478897195345 0.16710623530997282
0.1894678835547552 0.18205222598797377 0.280563954933541
0.0912708514700995 0.26948132637289746 0.30705417881526387
0.125078817737176 0.4048885859075 0.34195476582040385
0.08890970089564121 0.21185201055337188 0.24053302998501636
0.1256222642047362 0.3048557924343953 0.32853258345140546
0.13914013155449823 0.24007859506031082 0.3379752803110989
0.10772409141480921 0.2876962726572856 0.31530447336189127
-0.06846745996222126 0.3976945429476473 0.3574495849144341
-0.12194767743309853 0.25451668394673277 0.25747157747292704
0.07446128396870222 0.24765239546184148 0.33150734305755236
0.02990406897288267 0.2794979621355651 0.29021338856215095
0.0564015652669525 0.15168185327944173 0.2623094881697341
0.09760049922522285 0.3386720296063146 0.32146517227673144
0.6361382774171034 0.26626756623721803 0.2022801646258756
0.5779972363940118 0.21061723399131438 0.18715993005957898
0.09914990909152266 0.2711842921294476 0.3336568064268022
0.08416354020228312 0.26870457338606 0.30617587606380425
0.0063865015237638545 0.2886334841123812 0.30397053145435393
0.032709244990030584 0.30698070689558676 0.3004459706936302
0.015010592267529432 0.22145919050981888 0.2682961808591813
0.07514071534123445 0.27723066259429174 0.30993635460311
0.576343436156634 0.29424033362408863 0.16151052521649945
0.12761104687157854 0.2889822125678734 0.3613328885099065
0.6469986137610988 0.21090984920517997 0.12081227056341959
0.5348409592219099 0.20814862115102528 0.2362381516793164
0.13985859343318907 0.13985430196237303 0.3125908496556917
0.19470165683404161 0.27742668251772784 0.34307047706971616
0.15168172087246035 0.3083568036632016 0.29763632113761673
0.13947843614458577 0.20560295339322465 0.29641524550015674
0.08399011588241478 0.28079201942297516 0.32123366918492025
0.03150174754787827 0.14910902074635146 0.25531206102610327
0.08641849036274607 0.2805142179967959 0.2971047907797697
0.0565390059919082 0.30444387383170124 0.33026490532272135
0.5761465446292675 0.21709993727259302 0.17310321345985358
0.12595207625355442 0.31424620183830143 0.2657585756179799
0.10100746075988809 0.25283242304959685 0.293162129829696
0.08737996826181416 0.28319836833436796 0.29081655511336635
-0.11568075678133027 0.01776588215508923 0.1054551563274515
0.0982310404787512 0.2584497128014789 0.30363047314715175
0.5739888934351285 0.31040106711603244 0.08966553020944446
-0.20643365100036704 0.1014382235818374 -0.1067407330231589
0.1314362388836514 0.27665943416920413 0.23850393140017445
0.09868371153785915 0.3024809430536095 0.3031896417113842
-0.07471636598026521 0.28598527581819155 0.2341989591143374
0.497256129305498 0.2795335370304315 0.17851166750844527
0.13065893099411596 0.2842208613920434 0.2729561508028979
0.04010418089801249 0.18952015126124877 0.24579218733555308
0.08248372327965114 0.25200185707345213 0.3115479966131147
