# .PCD v0.7 - Point Cloud Data file format
VERSION .7
FIELDS x y z
SIZE 4 4 4 
TYPE F F F 
COUNT 1 1 1 
WIDTH 798
HEIGHT 1 
VIEWPOINT 0 0 0 1 0 0 0 
POINTS 798
DATA ascii 
0.45461940071663776 0.2405531166284618 -0.041818630586703875
0.41296130499696915 0.2088819835705067 -0.015904476620946184
0.4196507738555795 0.21760973625248425 -0.012364938104681755
0.45935916792024045 0.1680345635395355 -0.03843594039207687
0.4489904631265489 0.2366925612655848 0.05980458687010071
0.3129714464414519 0.20910883481491283 -0.13252473835586898
0.37754748348169187 0.18868999693849275 -0.013021000297044338
0.39536786266890545 0.16066504103635282 -0.06417400318417776
0.45500439181586216 0.22120122045679125 -0.005544668132728248
0.2731818582826975 0.18154561261010826 -0.25436206427892216
0.32592741119566426 0.13494337418472924 0.014285251868699333
0.40370496963545577 0.20228439945574905 0.016364101070209358
0.3011301149357166 0.11282162383849936 -0.1872223450457966
0.56638731242559 0.28343444957792485 0.03215854688457398
0.4837620663469977 0.17959134593378678 0.08734233094730826
0.44528581888835106 0.2526155124228211 0.09192379087866698
0.4208969393353499 0.19854005603041003 -0.023870300712871995
0.4365451665647697 0.203983179092873 -0.008917319714186078
0.40915602435359233 0.20804581587786686 -0.006084226603547904
0.4231953285260488 0.19465526882859763 -0.014413072277449146
0.5297763068929555 0.24271545567115993 -0.03711730571470184
0.4206089577255909 0.2058353912167945 -0.031103165429414048
0.45125596033629733 0.22968136863295285 -0.011506409125274786
0.39974229012204887 -0.017163297306183267 -0.3392363659661157
0.4492314670470705 0.19784390361530768 -0.02364193466068798
0.409405989874017 0.23635202748658912 0.0415844989810239
0.36245411458929766 0.2980933254950031 0.10936126562310733
0.3898713929144293 0.1936327622518519 -0.10899738028777506
0.38038543065859187 0.18950616823431687 -0.05974230899448685
0.48591790510181454 0.23326416304803388 0.004561454603731363
0.3388536263117743 0.13971424942212707 -0.032261025454545234
0.3842992651454722 0.20876298712067864 -0.0026660362001820204
0.32616734211021026 0.21940536346102135 0.4192406248441216
0.45803895332946354 0.21071760186464417 -0.025916688019208323
0.46138201819448454 0.21171711561994755 -0.01408619040032022
0.4519572389708344 0.2840781613440555 -0.019560221791763865
0.3790781493320168 0.2202558147028526 0.02385603560577465
0.46481471766946925 0.2348398969901666 0.0638984840180683
0.4784086046457503 0.22646256508332385 -0.010828324811285484
0.3910660376769215 0.1686031095242413 -0.0911425327657156
0.29543948717901003 0.2778111604661717 -0.054606122851623695
0.6484740318969386 0.1732029094334564 0.03173339797045571
0.36558625362391695 0.20790110038032594 0.04623378817669277
0.5161974592416954 0.22865852618244276 -0.03733469193861083
0.4320833469405727 0.2243020678531309 0.01909943440097095
0.47364678455114984 0.22972452073690874 0.046385935156337155
0.47488730185069983 0.28966029317186326 -0.01421275086235596
0.5928727035242218 0.19203171754443815 0.16080455009847583
0.43970004090319037 0.20375810362006064 0.04921735400715477
0.3844780410525317 0.21516877303233173 -0.07853785578410566
0.3800248437327127 0.22275952530283405 -0.03181788525338902
0.4252186736102175 0.2158109665362531 -0.011600462460194194
0.43334469221348115 0.2179121258412664 0.08328868427659586
0.49483172974851186 0.27556690208511725 -0.09616634370485144
0.3691315654754419 0.1663686577936545 -0.055769940935618934
0.26452808119293536 0.08624325623648588 -0.13397227876194506
0.4152425882510187 0.21015057011922522 0.04436461591006946
0.41943662375712165 0.2104825327928097 -0.0806623874322554
0.4036990623645522 0.2428194801101995 0.048145210298542906
0.48841820318423856 0.22536193633746393 0.044802489896781594
0.44025216497168174 0.17608189815180708 -0.03479493954611712
0.37458721228013303 0.19914703379421894 -0.0463851919702023
0.4308019245605692 0.23156881482830727 0.03091503111960492
0.4717729584970982 0.2613054768164602 0.06076172986777806
0.35592249318028735 0.18918286671281237 0.004132319851862576
0.4493424744873238 0.20397070591735655 0.04898886998567775
0.4317019013054022 0.18410204547615194 -0.07407336285710642
0.40692557808452534 0.21049784917167358 0.059496168502647606
0.44709164319388606 0.22286323415485754 0.013249358745014206
0.4257628822022923 0.2151888637307735 0.019820076137094134
0.4238162878411629 0.1727974260042089 0.010560322745575945
0.44748979221982665 0.19839147340940144 -0.040268612844187146
0.4895693248274142 0.24761528102369823 0.09335679811320574
0.42441421480060626 0.19670943197641577 -0.020565540991782427
0.5021468341358997 0.0826956707715425 0.03948681347787897
0.4136226607207192 0.2173004523671409 0.02888728454686884
0.4488586437026072 0.1965924595968005 -0.0661081603831235
0.3708791872754773 0.14624140743796943 -0.03695296846044016
0.44940964777738657 0.19888057888596222 -0.025737783781920598
0.476544502116667 0.2230138011418603 0.024519743830239804
0.44164858098648097 0.23703360210336655 0.05602483729285268
0.44952301675448325 0.2085659479577373 -0.006059584511362459
0.45018144710005004 0.24350522787014484 0.04467978654602689
0.3646701689653753 0.18833196173267197 -0.03306643065164394
0.4192165584889409 0.1924808156498159 -0.0430029665238294
0.37369789594464464 0.19741897176801615 -0.00827860983639539
0.4025748527830899 0.16342905383811512 -0.028773278448312567
0.5018819699660355 0.23277975293183317 -0.046928251624549944
0.43655625879435433 0.2471894135321122 -0.03446904267828188
0.4188351808643347 0.20502011728419234 -0.0012543217070231094
0.41975883526515645 0.19334817247462865 -0.014274957707840485
0.39114180648637387 0.191280113951251 -0.05951640920311263
0.4754891520744451 -1.4246722929645017 0.05990843060642703
0.4408216639114073 0.2778286586058982 0.09556099637663351
0.40938599037357903 0.22089227565231795 0.1147684327643077
0.36511864759870605 0.17783368808558464 0.0090555907304406
0.43403803341557534 0.19270061977243813 -0.014752896284605299
0.40154764212672944 0.21089374535196725 -0.0020359181778815127
0.4110882453953195 0.22245462514905512 0.0851365417719876
0.9365285988820347 -0.11383190705524271 -0.5040136684756931
0.4231653932084072 0.22637160462718953 0.0517061523452611
0.4471975186056625 0.23245730924520558 0.06704305405787636
0.46405418190444436 0.18566854819128764 -0.059598558478143104
0.42412003851356417 0.25394769729348354 0.023741812892879466
0.4303953604840842 0.2737529969017629 -0.046073792416720494
0.3552761968555984 0.16566772581018085 0.012466129608498022
0.40865955286705 0.16864754506528357 0.003691627412734988
0.4041250709023245 0.2364034925882379 0.09043191938295081
0.43085112007753423 0.1301563167788089 -0.19994858351876132
0.3923594036137956 0.17175380811386276 -0.09049732981850411
0.4331645694162205 0.1792586250561783 -0.015801359218457378
0.5015750628000433 0.11927233251572034 -0.040448450635111044
0.45919961125274256 0.2032465709664848 0.04904993252876011
0.331634870532568 0.14641450450092464 -0.02270321273434206
0.39761733802501453 0.17849035484087494 -0.05505335622260077
0.34922875801966313 0.17646531143878974 -0.04881762569861792
0.46218954295119374 0.21894060095537782 -0.029866149803496
0.4301542749053908 0.21009961648316278 -0.02237420010916935
0.3909933243756001 0.20909924853945938 -0.025127114379387194
0.40876524415550364 0.18973015709323704 -0.04626886459159607
0.45976403087564677 0.19910398773623683 -0.07234069257383169
0.41353051195224566 0.19403595407220564 -0.03431453382231098
0.44736175342414697 0.230652814830961 -0.007363217675859346
0.4156096989319451 0.192042297025381 -0.03154272968617988
0.41629379784637877 0.162684369120484 0.008393357672758839
0.4239356021996059 0.2008149948619007 -0.015970577447319556
0.37746811916781553 0.2299737976934466 -0.030721105164928986
0.3834750178250772 0.1799826313857693 -0.01627655438517195
0.42679016625675104 0.35619040478754016 -0.04210849069413314
0.497982221819683 0.2111755162083 -0.00046266393320593124
0.49277281941866136 0.27392571132102717 -0.05996500769684587
0.3732883301267691 0.1440976803945091 -0.084431895578291
0.4698275699773262 0.2313183617461192 0.10190281693368775
0.49270732659744 0.20784647647030852 -0.091879535427978
0.4899190853706159 0.23476912747958067 -0.0018021968315053982
0.42958010270305635 0.19200477430973706 0.032593410349875285
0.21293291233104128 0.15235262352118184 -0.25240557518426954
0.39455018785378115 0.24963703346226396 0.08097692056975347
0.4697828268304818 0.19395989069633401 -0.009115966929044816
0.3800994998184848 0.2303514419573247 -0.0023986670753686212
0.3962404200568841 0.18807230821283838 -0.051304032689415635
0.39486351741132353 0.15725466592840576 0.05188535104915104
0.4044050254132401 0.2008843098601858 -0.016484495088434414
0.40123359413314574 0.2031370055531312 -0.014315923061388958
0.3991942223851339 0.19395977833512745 -0.11099684669881071
0.49505549956469963 0.26715330177395913 -0.008621859261324971
0.39796027890321284 0.17293252679596094 -0.10872282083448681
0.5906816613372001 0.26046710196052913 0.004014526948182606
0.41961608140155704 0.19268101426783346 -0.01935409474339167
0.3892673655037413 0.13495280963928735 0.014888848996491788
0.42261508472188325 0.17645133136657876 -0.049879938847908534
0.4490003173883963 0.22465279429476936 -0.010851188564345193
0.4374830266380769 0.20534441841610374 0.035623291253912726
0.4403832838977735 0.20923234821164272 -0.015099789677947228
0.4125722515358774 0.14587837976139895 -0.017068756101593863
0.44388515512102344 0.1846314836903531 -0.05041958074910724
0.3954853292272986 0.19434438427965972 -0.01282494737762363
0.4609911782502394 0.20242796532605212 -0.05215139435756555
0.34621216162396706 0.14554604964595796 -0.03576485264889584
0.3415311027073358 0.12638318290775885 -0.03477153217892237
0.4432182520043284 0.2203222872930013 -0.018802049183193503
0.4374519271294304 0.21117062534403885 -0.07092711490822978
0.6233661579619252 0.2340457199114212 0.01456611172875455
0.5041762040568756 0.2395051234131529 0.014232018837759597
0.44739652318182266 0.24180256384761378 0.07046980541375092
0.3995028992811882 0.17287254342897995 -0.09410395129079063
0.38131542660758555 0.2243466509866039 -0.07546417648603665
0.468547279497713 0.003350636656932693 -0.06390868611924816
0.35011479150168157 0.1821451773501792 0.00024050942677433795
0.4866721004450767 0.24791902441049274 -0.13592559868405374
0.3562579944722586 0.13089801200106876 -0.07666049135698927
0.45657287354330833 0.2579286365628093 0.0005922436456700098
0.4444065898041316 0.23358313093402217 -0.029098093353098875
0.4304647327460316 0.2787667267538154 0.02939879226093467
0.4919125634889383 0.241811578200128 -0.017816240052511034
0.4318430452784412 0.25801098200709305 0.034283223916872885
0.38198239098841213 0.22151163989204292 0.026931877237089452
0.4774653504894957 0.22979184324447033 0.007360711821633004
0.47558071079714637 0.2339829142340193 -0.028340029818721746
0.4283385070261829 0.22533573123219242 -0.014063970208212595
0.3862119388084011 0.18982887035775775 -0.05515641905830648
0.38689377431663274 0.2145772260375054 -0.008461094568502858
0.469348032857269 0.2471529438843163 0.08578880522242116
0.544385199217686 0.31339718055356514 0.09574600060517469
0.4875711743751765 0.22461983542737585 -0.05573706013893798
0.3817735818927872 0.2166400850850465 -0.013980655036590406
0.5109800251714205 0.09785731940041842 0.1183299733075387
0.4467852983449063 0.19992066545303544 -0.03667054275459236
0.3604485053245696 0.20024549235127154 -0.009333834743543434
0.43169568876291464 0.2045843108155907 -0.025404212075216037
0.46661784638833126 0.23882355116438703 -0.044920757079751183
0.4828009338270647 0.21229503546283013 0.004600519434731609
0.4236650198182872 0.19404232700473756 -0.02948180944125056
0.46427909667798417 0.20936485096315494 -0.002170279300372613
0.42961783508170015 0.21582020098915677 -0.016150558560866557
0.48766260290533125 0.24792483515642516 0.003499596832170937
0.4432831898912468 -0.5100516081384683 -0.8738783166665911
0.7045786435062666 0.21435709544519455 0.025473483338572578
0.4232084369886877 0.20689794438703757 -0.0143167812338163
0.4380311263179948 0.19685888420150377 -0.008648261246563038
0.269963921767868 0.25014929829120547 -0.11412323498291244
0.3647315026227318 0.17216936087757517 -0.01812332533208405
0.45558736192919014 0.2048752601616428 0.043495728505391185
0.3297742681869238 0.12272433120365633 -0.057516276928879506
0.4298933429400904 0.21308185448512518 0.01430396147702595
0.2968193340970515 0.07753152637604899 -0.06215534486503316
0.42449904016774553 0.20030918814296683 -0.005542437863098826
0.4969220695572574 0.20558570206533489 0.07017020233433868
0.30189541697933464 0.20875751922253016 -0.10255841282599931
0.38953939648924063 0.16112229376969367 0.019168878121945454
0.40929522499570226 0.2332790025750171 0.07110932201294418
0.5237062006460462 0.221781726256026 -0.03729705978126674
0.35543726207671966 0.1934610630741247 -0.0023936554452035352
0.4325325529159443 0.1614387712913583 0.020460183950234523
0.37005121536731167 0.14364906596458127 -0.014991463217668866
0.5170702730248422 0.2269433564855774 -0.019661488674330485
0.4495316387998969 0.18829262851599537 -0.04468624882488825
0.40741286145122046 0.17805225136861225 -0.03468516047377079
0.3811996342072206 0.17698656958816628 0.0407758266930216
0.48622386319996735 0.26718493803076626 0.0671496263335456
0.3690748485879567 0.1652538045903924 -0.006286689047698246
0.37053005830819075 0.15793969763080895 -0.05080230592507462
0.5224713104933016 0.1636748408731421 -0.08490871090572227
0.3492732557430571 0.13170569915880037 -0.07210647023762817
0.4480276391618645 0.23245046044441153 0.03206233396497282
0.39120902145533876 0.18888276377003876 0.060422001373069634
0.44424600983313667 0.2678507464482891 -0.0483881932061081
0.4125718503196367 0.18743965998245926 -0.08662739053056612
0.39254296069744044 0.06696528246089883 -0.06429177919369522
0.3737525651426381 0.15134894979522073 -0.024043570546780302
0.4552938060490419 0.21050998585678826 -0.00613665994286805
0.4354630801530561 0.196569892555857 -0.014926906343475821
0.391529959867313 0.17094010170333718 -0.03640815755341009
0.3948817364280188 0.13083978888229808 -0.0852282883035258
0.4827116496781514 0.22030153820182363 -0.02114715286367641
0.4389946807626188 0.20935811518958758 0.0006427471936802931
0.42786278052702187 0.2735776823056142 0.06801076968775988
0.42599573448288197 0.245281409465548 0.052198786425208255
0.4643253992012575 0.2491717640969 -0.0013885796545025642
0.35672861316794524 0.26391331837794496 -0.0017161950341630927
0.3248744040147358 0.1959960156750924 -0.129878977554867
0.44366635037320634 0.20209601171288227 -0.08544821313702755
0.4325740002546752 0.2078505732170015 0.02473904742245736
0.11229214146365507 0.25648488062111596 -0.10098375629056022
0.4908023184578667 0.19837883339124573 -0.022079469829208165
0.4496364882617456 0.22441896757268864 0.005731871143069611
0.3541760322561771 0.1901950832445891 -0.011643169965310562
0.4481592370114811 0.2115562437100209 0.009994298256344791
0.4314828408450069 0.19571571126188303 -0.010264245205590328
0.4335054038510293 0.17230751676297018 -0.033308514765323594
0.6009390819456542 0.3490012733502681 0.0455240311176226
0.45202932650468597 0.2854388870928517 0.03992730883499007
0.3308235900044849 0.1150071924088536 -0.09102184724089568
0.401931741630591 0.2027523166733829 -0.02072000913381089
0.45390652074362947 0.22927268747105245 0.01721202288010204
0.44269938863439506 0.18049911663587181 -0.039531168868848
0.388678564554624 0.3380642481728984 0.15280106647934133
0.3287547966365736 0.17788624554212618 -0.01907960605245762
0.42924160817375423 0.05504578761971857 -0.10399649725414406
0.42553639242854047 0.20507589764379475 -0.08573388667011272
0.3515805538069685 0.14846271328708838 0.05563139612243617
0.5051092280123015 0.3995562585790253 -0.10935471144723863
0.3760423194960083 0.17633716357559592 -0.04219956611072462
0.5078331487480625 0.3575060751140313 0.04991483487532378
0.4384155686523741 0.20402620162468565 -0.011542439939233873
0.4770600912726053 0.14385658680170366 0.016907915313737476
0.42368819087261045 0.17678494113127385 -0.0638692849876179
0.4666334108868284 0.2302101247547057 -0.03237567739282099
0.4657208256184333 0.255217569731812 0.011690932324597725
0.3746634675979976 0.18694175020351622 0.04121944142812595
0.441094185218347 0.22459017561186556 -0.003752417798409624
0.389622824118689 0.23567608202441193 -0.07713089605003631
0.40549891201081323 0.19849804446042185 -0.063540210018175
0.3599815671705926 0.17361971219243344 -0.010939049436018422
0.3625360341532655 0.20513250858513743 -0.08573818865187377
0.43203054245975636 0.22729451026961556 -0.002625926471466755
0.4177774722037384 0.18590399499666432 -0.012699218663755119
0.4113831873665674 0.18425402825582182 0.009885331512833773
0.5696307472572641 0.22880372432705087 0.050505968784705146
0.3717202037730658 0.18146754767687412 -0.10713870535965953
0.43568663105553185 0.16070871417578303 -0.08880178893545576
0.4330737425374025 0.2315367927971579 0.0628066283891684
0.38372926667560137 0.17685002127436178 -0.032736091374317766
0.3915585038341476 0.13384535223769944 0.09676610298129162
0.4643912120430116 0.22662269856600403 -0.05837691737730211
0.45122198185151774 0.2267312890117239 -0.011909244951965547
0.5828179160318712 0.25507138362067394 0.03578644875571513
0.5305185120873972 0.22367871341441514 0.03673518998003544
0.3752135771612757 0.2288574281618878 -0.0050560955512537475
0.4513873252252125 0.2419286822370026 0.08392002393148346
0.4629698610492028 0.23043787548417072 -0.01354959159448299
0.43392176693227213 0.20714984259768698 0.0842475351191041
0.3976448936088559 0.12813361390917066 -0.022744503772571534
0.44396529675009333 0.19695546928718954 -0.035201192196439024
0.40649490487962225 0.19011133993828366 -0.0870587567266341
0.4586070384028744 0.21357583611546715 -0.07955397934983921
0.49224491217972854 0.2579267678537178 0.04143086809358465
0.43098840484299217 0.20179229029210433 -0.03634968169029662
0.43168754066024917 0.20006703955623095 -0.006720809012136897
0.41737234669469103 0.20307605894799963 -0.03966914021867751
0.5223893400012685 0.23324177778329158 -0.051270373867453145
0.45089607224639394 0.20753444922904407 -0.017958274156384846
0.4361889385266977 0.21364165505498534 0.027476830643095695
0.533117272044592 0.26812856275935815 -0.03222295459755742
0.36440176163606 0.19823240226344296 0.01634733809569866
0.4606824575773345 0.20096974944280532 0.04521925083025735
0.44879771690878556 0.21651448437231124 -0.003951181226412359
0.43049619766168234 0.18374011331475515 -0.016058998967849902
0.4647594169946103 0.2443591190052814 0.03369671094834814
0.452195613974709 0.18086415967022162 -0.03345134551555873
0.4209334725228473 0.20683275366386056 -0.08798709261952808
0.2652222787226748 0.19280854492478738 -0.04105408303109925
0.49313927399731483 0.31148527311907515 0.03974605320556179
0.26551882342442923 0.11414931101803916 0.15427303729029518
0.4233250123190544 0.18085651012387416 -0.020467341022239793
0.524841865499269 0.212903753215258 -0.08223187212701077
0.3407363589874848 0.18570013492185922 0.012021819784251875
0.45332089196081427 0.18124543518716507 -0.01489996381744163
0.4177738224910854 0.11050191403364806 -0.12135038732895964
0.6031983955635098 0.7580265190177045 0.2530665737068887
0.47378566666890265 0.23296512684633797 0.04143981263489138
0.3950910528878211 0.1523703782420398 -0.04833141734883384
0.29899531822709946 0.1345655715345231 -0.038720349200502824
0.5157328777387136 0.2331055262455095 -0.06196170247801547
0.4283630899808202 0.27829958428385737 -0.0121174799040773
0.4248475717899822 0.18810048872646234 -0.05935571760883818
0.45954162240897745 0.18911963076993743 0.11673748552871643
0.46388948459393475 0.2960480120220126 0.046066513760052885
0.3982012669443691 0.252069701975671 0.02577654592803924
0.40820095594202144 0.18191098076053436 -0.04072780061343906
0.4170656704807527 0.22287069739437015 -0.016253552778522362
0.5136553980256622 0.2208473260603654 0.005292032739433239
0.40808862710125027 0.18315551549153497 -0.009040472003164268
0.48255519063613406 0.21659723689046473 -0.041162699102642364
0.469064252262001 0.23920126596826208 0.044352202444059685
0.4443123193122318 0.23631558972593325 0.010163850984568512
0.4007632127707126 0.14238803012216295 -0.009233685056017293
0.4212442985101177 0.19947036390277617 -0.018044946137194984
0.4245561794365642 0.2089516098195645 -0.01191748881649346
0.45470073534050925 0.20946108555193632 0.02837075471489925
0.4318875851719923 0.1879684192677331 -0.005269203994686222
0.4247357414134285 0.2062012506532085 -0.004373762737657216
0.3814352658261839 0.1622282333285341 -0.020514698083715643
0.43913544271656235 0.2187010477029787 -0.00836140806383412
0.42970159037028566 0.19136564704734838 -0.011588982429515227
0.40544504020903105 0.195916738162083 0.039340107590433604
0.46454408571412387 0.20360610506418197 0.06390093092801408
0.46243922004161675 0.21311436873523348 0.022985293481440294
0.44025405561876596 0.1398490276501434 0.0571617301917513
0.4904126565122624 0.2369337010895265 -0.04537769651759049
0.3599864660981211 0.18870117098111905 0.0784869196127147
0.48950047711190336 0.0408456829771211 0.0904211963338355
0.43305711614469544 0.2914156434823525 0.08147139197778586
0.4214393228505884 0.20133479155742862 0.004212730210340965
0.44449952066116794 0.22070304240203598 0.004869797084268157
0.412328507549347 0.14728423064968865 -0.02437010176207366
0.48209282429917266 0.24115677037153205 0.07373130424821284
0.4414076224410337 0.16803022965846992 -0.05088937862024068
0.43142670495683433 0.19475655596197328 -0.05476101590534199
0.43270510027404896 0.19457253588933554 -0.07852308005530517
0.4533673892305501 0.2287275289398849 0.01857836713548977
0.3739621826093469 0.21503125881247342 -0.0699613982503422
0.4542408918658083 0.30249969774699537 0.05270654330612956
0.48828092108166743 0.21885065690938177 -0.0359500307855285
0.43710486234880364 0.2045631792111351 0.010234429520039612
0.4465999069353188 0.30928191739644717 0.05103214871797945
0.4469924314293223 0.22129885135161942 0.10925610713096034
0.07843297927165338 -0.06805627524337865 0.5886319480887039
0.3781063020111617 0.16126247868659505 -0.0016102643952251583
0.40724290838923594 0.20114382851754442 -0.057300379210175834
0.4036608008917142 0.1948784920453761 -0.024871035842352285
0.3455417127056819 0.22794767847821618 -0.045510238286169624
0.4659383539872124 0.2181149509238196 0.035459748539764746
0.41682159678444464 0.19318246081274992 0.0802181136008926
0.4411570844082746 0.1701376300839854 -0.05702744613512323
0.37309286745016834 0.1411941536273673 0.023387678461460837
0.4466602156527415 0.21224337972449803 0.015300263419703697
0.43304578998160537 0.19713382620298603 -0.004537670532243965
0.401960924231787 0.1570738122031372 -0.03003681753575904
0.39659350600541643 0.08143953923109848 -0.07852278480807229
0.4065175741669691 0.12598461673857742 0.03199136606440334
0.4312213518571184 0.22720577176227152 0.016871818973328345
0.405066520292678 0.14228721925994137 -0.15620257555207218
0.4832559877739584 0.24111973373574358 -0.012846244892699588
0.5192285627787498 0.2576549655637166 0.08354200308755821
0.39198121441540934 0.1707799192190862 -0.07750243274233526
0.4375748775860586 0.3133916301203499 0.007638429993335194
0.41331037481707256 0.21103974761732047 0.0034827086817870168
0.5143336803353833 0.27177794394859234 0.05507808888714294
0.4540870436490252 0.23054565196980548 -0.018120877089842224
0.40231722596789155 0.21417535078930428 0.041484044432706924
0.49199627343935504 0.24253671881302807 0.01814961808693738
0.46001537131789405 0.22277831288388938 0.002312167545454713
0.4318539304032214 0.21486771324033782 -0.020287186005390367
0.39846748156418244 0.18931917316982094 -0.03160688751603402
0.3634417477996976 0.12059252634199424 -0.07388354156321952
0.426904649448673 0.21597703997861117 -0.012994035898515222
0.5916559472285456 0.372505537702267 0.08948976181093826
0.43382011238202267 0.19503975907053928 -0.0189549632384427
0.37389718482512535 0.1631966639096447 0.053057599863251426
0.5221333900970535 0.2652959937152559 0.07378030318790252
0.4224511644538609 0.20061136464445894 -0.011845231782274368
0.41101689664668584 0.1933733475552799 -0.09836931706743712
0.4262848970085713 0.21146540056436436 0.08192121715661926
1.817374461777007 0.2966644624312096 0.7279449122138146
0.33813515118998794 0.27500275177737876 -0.0531283396850597
0.5214914247837044 0.26026104515976556 0.008776492994755358
0.43105045491938654 0.19690229855198993 -0.012659746654293258
0.468574727379945 0.10025317348757312 -0.1982080108267894
0.4454116678952005 0.24057004501725032 -0.008437581162127117
0.4291500149975178 0.15963157813659734 0.01757450942247374
0.22706541999963292 0.14598203895835127 0.05382567917990855
0.4337755852739207 0.20130761134885233 -0.027764527845988596
0.4764374644234408 0.21831788535979513 -0.04190610458589106
0.4603375269121557 0.22998925593984154 -0.040195443462550884
0.39068697972417965 0.2136307154735846 0.0020492554725706214
0.2966987749963721 0.16640892238343952 0.011445200297174551
0.385542773587801 0.17603028896392914 -0.10214740932534028
0.3952334399639881 0.17709957901467988 -0.019217480006446408
0.43244566139073015 0.22017598974015584 -0.008907050910806902
0.3954449675824492 0.18610822577221597 -0.09325080827397869
0.35525833747345814 0.1858053380016429 -0.026733910011301987
0.4369721465480154 0.16709066423933905 -0.04340831550678104
0.4550687383631242 0.22056293753541922 0.016478383568397703
0.49520234848770883 0.2820541474056739 -0.058180592284656996
0.4009802503204014 0.19151075503515358 -0.03045314958654899
0.5053287515913496 0.2645865320350964 0.023610044047245538
0.3012086127187672 0.04986547508281092 -0.05249406970987991
0.47107870593472967 0.1774075178641965 -0.018885287591785982
0.33774969025819246 0.27569273513567794 -0.0464327057659375
0.458154112057386 0.19040278462996696 -0.08234200840357175
0.4304894179565508 0.20164428386419786 0.015846254716478825
0.4340715691867558 0.23119446792267695 -0.018174500535138804
0.45212099451993026 0.23302475697244063 0.07487743913007705
0.4928426544034892 0.258538196790397 0.07542082541505124
0.4710875334346838 0.2531241634764001 -0.0017049478563535558
0.3993642318309014 0.25876478351050025 0.014086347469728366
0.4364142703305731 0.1740405737611752 0.0014896266713151363
0.40255471837548384 0.18784985420623457 -0.007205129740441407
0.438741191058142 0.22215265169906218 0.042722158689031176
0.4086074500967811 0.1790059402395059 -0.0025365262502816677
0.496131455358892 0.19339527146291857 -0.11690342618787497
0.5019407050752704 0.22977418932853766 0.007214079051180988
0.4353031368408864 0.21075227876823988 0.05039952976466111
0.43462977804293246 0.19952680288039915 0.06225472777910568
0.3681388665894332 0.13382858043219414 -0.017198515581299034
0.49363923104266405 0.18091601440659133 -0.004475857059105692
0.4561177373112457 0.213879062382631 0.050919422361772604
0.42185433862294985 0.18111405817933246 -0.025547283347165717
0.4006550780583211 0.27333726068521 0.06134761245611742
0.441843350049993 0.21037220769480314 -0.00844461488391346
0.4117658239020159 0.21732132686884142 -0.01955034913166287
0.3395054570838738 0.18267610490138964 0.004880402634995562
0.4158522229843413 0.1706165698415134 -0.118506595805286
0.4128637309781311 0.15058753022481142 0.02919793025080253
0.3891323383424208 0.18191979057428398 -0.0032395816265449184
0.430901675269979 0.16980239320197654 -0.05683652838227715
0.4132503812268311 0.20155095315112703 -0.04301486044622038
0.4667678310544545 0.24086604455155225 0.0553975723000093
0.46759411658975125 0.24068197155510518 0.052507604156318166
0.4817354717016684 0.24522031150920043 0.09413407288781173
0.3686129318198539 0.19886640837444247 -0.09258838520483437
0.43741131316522797 0.20057859646135512 0.0001811386911754198
0.36383026052087075 0.1447101186488169 -0.07929531571079451
0.42894191698636064 0.16606560684459737 0.003591350804583726
0.5823857105177126 0.2181327350455149 -0.030158438090325035
0.4262563381707025 0.19903923176198646 -0.02286721931004365
0.46375949362473534 0.2753579061131859 0.006496395464921534
0.5381240507921632 0.32331653453091747 -0.06537193049780399
0.45194200539600615 0.20617517945484565 0.06003818489418222
0.22746393415738453 0.21717261217744976 -0.07725575564731457
0.42109842934547714 0.1525496108045843 -0.0883797084896969
0.3984988363278603 0.23272739238646523 0.02216765321833236
0.3540778615176947 0.1847455479035034 -0.06874517171380035
0.4449434432394668 0.2219142199445514 0.02915430193606028
0.5587035484319642 0.2421986393632949 -0.007181672746028767
0.3774248540606351 0.10530382688484963 -0.11468757252019657
0.40666136996918567 0.2095611042521739 0.03496662988914068
0.4023867677635451 0.2033233683113167 0.002124925536890032
0.49950054305065805 0.2666540455467725 -0.05181446717274696
0.5020727044868352 0.27134376256775283 0.004794819526381389
0.3763981098460505 0.1321227951449231 -0.07248833510479358
0.5002251310103958 0.2658932775600107 -0.01614626708017397
0.4661583317380291 0.14479746078637845 -0.15683516959987287
0.44643948900645114 0.24361691671083463 0.018196813330050077
0.5110425247328862 0.2610280079794478 -0.03873246484424442
0.41749920921277806 0.1807048540199787 -0.06351270129532338
0.5141902823963562 0.169232590515918 0.022705709991583944
0.4406021979779666 0.21893249377673385 -0.00725646618201381
0.4629956688084036 0.21628418885553913 0.03687766015048055
0.5280679125167751 0.2881930872779037 0.0180296159999358
0.4482489899907023 0.2198132915912936 -0.01477659794744568
0.44385419458504316 0.21657074894157802 0.04220217240469992
0.5238114691490239 0.2571163816179194 0.015210309588979953
0.5143343394674957 0.22821414142208596 -0.0399610125513874
0.4069687643896174 0.16450662174364084 -0.0371953563906402
0.44733507295165964 0.22020135289807286 0.007441512679150719
0.4008475704112442 0.18064743020394758 -0.03798280078473226
0.46580441170338815 0.14905515527915725 -0.07897746983596221
0.3611131931846927 0.18014061134448411 0.011849865449988783
0.4734537458035959 0.21673770280627025 -0.008724273883359501
0.44283943748038723 0.17056587862839478 -0.0607584627478559
0.3179102394926474 0.18969904679698857 -0.040440130250189554
0.3644992050675455 0.24135451139139263 -0.0016345081660631422
0.451740765949026 0.23498125097080447 0.00870079924746392
0.42150694603853367 0.1920443617635783 -0.02383309927918731
0.7738955755686732 0.13510956611602865 -0.24728252114462634
0.3840827229348065 0.18207561961975216 0.013604536271301981
0.5389182628021274 0.3649673404943172 0.15391767164167902
0.3723209860364136 0.15637750782855164 -0.12093313675356399
0.43392811637536965 0.2105586455280104 -0.03292058701339329
0.4480070010733357 0.196806553082979 -0.03031866763637936
0.3132747513320169 0.1479984841377302 0.018599914485946556
0.4165836003086554 0.19096698361346398 -0.01193637624244559
0.3951319129589308 0.12561928864720073 -0.20615885041212323
0.3450325313092435 0.13204060681574958 -0.08782889678288086
0.49318191777163634 0.22403068707322404 0.035627896896528455
0.3922893562775016 0.1975542407357409 -0.09177431371418265
0.4814963935032779 0.18567515103489995 -0.030903151049813005
0.1901999632650586 0.43846292069997617 0.507904330912794
0.43657526117542034 0.23075760878276697 0.029466300960621084
0.41498107484866864 0.16866359085526028 -0.05457022895842556
0.4632525444602891 0.22355719008285746 0.035745586324352985
0.28314750880511497 0.24268965796051134 0.38066356377680677
0.5089339175588066 0.2412879987607539 -0.24251660454976331
0.4250298472285863 0.2213884416551366 -0.06776302752396646
0.37669118505706933 0.16676032472742008 -0.03133124844785584
0.42431108035461307 0.2020189650357338 -0.05755504624717389
0.419370874696682 0.21004332652597668 -0.025965756377161142
0.4046908395274045 0.1998104464671684 -0.03754874932045027
0.41253482959596965 0.13930033580315637 -0.0826302202213185
0.2933408962841355 0.11732322085255475 -0.0484048633202292
0.4851834057957376 0.2188085348061577 -0.008483660266279003
0.40601433352350114 0.17333826529481655 -0.06564875689785765
0.4620300344474373 0.2106850869288337 0.015473862432330066
1.476041560196876 0.6325600672438441 0.4554380987271003
0.5605823844441034 0.2693816116750156 -0.018305402123374392
0.41177578766263423 0.1562036428481406 -0.10849334729894622
0.5112001015991012 0.21718080977997545 -0.1258558941660226
0.3815385215979177 0.1833972345410757 0.06405910778106261
0.5107408097358928 0.21177044913895315 -0.03618326102217395
0.5161395033241405 0.227917279299362 -0.05229783976093927
0.6008345800256905 0.22013742417331628 -0.08061564358837359
0.4231373210064504 0.15813145450280786 -0.030802981365923188
0.41888081110155895 0.19367258140597698 -0.0059454932230949
0.4192797422993806 0.1215718535296304 0.01682055429664331
0.43584401194679856 0.21000740146835994 -0.01172822661200712
0.3398727661239036 0.10642538011978786 -0.07242204372906258
0.3944678528031318 0.18537824108099699 -0.03964882485581711
0.4458407564910516 0.22027005594280524 0.00818902722897974
0.43099433883926963 0.1815662571542873 -0.05096547513900873
0.409342851025599 0.21678406807873785 -0.06631211652654656
0.4018625889241605 0.16944938857730563 -0.06042341726470113
0.4470211314807955 0.15085278885383957 -0.07918265939625257
0.4224582174663851 0.17866925220154428 -0.06285874848951778
0.37239209282583374 0.24273145779233118 0.12733991344802575
0.37205646878724963 0.21244320861171673 0.0022075467512649993
0.4008443069247676 0.17112474721199078 -0.07420643520867998
0.41318686551792894 0.20821761187232823 0.0006682367004344769
0.5280541826359126 0.26255584524579945 0.0023258091574263062
0.4360911241239336 0.19134540542719947 -0.004077814178742756
0.43264742950881896 0.19899165518745576 -0.01873410771986528
0.3336638427326193 0.10919794421650408 -0.08324711168722843
0.4050065757512016 0.2231253465978682 -0.04524487259016041
0.41991009348183184 0.18120671730932258 -0.10094666182556011
0.31160520744769826 0.20739588476016024 -0.011219759893435821
0.38187066096774913 0.176657084944722 -0.06238336085573337
0.4301939554740528 0.21721671539742715 -0.0452837035765441
0.49019531854492016 0.23993922197973916 -0.06701668680165085
0.4248140983367108 0.17982430185503517 -0.022810692688537415
0.3740963767633616 0.20077229262291496 -0.07312200771787047
0.5090099741591985 0.23763036338858967 -0.037462767080768344
-0.1363938524908832 0.5230167685117522 0.16841200110691545
0.4354332192913404 0.2466019549133165 0.0428240168967875
0.5128261195431634 0.2629577225858526 0.0015375024971291396
0.5552331651135205 0.28158567424884495 -0.08740359474759885
0.48079766465012597 0.30638853926160436 0.07428183753131634
0.455761234004882 0.24052021192235884 0.024544665203649174
0.4266303927654178 0.208565407983059 -0.03542442300582138
0.3717661242140764 0.28784692531972667 0.08791753554172033
0.37871724973297205 0.20416164607328824 -0.010946597186062945
0.9446421390567536 -0.06424812328546636 -0.17852300037313285
0.3348589621441249 0.23506614887529054 -0.0018398967214636741
0.40760697208176566 0.22023267870743268 -0.018862496744944224
0.45591588158578134 0.21830164222245685 0.0717340511799307
0.4233716318401548 0.19698067350751103 0.003278619688131812
0.3241150834908524 0.15077681062362558 0.07773607143920458
0.31420173465903645 0.16408404916393238 0.03921401791478729
0.40600256946630964 0.20492892300742938 0.00603064892456473
0.4354963566612611 0.19914564289260284 -0.08048262134128947
0.45459276997328857 0.24670838458740718 -0.015895879061787355
0.42308805505595615 0.2205492995113616 -0.013834243661449364
0.45155508488366536 0.1714203974931081 -0.020389968689130455
0.4916342249736232 0.23447609938469327 -0.05026177136620902
0.33302107756767896 0.18226849049567306 -0.004939641956468677
0.4213937356793167 0.20455770631808434 -0.01673798997350673
0.48900113829373026 0.2793154853765998 0.05523919676423361
0.49958577968470763 0.2311151990366085 0.0005843504194444904
0.40864544286731075 0.22720005537118482 0.029786220789389972
0.44769590326811226 0.17072027704347192 -0.0889094448277774
0.38490228367768964 0.1722217908855157 -0.007623255853403066
0.36739297147789785 0.09366117684638198 -0.101207613452857
0.2378930008832043 -0.01646446573121807 2.801965716350921
0.4339907508851155 0.25453776166682474 -0.03868577012207197
0.34822841521406644 0.15211987112641623 -0.045188933376962837
0.08732889087515616 0.23650172369076472 0.3034102395145908
0.4170928722817422 0.2102113268799286 -0.04237003586666788
0.3930717833172537 0.18206279458615882 -0.10131200754094039
0.5289415199657697 0.2042325220726866 -0.04697760315895039
0.2838268398421633 0.20554419437826255 0.0018314080741248517
0.43720241921582215 0.20852041201652582 -0.02743623789555727
0.3064770178160927 0.06758854833108785 -0.006108332738705258
0.4386928299054489 0.2211078582575965 -0.008622442715093825
0.5243400758447336 0.3080090670133302 0.02959671080265025
0.4973422724398233 0.2372928527984044 -0.04047189096797865
0.4964202801548083 0.22816768995099324 -0.03953929085133723
0.41753974936722216 0.15146085993688985 -0.027303616087039018
0.42209475996298806 0.21095975832881209 -0.05111808912772631
0.3518860124135017 0.13299563236918743 0.0454808644163478
0.42160568020482003 0.17149080439251918 -0.006539707805728767
0.47413309274497806 0.2533461453110277 -0.002150908098627724
0.49723576076405607 0.25930865833046823 -0.0016894922173094074
0.3303401631718259 0.20077615112748504 0.034864512348818266
0.7648955931169041 0.29291625869876725 0.10058734677858183
0.4708426921546618 0.23463577471882502 -0.015915151680729878
0.5263243561179252 0.3274863900070386 0.16059319812083572
0.23661881888355651 0.7204730680598601 0.47376193823052404
0.3345469974413646 0.18493302441549986 0.039745716120194174
0.3953216608724972 0.17704282965301843 0.003918139129694964
0.4177176307687489 0.19405310247603325 -0.020636945266659268
0.5026154454715765 0.26609709254883285 -0.01667328534193757
0.37446913210015964 0.16985549217578466 -0.033403266933561326
0.004041671687190274 0.7687739448476805 0.3866782342692545
0.40248054232623076 0.19016317760372203 -0.11457921406642413
0.4386808370527433 0.21682434038817178 -0.061391827347478056
0.39934998692949364 0.20611582398728956 -0.009449186454645542
0.44237819297526926 0.1979970488716276 -0.0238520396625006
0.37248281381761217 0.16799725670806254 -0.0888295676147095
0.38328399168293004 0.15736644473176398 -0.0517364112179024
0.4511221410351709 0.1346426877233995 -0.06693249399501155
0.4957863709116168 0.18890287621263724 -0.017316188839231472
0.35444702008825857 0.16516018364725937 -0.00940589859111185
0.37937504471338457 0.20178535858504176 -0.09312739170700013
0.4737737712560204 0.2809724305299284 -0.057271169935205535
0.3207290706938437 0.13678929388774463 -0.013319907551448296
0.5551925132337061 0.1737828358147766 -0.09835114184240012
0.33153943447352674 0.09643674255235624 -0.1166060074189943
0.44313296733699303 0.19472808648605167 0.004821697448022633
0.4145680596682979 0.21607209356642443 0.09059228492613158
0.4773285426585687 0.2728435719241702 0.02571019617226966
0.2949749942546731 0.16768996618361598 -0.08995985650332727
0.3389904025787871 0.15633400967237776 0.011192981678433966
0.27986185469193003 0.46979074061457027 -0.030380065537571
0.4901674946961805 0.22600350485423348 0.0919010491155916
0.495303328102068 0.2556904548453929 0.08329128108525197
0.44851204848555426 0.19508991995844838 -0.024751971885223156
0.42274410734785306 0.20365106278165968 0.008029493827649503
0.4559203207648608 0.20023673081084326 -0.0042287986832860724
0.3888461157696952 0.22149243091172366 0.018089146702294556
0.38378081312231416 0.22126609002135922 -0.09578712828998448
0.428946224931849 0.23850679690008292 -0.010114438902903089
0.42820772976531885 0.1902825525334606 -0.03598199461144702
0.457959775799452 0.22508042588540889 -0.040487243380113114
0.4185009814291618 0.21342169676027822 -0.003614716923124206
0.4642816894673558 0.1891901072457074 -0.09418802729192066
0.42641411944865126 0.2037843535347008 0.0019146571936801138
0.41423286932385395 0.21393842499109894 -0.014609466049307684
0.525987021346026 0.2808243998589717 -0.03474832027457353
0.5272911606346469 0.28230599731924144 0.052553460493768966
0.452910606063341 0.1727240576958593 0.04080954173687701
0.6806147428901141 0.1985891777258928 0.2264677050517605
0.39802911750958003 0.18022717212275552 -0.13960185374268974
0.32462613104385696 0.020149911199183634 0.054555900777671695
0.33158121565881515 0.2320969631715002 0.06527625043011653
0.4241339169904137 0.17816081277646845 -0.02510068205296534
0.4367920135790939 0.25689291293079464 0.06101109790624548
0.4399302888793244 0.2318888593526367 0.012040877060854882
0.42941051218633675 0.19374940706049415 -0.015312063600447345
0.5042454685316784 0.2571900841684567 0.018182513683143497
0.45407469483777163 0.25708954734746214 0.04623758425606184
0.488643307424951 0.2449401262803974 -0.054000858917575556
0.426120939940688 0.20335755838334535 -0.007767912918893671
0.359310749430378 0.1700980619756507 -0.09932248624741646
0.4719351437188095 0.22365433854065486 -0.003370039001950431
0.444062695356223 0.22218157792839577 0.014512153932855654
0.56329927498345 0.13500611855576494 -0.23159261874417325
0.38987268359313987 0.18793348032042445 -0.017788672757092172
0.2482398965463517 0.03467093902901297 0.36890994792830156
0.4811704400550809 0.2894097467433596 0.05773828118248048
0.3825036040450698 0.27127866532723033 -0.026420744109486805
0.37216979998581223 0.17643451715647984 0.002327204210700984
0.4286221703703319 0.15955675954782578 -0.06485867264818523
0.4579560446290145 0.2358611172856655 -0.04138371160644283
0.4388535100317199 0.19610652122560168 -0.028617133438302744
0.45537718632188273 0.22284919001086223 -0.05153455847889177
0.3571779837325266 0.21180788745439827 0.08003891843856081
0.5758570220888686 0.29888279425676956 0.1452322960095529
0.47071705191495994 0.20324329231146976 0.04123978880306822
0.487298444269328 0.20439601547627717 0.029511177564813806
0.38219800678652405 0.262325917763917 0.1288014222745062
0.3968997313527467 0.217581648280742 -0.0003426373444028741
0.3972229072707023 0.18744512349100262 -0.030286110332653493
0.5548030145584733 0.19487069143744407 -0.023754363907471543
0.46555069146297967 0.24699000645659908 0.172871896682409
0.4502841755131044 0.1630630198937979 -0.006933985056690517
0.48505737830855367 0.1557413685912934 -0.1308663154162275
0.5234136682135784 0.21724768861017196 0.05963942977726333
0.31948794260952695 0.14386752254984003 -0.02478470142500555
0.4238391902058254 0.2103802388236744 0.041578169573540436
0.4496158613525978 0.2060333714186413 -0.009036415921229946
0.43668288087258134 0.18003923408636524 -0.03332023694129305
0.4205935646504315 0.19103318049558027 -0.02749412953779995
0.3888873994470714 0.18634506045339094 -0.05876888158340421
0.44026967605088885 0.22738066778427424 0.011625999337098847
0.3873730808883522 0.29617128233039125 0.04577801967118944
0.349373649659924 0.17632443918338936 -0.09314509854579
0.34812896938453264 0.19957986163612418 0.014489272416682297
0.5065631931807388 0.1939807437693588 -0.0320363557737835
0.45814922600909824 0.20049077018805406 0.08033268790060788
0.5340201091648851 0.21635194173288141 -0.06203472465048776
0.4148300793077624 0.1726953971092371 -0.10293122042656933
0.38320521720422107 0.19359020962275508 0.0008974629318458938
0.4870962330319202 0.22310283392539532 -0.03645756603199857
0.417801665312993 0.16913258882752302 -0.0675039518567786
0.33830938879486894 0.07917385326422277 0.5013536690928788
0.4554323473667097 0.21803335829751802 -0.005035772625475943
0.44906481419920397 0.19234550384277327 0.021162051612350297
0.23690246460549247 0.2293911252964591 0.10603630877250225
0.4087299016135262 0.1914186550610566 -0.09092458704091655
0.45506265421144576 0.2774553908968471 -0.01802802517735813
0.4921711876330903 0.19178673528008972 -0.007175800428115053
0.3299454762037328 0.14840050856690823 0.037094682172408966
0.4342150570709862 0.20270184196041896 0.013975934924985722
0.4275423143410819 0.19464168492078215 -0.045386298196831376
0.4247792290524188 0.2460636578582296 0.06694901679776422
0.5330777354990062 0.19445151774421277 0.01319870038105364
0.4342623175490701 0.21609656089644602 0.010018573634440031
0.4193206190411729 0.2373010255132897 0.021019158444232744
0.42972807335655716 0.2026489529389437 -0.0027633146063550384
0.4105432330546819 0.18283911148262177 -0.022311249935498267
0.37084858212978133 0.12136490196778027 -0.05547357923306606
0.41778278610165387 0.18346162411654632 -0.02626845759661478
0.4486793797276647 0.1928453791448419 -0.06261118280937694
0.4441966210490307 0.20682770387153937 -0.0024827543238927774
0.32597746913444325 0.15981522820462146 0.01625595323000084
0.3043389646310857 0.14436449813305785 -0.006263848363573743
0.4548561134729141 0.2451479860251311 0.11760538035262869
0.3617281816878233 0.16965396045253556 -0.02790340883183262
0.43035756852472673 0.2091287563575861 0.04930360360125974
0.43473081007151393 0.19072470019290222 -0.058889579658654156
0.408518880612462 0.10670998879948002 -0.18645872306078104
0.4882487605474637 0.2456333186483164 0.043128583908384144
0.4197840855408117 0.23235102641862682 -0.010393504273707777
0.4301840400428034 0.2262884440175128 -0.02192950559138751
0.4116014959514871 0.225876987286469 0.033154401655011156
0.41629441867462447 0.2034996165650682 -0.04251337588846127
0.5978631890003641 0.1781749868010536 -0.00039839523275020383
0.40456019996088344 0.20939056926701483 -0.02000305130982838
0.43533383591838515 0.2048552003951727 -0.024065877060436947
0.5120025419836907 0.1843994417506991 -0.06471232888489453
0.4746618982846229 0.2206957541037582 0.0458262309981734
0.3314575278294569 0.15503388381443983 -0.0463749549067245
0.4347873255478305 0.20123434042115207 -0.011276923568985353
0.4067863686332345 0.20154811510417403 -0.01636445102147377
0.5372342171614122 0.2283814024678037 -0.07297189251178793
0.46333457699601865 0.2205732825167388 -0.04798089900106106
0.47081311789736446 0.2729381751132962 0.0458137417879243
0.4479613822198587 0.22181110159166906 -0.01677083202122276
0.4116927280241498 0.18679180606191892 -0.022525237384229513
0.4103369870720144 0.34325401133747846 -0.008184623149929848
0.3782456694257661 0.19487597717306926 0.07913834013662324
0.46664737641270904 0.20510135711411692 0.01010941295052703
0.41058314307552735 0.22103930220785628 0.08846057845161681
0.4357315988886512 0.20129639980008562 -0.028960268724489424
0.4315690892236006 0.20912863743541266 -0.05418714629692545
0.42467007582584415 0.1968254789399566 -0.16061584468474166
0.36964778536145104 0.2065343389048735 -0.12225148007232178
0.371443754751013 0.22358432766060332 -0.02006306133137059
0.3876374870431363 0.11440135712052779 0.030483944126416418
0.4213184005225088 0.210296280531594 0.0036494891082696768
0.4388516648867835 0.19405761367957552 0.00581897278652832
0.5168521720892727 0.30011669525440254 0.05301026884453108
0.39841963988172324 0.1383980250204786 0.05392500214344409
0.5433636831143076 0.2429418176403999 0.03513881092928273
0.3666420251086322 0.10704200435324651 -0.04183958636360785
0.42580991949475333 0.1890154347132409 -0.028667864321676007
0.439558702674816 0.22238583420340774 -0.04109879219737422
0.43445352755101396 0.20795378828833577 -0.003030791803595889
0.48225617687812417 0.22678845537116388 -0.03220277066540689
0.3788356258649799 0.20373428996563803 0.01651502067014121
0.3088832811536264 0.23557988536438756 -0.10843392254909645
0.4389640663122236 0.20392170511999552 -0.01967556684577687
0.4513262874581585 0.21385525552220486 0.0015402704660232303
0.3679630077588172 0.20462361866653112 -0.028361461322504056
0.41239562305388233 0.22048922326179365 0.0042652280386903385
0.46173788407853067 0.21200392014290514 -0.020732679295448975
0.5825230960191874 0.2477166826964492 0.10301292288946229
0.4342691010845954 0.21633444760806242 -0.020598652234042447
