# .PCD v0.7 - Point Cloud Data file format
VERSION .7
FIELDS x y z
SIZE 4 4 4 
TYPE F F F 
COUNT 1 1 1 
WIDTH 796
HEIGHT 1 
VIEWPOINT 0 0 0 1 0 0 0 
POINTS 796
DATA ascii 
0.40853652158222076 0.2077429617700517 -0.058740641113416814
0.4038962247334439 0.19683932822744055 -0.06443460725840566
0.4450124198932883 0.17733543092670345 -0.061877533805784424
0.4954327987604188 0.20973735606290234 -0.003370306310372939
0.46694538186835644 0.21015916871274953 -0.0005380842248285944
0.47810762593417166 0.25490588570852424 0.055615417057268246
0.43720368129953613 0.19939037767758805 0.008043853725951067
0.8029273386382556 0.2270141937419936 0.08462066633234144
0.3939263077389228 0.17725097094330522 -0.009732847037071224
0.44162570607969087 0.22463743147307014 -0.031508464826885074
0.25458776444628484 0.1275876062629635 -0.048345979057202726
0.4410645988258466 0.2098699958806094 0.0006743448797124074
0.4337805230015306 0.19542809062417632 -0.013988424995403648
0.4560276742261351 0.21183895477007297 -0.013544402271335798
0.5384854683447884 0.26908879627467286 0.016348472327820218
0.412702792988199 0.18967704770938099 -0.0057226057920019
0.33022446713420095 0.1519836351817503 -0.03884275035495932
0.4560986219898382 0.21882154534716847 0.07792514458967048
0.43254968688015083 0.19576798899380776 -0.09626443847244559
0.48448739200051705 0.2609429893588242 -0.019460989324670663
0.45959345394118145 0.2821479877293882 0.053080835436460916
0.314635234371309 0.26398837745134074 -0.1990271334464211
0.4884126756701903 0.24116691643004629 0.09425388534236845
0.5223232057695384 0.2588182531012535 -0.040766222501900984
0.4884169880378977 0.23559108133127893 -0.06479387148982596
0.4421502085661473 0.20315669921444623 -0.03712387451500376
0.38437478650334356 0.1908109274555727 -0.12235545001630044
0.37711503976530025 0.19411492433076205 0.0013884328642603805
0.3159406725643237 0.23151659525936452 0.036033675836961265
0.40421634139272555 0.17193706445476664 -0.05250486267107135
0.4212435605566327 0.20102413770842986 0.036795426124896835
0.4019083100374985 0.17910410566969404 0.010220866493114045
0.4269466961970352 0.21327844050830436 -0.012663879877379713
0.4273965995816127 0.1733392194161354 -0.028861230269967564
0.43250930241507035 0.21862228022510521 -0.03986242878947621
0.40058848054266605 0.22289951814482833 -0.036920532682245266
0.4665415224544631 0.222254090379721 0.0052777553046894354
0.434197155350148 0.20632605769668544 -0.04009360833589426
0.46828582044255995 0.23302154451613433 -0.04758389188883427
0.39068920011752084 0.1778876456463081 0.051221958569186654
0.471101282970551 0.21929430605995037 -0.01543807388863172
0.4369171048978444 0.23788970993226144 -0.2631831407609866
0.2871412086402074 0.14824825642666895 -0.014340391945864894
0.4493546239842203 0.14788900781204006 -0.11324145355737869
0.4430115794352787 0.19252459563990953 -0.009321355388124175
0.46153676878270744 0.2411768811628292 0.024437815171552302
0.34096015553922143 0.13421643797042293 -0.13200454786741034
0.39876273471429613 0.1924904773477749 -0.07118237774579939
0.5649684700878481 0.41669165462047886 -0.1034781295261098
0.34652470781992406 0.14810542008298455 -0.034290351730703605
0.46456306462602015 0.23352480260666653 -0.014909028921067602
0.4278555307141687 0.23688486252336816 0.031711196733766656
0.38247259060440797 0.21335737983922343 0.024501032919673094
0.4631296802463112 0.21432138421242541 -0.0008063606641712795
0.49678993353421674 0.2408866261604885 -0.049063550366838626
0.5744125156523125 0.18337308823268472 0.104342978259794
0.44941511373860976 0.2052520274694558 -0.024919744495676355
0.4589795682724116 0.1555136130442918 -0.013390555103455881
0.48584364354178433 0.22308518991030724 -0.01493374498642197
0.4228530694871324 0.17800097994111752 -0.02050647892771451
0.42134178478755757 0.1961153437452765 -0.03727826226955244
0.2769452497662144 0.09711694758439648 -0.05853034043801131
0.48964821697410343 0.25687793299812256 -0.0016001087693666705
0.3846386936225201 0.15632397256732133 0.010808829085192428
0.47991570736124345 0.2320700511613154 0.01137832031632513
0.42172754999606354 0.17109038282220013 0.01713430649974157
0.311310439138623 0.2533015341912943 0.09239586120003196
0.4589314183324973 0.21798423180217696 0.06722172921277547
0.4738359951383586 0.22499159333641217 -0.09206325184862862
0.3719699322421093 0.19091390392699736 -0.0707921915896037
0.38428314098251803 0.16934929709097446 -0.036382250709152686
0.32313809181161446 0.20294191344488866 0.002115444962470292
0.351941026482848 0.15304464806082763 -0.0490035052735891
0.5180174936499213 0.23351538051242926 -0.002435647730649748
0.4550735976064004 0.03551795977851668 -0.09314368367620318
0.4778972174957232 0.20414740527716901 -0.000877668061363579
0.4918736807604489 0.21583154209008626 0.042588855109315205
0.5658431625778917 0.20628608884345567 -0.027382934441433804
0.4319161668792333 0.2553701385396323 0.03791098055449993
0.4121248094687644 0.18444599063658984 -0.04393899505946308
0.22052119190968256 0.07477085584358178 -0.02652498753846544
0.35887685484186704 0.1987875858361292 0.005955575661701573
0.4680561224682833 0.2600163973366989 -0.031224753057557564
0.5025140162633193 0.2551708587892989 0.02350826474972223
0.45102974079546243 0.21429068483773506 0.047007191077995
0.4138014078741037 0.21809088276958732 0.00716186997064483
0.46413137983540764 0.2431853194325413 0.0883418153351414
0.41691189988927135 0.21903859614695875 0.04927466058762775
0.4215632895619592 0.1987156208269596 -0.04247527333981793
0.3586883732517663 0.15788058186495846 -0.03379469752363207
0.37294067717886037 0.17653784790317673 -0.03740363620357812
0.4358961586437431 0.21907201922670083 0.0020387824144165734
0.41945392836046835 0.20903427235228378 -0.04539557212405043
0.4075042803898725 0.1531216071074084 -0.015825092833182453
0.45474310996570466 0.2096381372327869 -0.05025830715020163
0.4258647079218463 0.1966286633283687 -0.0025179164953499367
0.3366198877977524 0.19078251979627225 0.00851059186570069
0.466002720240283 0.20057863739904747 -0.023349489231350162
0.41232520863971445 0.20285329275645836 -0.013063979072057919
0.4477275583127778 0.19747480849065369 -0.04726301781977327
0.6131590567636636 0.21797115852788806 -0.09877963032114678
0.42969705280148673 0.1704798183854308 0.01277772424862178
0.6856503279572053 0.14799108303338926 0.21704955667573245
0.439923616966837 0.23727838398087897 -0.0012611352199201065
0.4118799516745639 0.2386568259535693 0.06175030458437902
0.33237186821239106 0.15625405997261055 -0.011274802054941802
0.4997600645907596 0.1997049589690505 0.026444702175169255
0.43970970538222787 0.22737003297046954 -0.011115781480299347
0.46446623781224616 0.19757398055364206 -0.07071461056641226
0.43825644989121315 0.24006640646027222 0.04315193592017863
0.4286300948557482 0.20392992259945686 -0.028658549466229033
0.8009071899118965 0.19445805906394753 0.33163194434408183
0.3747016240515677 0.16458470996587948 -0.11512097803370125
0.4500853629495225 0.22142658533428516 -0.01597170101319989
0.47110891015452694 0.24951418796031533 0.013865152124964197
0.46334388474704724 0.21039415451744503 -0.011504253054994251
0.4091007515795866 0.19437401951606148 -0.05566782571197848
0.4479597431792115 0.20988700047445263 -0.026698059466426116
0.36331355088512396 0.16433608911590625 0.01649268842481888
0.4342493214003298 0.20424520179497563 -0.04146612469702404
0.4173074499301208 0.2423034325572928 0.00837091497866993
0.4751303744400559 0.18695270529690333 0.041481916017602316
0.43117529289810363 0.2238559923789296 0.022767928550806005
0.48234300886028336 0.23150352977744149 0.01334927546733411
0.4796535575141547 0.20252573499045923 0.049015549399328506
0.4575717361142324 0.22946645355504813 0.009601527074977412
0.6048407932378268 0.252152459528844 0.05594528825372436
0.42335466720936665 0.1441442763010059 -0.06311153838910855
0.454691408006056 0.21561845409917169 -0.045656614967271025
0.41845597360639886 0.0894462496830215 -0.11342534871070598
0.6879006726577472 0.24137794719430872 -0.08824605742437086
0.47766992309882994 0.22209134972737843 -0.0015784820799638055
0.356428770246481 0.17540817144421794 0.1272583395654152
0.5900227224474008 0.21870127636043435 -0.035290382075643834
0.34947633690867974 0.15445423564068506 -0.03605827252309268
0.3326794928355241 0.14162856478542096 -0.003483304081242977
0.4513079686532535 0.17874784215976547 0.18123607739659064
0.5227994603704644 0.29094891926476407 -0.08277573726547871
0.4509072068265141 0.21415746799843305 0.003076309479752126
0.45868329616163805 0.24535623471071233 0.06256696825039398
0.4223301854875956 0.1922228284496441 -0.023641409537717095
0.43065937243378016 0.21696981988347375 -0.07703948328500587
0.48181034438457004 0.2283218090189223 0.003369108172805113
0.4027450891949229 0.192080266526915 -0.04640207584810696
0.5009762753447546 0.2192571007309141 -0.0022850882497493785
0.4382714003003514 0.20515160343148864 -0.02406428388493964
0.38461504743546016 0.15989848927929984 0.007157911587881927
0.5272375015818795 0.2649607276978543 0.0776960519109764
0.4376580605706124 0.12624412633095972 -0.020200396827078748
0.4113768033093379 0.2286816858570262 0.040371833960676895
0.39758689407889847 0.18749158234000163 -0.00881356613525952
0.4228625849620187 0.18186102907563395 -0.04530438339267562
0.45342521391108903 0.19588674069544254 -0.022627797538191885
0.41998792661973994 0.19052575036621988 0.033590761434254546
0.4386172060829665 0.2867353362380527 0.009844148843598077
0.5544437447224482 0.26879841193209586 -0.03775729260189564
0.3373569896662332 0.1861214691754185 0.013029091275342353
0.3638159468202957 0.20960518153040653 -0.0073936226739022
0.39283538319136824 0.18544439394847245 -0.0031456468992985265
0.4402404261816173 0.19070467591018314 0.07172932695473833
0.4567974104066934 0.19461511197566495 0.011453784334108263
0.37833134224143805 0.169757678723073 -0.11270585627190144
0.31925259172828646 0.3097858601936707 -0.2505469849813551
0.3672518710639281 0.16962631443379905 0.007927917115722494
0.5301839938477713 0.22297616159823974 -0.03132793020758129
0.4054426455187752 0.1400693650715823 -0.13760371445707165
0.45994369573259064 0.22454109221604313 0.00955002364196389
0.38926491281506514 0.21283967733280917 0.031022232036903574
0.4004836808353218 0.19695415950758388 -0.038469026935473494
0.43868377682858295 0.20264623273502025 -0.015619347769202818
0.4829238566103129 0.22838958335731263 0.022046190544358524
0.2854215955533732 0.17597137997844925 -0.05627246867535973
0.531051157709328 0.31666831768410475 -0.028166442583682283
0.3328011383497369 0.15486377591935252 -0.05060598815853723
0.41127169887028003 0.14406352703122138 -0.046185887624858424
0.3894076207789112 0.20707740795000973 0.02464515233762654
0.5015679227428791 0.22975770009338703 0.008073247102657888
0.44649694500895976 0.22527391168158317 0.038124866573440386
0.44087935553648094 0.14335009445099445 -0.025644044637260777
0.3663891546052582 0.18931792261517444 -0.059939815772025895
0.4843275665978126 0.2062064319061676 0.042899517723526515
0.4130389784016586 0.20748911919338298 -0.02054925658201512
0.42381039857502856 0.19457661370114465 -0.019911902579323737
0.4638280628255984 0.22056359063296327 -0.0038401887990175965
0.40242291586869783 0.2292279300941118 -0.03022166341568777
0.4447207001176423 0.19624556924507885 -0.01561291462206782
0.4300668307662079 0.20688088409067973 0.01573661034845486
0.3805034712641202 0.1477420054726224 0.041553648000373755
0.42175485007712155 0.2136595976952549 -0.03249215265196881
0.4279873657115161 0.21082955470042464 -0.08179429536025395
0.33004786739562064 0.1284851988445439 0.0036794570224714107
0.44454350041280577 0.21212883674657235 0.00798451138615519
0.45148736910104503 0.17997968760104754 -0.043584989090788895
0.4469986675781854 0.202994403120357 -0.026192127277909094
0.5041006588749042 0.22383634933251528 0.0827130635846629
0.40841375760510346 0.1463831991317761 0.016639671771358167
0.44031114488163325 0.21462386539573686 -0.030730437079867556
0.4412255475178313 0.20440432137988296 -0.013929702490315776
0.4414728120026723 0.2068806649708108 0.005773603802651905
0.42725681733097076 0.2081957708267197 -0.04185514358496789
0.3974290107070715 0.16719590146186647 -0.04422826417651038
0.43463619211115656 0.21653897864385385 -0.01085701715432208
0.46372194300133174 0.2267794193883219 -0.017812161199799448
0.4076695122818137 0.2855510628690183 0.1113407299310154
0.5195666041657603 0.18858478829602632 0.01038262637155185
0.45254972516417524 0.23392703268783066 -0.002843424060728239
0.37973952145966905 0.19175400907167273 0.03583626772308435
0.4614466014680829 0.2283614891486252 -0.03942616084688666
0.4247847612152498 0.2181608119714724 0.008765501240617368
0.42617446644675283 0.20718422972123562 0.019641039178793562
0.43057237155503003 0.1988854114373737 0.020325320064983998
0.4424965561933334 0.20404705640420673 -0.11755273298049929
0.540735981533345 0.18713650634185797 -0.1316121046064893
0.5263327387157233 0.2545300779638353 -0.04820347280575277
1.7813441729781516 -0.584287263086253 0.07873701973358038
0.40450435210931346 0.1814101113290434 0.007494503997733659
0.48710124169386404 0.23790128975593916 0.06114834962806981
0.5500278130066363 0.2564323023551367 0.02683564700916463
0.3946809926141839 0.2205890250563982 -0.06078667249228431
0.4289987659694816 0.23706799192879657 -0.0653902224497358
0.2824745417673 0.13067123935950065 -0.17169266486720858
0.4643811004650047 0.20210428566420546 -0.04901669139539422
0.4488804198027765 0.20467140633246572 0.0031218256786189613
0.5385817585039661 0.23824710579557973 -0.11283061716548559
0.42449454729819536 0.2030132981648194 0.014155074656883926
0.47069714921684636 0.2733849055592117 -0.003172811015900834
0.3715862929822151 0.18167837183359836 0.031045583862862713
0.40865183222175006 0.16796354682338688 -0.0727297979774022
0.3918166927265361 0.11746592436307424 -0.05047518501844195
0.3585645065567462 0.20117943426818385 -0.028471025428103758
0.4493251836222498 0.19706994758790586 0.003242590587490213
0.348885854641253 0.16779278552107257 -0.035465786626161844
0.45049645772985514 0.21602643244258957 -0.017969387864454234
0.49859898430517546 0.14332630755274067 -0.009556870898848047
0.4625154472188342 0.23775638012753575 -0.01119229471916583
0.3393975497236852 0.24796818111059338 -0.005245809376859256
0.34597399803286066 0.2327055250916601 0.09118464367966794
0.39836576888444597 0.2164462376944698 -0.05099693516032744
0.46499672749013143 0.2246753907034389 -0.05311940510999591
0.5412769440380885 0.24153729699190762 0.067409052012394
0.39228645307377974 0.2947569688090539 0.0848387170995295
0.42275592824273645 0.18905278394710479 -0.06969630329157894
0.6004873922180707 0.325817347447412 0.13439439303775202
0.404073052747691 0.2059122859976128 -0.020678949072447494
0.45053639740828544 0.23542672026604805 0.01635384064221057
0.394298407093828 0.20266008309035044 0.05935662224527505
0.456299138262807 0.2186141987003083 0.03777379599722508
0.35096398768163795 0.17903591565291777 0.0173447999742109
0.4014448911366628 0.1774333537515531 -0.003288573037153242
0.4584897237386656 0.21567483405155485 -0.10509234230306674
0.38108272318652325 0.1817521926294603 -0.06783946981956035
0.38069964716862614 0.15285511120055162 0.01366310757467204
0.45967974410953616 0.21088662094902588 0.010787401060895263
0.403048384685178 0.21931707734232475 0.03847196834230715
0.44988559657576843 0.2584173755032566 -0.014669082976325853
0.5031889969519341 0.24200313969393505 0.03534924813450857
0.5078655848638505 0.2542454444829332 -0.02797267850802143
1.2943557497873712 -2.107177412569115 1.4450458701741127
0.45016689300197754 0.23071157287616018 0.06550165051579881
0.42388964997263656 0.1806938162503684 -0.057135581141082525
0.4707254999725876 0.2350959931932266 0.011657749615807234
0.468014136306806 0.2335013040099625 -0.0059140423389152375
0.632549278585202 0.3454958516228288 -0.6964472734711649
0.4171115634131013 0.09586667455903353 -0.22737122546675437
0.5780579081658459 0.12298456056942086 -0.1815919972848974
0.5077012791911386 0.24955580345366002 -0.01793398704209892
0.47431234660069777 0.23966687732897185 -0.03303737220286962
0.5350234110806014 0.22185508419218536 -0.03580382613989741
0.47807943891226046 0.2205552512728275 0.025024132461339832
0.4363841090374194 0.20172871237767254 -0.039165733505598155
0.43719056136399104 0.21887195617483712 -0.017810115257475445
0.42690609573526217 0.21062913367481428 -0.012519471333547472
0.3363970935729981 0.15883612624959653 -0.07753128244623042
0.340153580589174 0.13552952243907157 0.007768733918851467
0.3501696242838932 0.215232944481329 -0.046263482616581086
0.42458171309743875 0.18837941644424916 -0.0554414177024114
0.5066594056119129 0.15899371886939662 -0.1832013566073556
0.36918528120790484 0.18873824358632874 -0.024245683284490838
0.41176552828267177 0.19018617455793674 -0.08511705433022598
0.4227349154702438 0.24044152865887725 -0.05764397915440611
0.5314495662891829 0.2099764713650245 -0.04161176516248588
0.41876767432557926 0.23589877918799118 0.006124596756137635
0.4661719896027705 0.1936136500470127 -0.0327683775336709
0.3822290197095981 0.1564606050991273 -0.03770889861918647
0.42321434119580204 0.20811459676605182 -0.010357097939106552
0.49029423307078446 0.2575835623017184 0.03028493923568476
0.40656377868583604 0.2012639427558156 0.01272267549657613
0.3955533871849468 0.17108376368759082 -0.050650991469069595
0.3704225140020583 0.16657487676977212 -0.007964757714148618
0.37782574409743575 0.19144749695422547 -0.01942172107263218
0.3263411954105777 0.119167470237457 0.05471881502137421
0.5451610329412802 0.27286450531734374 -0.01760447954563915
0.430335719575794 0.22834389750261153 -0.01545473914021045
0.3703925811543911 0.1563274274430313 0.009761671467600763
0.4405287544815337 0.23080524447536277 0.016316886562449895
0.5131592362093329 0.25014817925696775 0.11128891759067017
0.4430284017435895 0.21783351631805203 0.007869765877160262
0.5422543025010498 0.33273479269684003 0.14468297014316533
0.4965507113967931 0.23553017527390807 0.07417709963388575
0.43627873352707525 0.19853508521376284 -0.03443928447116207
0.3949210052033436 0.1434602538981551 -0.0611183263308277
0.407989105529424 0.23806913682984998 -0.020520579912556514
0.45017829108476803 0.305412383963386 0.018618362267389443
0.4158124428469989 0.20865897117307952 0.010690850186932721
0.446847664316266 0.1645943070432594 -0.05186881862069015
0.48786432513259115 0.23566433815088317 -0.07943888368885155
0.4282210081716187 0.19817426354038048 -0.010787866085792075
0.4451270528995792 0.5755673742854981 -0.4051831961936898
0.4492724864535944 0.18883986427906052 0.005580075143313934
0.4789961178582587 0.23507819489854853 0.04372924992418348
0.3631098450478021 0.21674578289449187 -0.002030067590894191
0.45402888784639117 0.25804953704562195 0.05405522372294058
0.26018350982883476 0.26555562845983616 0.166174753362327
0.38347324486380785 0.21195821666432835 -0.012455857932337722
0.4633036190338089 0.22972742866738827 -0.014073098327088474
0.47969653619813357 0.28935484467470474 -0.01884141760882585
0.41767895277664024 0.2144755359291537 -0.05187862925413356
0.43956168143682817 0.1746848885169925 0.00034450732340474133
1.9628579087193998 0.2018191689830644 0.7928182878399781
0.4270568860946753 0.18044711636376576 -0.04863771017025442
0.49600109817723137 0.24746686975255727 -0.036874646440651304
0.36713422326931777 0.15893367184833096 0.03113356925622668
0.4374584934192569 0.23091224893295248 -0.015964015726410707
0.45285414248300526 0.28341899449702623 0.04965742644579052
0.4361391237605119 0.18843482573799974 -0.02062535606071947
0.3562881902008428 0.24559339685748682 -0.06368040028188204
0.5081784552087925 0.27243943778438506 -0.030827269751128483
0.3458468622119426 0.13992418642797588 -0.16794663648292385
0.44982654389258414 0.19186659801185613 -0.025483929469274358
0.4421754338708297 0.20215212451067543 -0.06232565318484262
0.4228883915970414 0.2338154134824748 -0.1372265657232674
0.38851456000162443 0.2082415623528533 -0.0005927925622160046
0.40650047974102677 0.19365515193072724 0.0712965832586292
0.43774278981743464 0.20284988895761558 -0.004925833275578384
0.35834357000663886 0.23978609689447694 -0.03330535938536627
0.42565707071378256 0.1840406681568254 -0.00831903172041848
0.43347985271941525 0.24685212142136947 0.0176006900080381
0.43920007495128743 0.23760752802837715 0.14370081058049777
0.3689115218679717 0.16011082487416672 -0.013751016078145994
0.6335886284974777 0.34834064394175357 -0.1165907639692989
0.42448154142846306 0.20601128197499463 -0.0227878834170383
0.4497811377756875 0.1995298893368158 -0.06167206179648588
0.4920219344226098 0.21914507809319161 -0.036389966372183835
0.38658363518734973 0.18201453723993666 -0.0528865081617198
0.37720479340472934 0.1436095155752639 0.0040029762109838884
0.41911294414367717 0.1937185232960701 -0.017729806087828592
0.32523054714582145 0.1733042578110826 0.014356029650372193
0.5610799311058372 0.06948481688107222 0.03269801538135653
0.41826446857700716 0.18620357003548804 -0.01862213359166276
0.4182412989948716 0.23018343576208622 -0.0823733128468973
0.41849792758645776 0.20047567053163107 -0.09275300136204123
0.4314136897660319 0.17291515482988018 -0.004517229911755294
0.4154947497757462 0.19552425268616958 -0.044678535697102006
0.5505155514120474 0.28608957075854846 0.07976985839970041
0.41084039404734085 0.19816683973047589 0.02290373445217142
0.39230029904743446 0.20443896981343812 0.0030561811477411993
0.407436138724222 0.23137706588565266 -0.03585243482535816
0.3967549304688589 0.20046725387896913 -0.0007208751805904967
0.4891491371241159 0.278657546626107 -0.023267018150050944
0.46250011050690887 0.21632531564520718 0.07304331284163368
0.558928606050074 0.24635027935349285 -0.05922672929537498
0.4623490348196242 0.2775308022645788 0.018714029464689474
0.3211539543673325 0.15122137319944784 -0.04385539527871174
0.2600341362263805 0.2419548189594991 0.010293656052581923
0.36291594598790766 0.18286143745450545 -0.1029605442842012
0.4514819361806417 0.20184427268600302 -0.019787271953290997
0.5313898407026443 0.23007030231769932 -0.015346206700669995
0.526556277975601 0.2036773166088608 -0.029416085919621082
0.5106706851701119 0.27313662147825823 -0.04647026270586707
0.3949123099910139 0.17299190462563274 0.024834232177880722
0.4580263200649881 0.24677668911473916 -0.02920654442446846
0.5251275790134287 0.09485540664357472 0.27071806164154566
0.43209536212796706 0.20185298161217702 -0.0320246441495442
0.4185886951883049 0.2091737745850537 -0.006202321863568727
0.4347799576599698 0.21259803205558114 -0.008715295709350812
0.3723160539589969 0.24039888898509787 -0.00049820340286999
0.4606986056992639 0.2333773364082674 -0.03377409605572268
0.5092327385839894 0.25883399884152425 -0.03674859864449331
0.4669581567040382 0.21902383408556148 0.003655411386517926
0.49692270533898864 0.270177769155481 -0.017879019584057687
0.5067839383761736 0.2334118118907611 -0.01155695868443729
0.5578979797518002 0.2912647826002228 0.03181525630593285
0.449225217944786 0.21694027844674224 0.018050847059356556
0.37179003213068995 0.2969706617544716 0.026931924837953147
0.4371070198593827 0.22863824219408002 -0.007392277515236856
0.43348809223007834 0.16708580427146558 0.006690717592590545
0.39950026805473726 0.1962156405342057 -0.03302297393670983
0.44237847217880244 0.21154946511020967 0.006781522637638204
0.546440164187942 0.2095431756384869 -0.00692301054901634
0.44224475374147687 0.21756074837854555 -0.07874958261393772
0.41570055136756423 0.21405715398765324 -0.047565421809366626
0.40955394222814334 0.16705033400015168 0.07557098446139321
0.40871085442944377 0.22253694510955313 -0.06912223236588488
0.4516510423334523 0.20924170978985046 -0.04754019182587399
0.5139734020308424 0.2573648956566785 0.0048141965648653695
0.40279366634717917 0.1978484579703803 0.006317281594334645
0.382412243882186 0.22479057661628588 -0.027275721718439172
0.41522777836678415 0.17508197972706796 -0.02038022128201078
0.5278063766027117 0.2325664569411856 -0.02132376363726962
0.43229313474074615 0.22101777659169386 -0.03307919457675723
0.44304314286844715 0.21582716999611762 -0.019356643302302246
0.37316720128913516 0.16228462762060758 0.041075098194539805
0.5035167130021136 0.24407939240781218 -0.029019091323561952
0.4284385870317635 0.1939141258783934 -0.005951799100955668
0.39345776705644653 0.18229583407678263 -0.02214933369816663
0.5033938607193136 0.14674211577360552 -0.024734710483528488
1.2811843030341095 0.3982004434330122 -0.7507855972333743
0.38383430145557895 0.19995015570620467 -0.1187323278911947
0.4350143770432169 0.20387920581113406 -0.03388161990071126
0.4895801293266686 0.2658874903110444 0.06443198956037577
0.4659561762263422 0.2656880007825322 -0.0776774361940511
0.45558458735678187 0.2340463687397687 -0.0404679458745818
0.4561536240127566 0.21634546320979098 -0.06289371498631624
0.3840344665628379 0.21988311811008998 -0.06204182432313132
0.4189801801555859 0.19552519315240602 -0.1037492783387961
0.5179628021163865 0.19195786624221967 -0.09965501746995642
0.4587341647944072 0.22429478590619567 -0.03426885167704086
0.4236890606251791 0.18433634514120456 -0.06474252677095649
0.4408450061358451 0.1992626659301493 -0.07931653154429341
0.42632718627547206 0.16731408297536632 -0.036216218554415036
0.3669674400809697 0.1910484179569778 0.022644414847491134
0.3987706668161195 0.17632308442995281 -0.00965596936350721
0.4618162638816159 0.24389504696807762 -0.032462794142006146
0.53737356488449 0.2970506652911524 0.0036702268207875477
0.40135962435846295 0.20678855013942155 -0.006369615573035503
0.5137248001460648 0.2563305234513962 -0.06442457824894632
0.41855174120209426 0.2123107622005307 0.07834859224925594
0.3649055605184799 0.18847047236440062 -0.026152192430657806
0.4465528708350348 0.23109688771013737 0.007322048032335715
0.4515273804903188 0.24018607674324244 -0.001009249296089365
0.36788067033006655 0.14810520391040427 -0.010497529309219544
0.4348072743648004 0.16591610724199768 -0.0012642399102986701
0.3783328468951481 0.17366423980654133 0.019500367761366988
0.44834225401226036 0.23089530417803417 -0.017413055725242543
0.39521034150649825 0.17591448358048467 -0.018166474290410406
0.4557225133955001 0.15147816232587274 0.035138836577488064
0.46550800460684627 0.21395672932607113 0.0036644414807369685
0.4281562385504003 0.19500519646351222 0.02050765951031508
0.45399759915784443 0.2229550797080151 0.05994639632081089
0.39879537753850514 0.17838801570189844 -0.04801797152811105
0.5084139277203121 0.24509083802146847 -0.04281607225949813
0.4655226323467616 0.24635214664922955 0.017013848701765255
0.4049048804103279 0.15449282977837697 -0.05434912029167549
0.424250964341212 0.17847305084305276 -0.08971041982673
0.4880566237703192 0.26857556909371283 -0.05784588231551879
0.4728999763139825 0.2408040717351696 -0.009665398598968977
0.41507043581793823 0.23448616714060222 0.0064480099253643175
0.42251782764137147 0.2048136634414135 0.007925227412769686
0.45624647867362 0.24628472090124376 0.07096442705149286
0.49606411707472375 0.2138886743461228 -0.05364133176065877
0.2527988669877175 -0.12346836071145617 0.08469793978693474
0.3373322873869995 0.18719974478196377 0.08034658525281202
0.45759953247380736 0.2446578373843522 -0.018183872321856143
0.4433270885352556 0.21947731096629752 0.04486504054719376
0.3897070376297336 0.24033455372463663 -0.06734356465545943
0.5962793704840124 0.24976870427497033 -0.1303439710124792
0.43206129774958413 0.20082812672555406 0.033624456839987715
0.41342071879191167 0.21727112101478951 0.008950090443363479
0.382391466238289 0.18235868101062636 -0.0017595038610664915
0.46254605180899944 0.23454488365638326 0.019696889522279548
0.3832450520263819 0.19951486585613054 -0.09960577480958932
0.4205737719684919 0.17120413115480915 -0.08993978574082462
0.4421373628206311 0.19240475157346282 -0.0694235059912387
0.4081671417228563 0.18240956709698253 -0.0027607032262721987
0.35063036206057063 0.1854171252989829 0.00591537924020713
0.5158458332487328 0.23988014733306784 -0.08519813834200818
0.37954687153504096 0.18913491769413326 0.006585717831825377
0.34139495682757115 0.1429033229326251 -0.02254537200883533
0.40276714121250734 0.17480476150356594 -0.04644214854781126
0.5551523309907509 0.28134416279101515 -0.05050685878894967
0.35345181366957945 0.19650467004477434 0.028347013460958692
0.46140987928427535 0.17637197921297343 -0.01758318879146259
0.46586386748376185 0.2200170092470728 0.004583761828399702
0.43890754747289407 0.20817650283339617 0.025871575331279928
0.45613670760863556 0.1827873716721058 -0.04359673152973187
0.47822907234967715 0.2192794038092245 0.034659487859840965
0.41231429608129133 0.23481239857478897 0.0631873392765101
0.8532553072128621 0.19956135513925233 -0.23181824380336025
0.4585500292119491 0.27171716381036504 -0.0035182248854539466
0.333114751778794 0.15304647202430033 -0.05318599672884261
0.4708355247686029 0.2221698210740044 -0.022827155301996527
0.42784263152074686 0.1857179413869261 -0.03867913144583213
0.3943718594576353 0.21337975179048385 -0.0031437525745161565
0.46724300710019406 0.20845584644115434 -0.07337182261092323
0.3801253450976958 0.17529733336786535 -0.0037933383455737157
0.45020567367646436 0.17254752185186817 -0.007325297767408756
0.39427121593564607 0.18729039753938537 -0.011966515672980904
0.3907688345273641 0.18189032675337558 -0.08464514688992608
0.4707413728339134 0.1815091604756276 -0.02474080551999691
0.4431303943100886 0.2315697232517664 0.022903639709568324
0.3616719489511979 0.08958447944186787 -0.0916606976170442
0.5044274993792328 0.2714314965559481 -0.052669720466880676
0.45977246306421193 0.12885762238511234 -0.045360774011058425
0.5077676066887591 0.2583313042193822 -0.00957353922987636
0.4293602389005855 0.20536381606252974 0.04846081149253223
0.6904036164445131 0.33750292873824606 -0.033329159142937215
0.4155590052070579 0.2227741533845915 0.09455927268470532
0.45969521440432004 0.19649449026653087 -0.021362189394324105
0.35102285675000644 0.16890006196024387 -0.04000145893994045
0.33370224193831177 0.1536557219292689 0.08006828151169998
0.40153421425068814 0.22802475475086226 -0.03916695425462535
0.357760462105972 0.19166860640045513 -0.030834513788505546
0.38129247629737506 0.25579099828593144 0.14474598404208905
0.45978010392141755 0.2281365534309856 0.08797870281395603
0.35016458063469713 0.16782250716285319 0.037698388064029587
0.5053362346924644 0.22164913973378475 -0.11641681603013865
0.4689379623246168 0.27245952237838367 0.04351858817821608
0.44474302988837167 0.23010051306061996 0.011893632445122648
0.43294117156685274 0.17737219101979917 -0.08059689839920736
0.39699750645624476 0.23258287753579054 -0.046014193787101476
0.41623563358010074 0.19198361462593994 0.0018542052405621234
0.4874435290254553 0.2254438285148126 -0.05774309248377563
0.5365739497173934 0.24789531781956953 -0.003876117681571145
0.44965689940082143 0.20845818637944546 -0.0053396097239897244
0.48828887074409977 0.2758973934896005 0.06846163101150182
0.4582443488291972 0.2074100965936907 0.12419622645506934
0.4292708258908249 0.2660038918147052 0.03244624068783253
0.44985309243313054 0.23457099407217186 0.011690895668664325
0.470999164660185 0.21533849572995223 0.09424171032932804
0.40055173042193815 0.11845934232243849 -0.005253417538639837
0.39200720867606265 0.1963900067379427 -0.0573044871726438
0.3425645426956976 0.0695405392946924 -0.1298126956850183
0.42196531071192567 0.2186370844933947 -0.023478703177133298
0.45507121054924937 0.21232931280692924 0.008901436788619321
0.4671816523759844 0.23410857981029665 0.03694174821421825
0.44329541939816863 0.18951684387775458 -0.04873498421785882
0.3908350742086384 0.18394065019563755 -0.04405834809203668
0.4713778054494071 0.23139535266810185 0.055463096307661885
0.42190042352774526 0.2093421540306224 -0.02046802774160028
0.40948441543625336 0.20820930732514853 -0.02091007309888937
0.4323020876581154 0.2026667424530615 0.0049602706309883615
0.28318759051683173 0.33208507823553646 0.03878492486128948
0.4367580485551059 0.20801318865352414 -0.009725537788511929
0.5083148500652612 0.2244120669392089 -0.02524604240382189
0.39348158263814526 0.1498316456672768 -0.07893078218256733
0.2359619823713217 0.19469264705054456 -0.14770367664075934
0.4279601402741662 0.20140139416173497 -0.029236727577952593
0.5296652958463426 0.1494720953303954 -0.07354779090465513
0.4330415446923723 0.1875130238552174 -0.0526561081493071
0.4674725570455962 0.24479414173629266 -0.003668860456514267
0.44159037789074773 0.18851995848677916 -0.09360532195611881
0.5398746641051275 0.3296415656106717 0.039806094303372674
0.4352883489860062 0.22834557502791597 -0.07999151912777336
0.49970366205727146 0.240128023580354 -0.016213050479535696
0.48357184821338706 0.2263990978870396 -0.006725815012913472
0.3853712915155256 0.2077162032908575 0.022102123784264904
0.4239840218717461 0.18150860917540967 -0.09028414517355543
0.3389246606736833 0.1346898964701495 0.0009260014526830673
0.4290759674020421 0.1991441030610872 -0.003570491817498578
0.4194755959500185 0.18732846302810913 0.005854566583110454
0.5030679538075162 0.24589360036382857 0.08554179570640486
0.4465758882039381 0.20159377322116256 -0.02620521516857366
0.40657418279809576 0.18562241153830428 -0.0009400931333090057
0.5040389931769482 0.2091575301469959 -0.05990985051423081
0.563524739670811 0.26548101581258265 0.01901964675479917
0.47114609255041273 0.2140918335962425 -0.1134743445008155
0.41338315568029316 0.08420026250718138 -0.09249922212019612
0.4612520358716665 0.2220228232295085 0.040133085625797094
0.4084373307063913 0.21565021260352069 -0.006380714094532891
0.44104408087613933 0.18781478688988784 -0.007928442444153916
0.4502022482174084 0.2369522964746409 0.054191940328308874
0.4019996206228882 0.14113268896684872 -0.029200778204469202
0.42708611612255254 0.18407906805028063 -0.013470811037933572
0.3011914066748318 0.1221827558297548 -0.0357317060023945
0.4445641957094324 0.2270792547380296 -0.0002688751979889048
0.4662388444000385 0.21542549747618978 -0.05081576460008819
0.4764808790089603 0.24466745495321618 0.05422683762834879
0.6193940858736084 0.41258789721695166 0.0663565476121164
0.3351456508327999 0.16595415126096213 -0.0733303407428707
0.34970572580633075 0.1884665963949601 0.12282090168719151
0.31652815754796393 0.1434810836509257 -0.049232363606193985
0.45946653937375004 0.1894972440729248 -0.010213385065725333
0.5276088391126166 0.25142330856698436 -0.012447632354366078
0.43442594668147194 0.22079924496163983 -0.01714469118685713
0.4836479448087232 0.2448804857764344 -0.0004551286833418544
0.470081226979687 0.17622675901820628 -0.07099358565085367
0.2982889911461939 0.12133559635302049 0.0844093052292294
0.45311603206363316 0.2199835436242097 -0.045075523510405446
0.46581391775703196 0.21086518544929334 0.0025831489512029293
0.3959989100125938 0.20998208644590477 -0.01003172179545686
0.42696552027538814 0.1661526445914916 -0.11313550154022778
0.4551361729990617 0.24425221817480747 0.04974255291537588
0.4804007958044565 0.23851674125501177 -0.021292735904125948
0.40661221619188836 0.19002550379366312 -0.07896882899258628
0.4330046158093239 0.18057368039016808 -0.024144846877675263
0.5095764666115485 0.23493479742427326 -0.12656492618528148
0.45594065875499723 0.22478131011177993 0.10364531712407654
0.41070217288717004 0.21473207030363994 -0.16570242050578088
0.33928173582023646 0.1370409465336877 0.0013259435786778795
0.43364108165761195 0.1871866412025156 -0.020696932107739485
0.346978557779579 0.1864654741158489 0.0025209351212254205
0.4180408932063244 0.17226188674491993 0.11999590462230003
0.4171635245095615 0.23189183291943039 0.12004357338130944
0.34801513945964757 0.16384558499922264 -0.04306490819259068
0.36678785008808745 0.14252880541489787 0.009988354023619195
0.4599559541335907 0.256904112458443 0.019820978853175575
0.4399344069386757 0.24469352944697675 0.012706729447188536
1.495943021964166 -0.07376258725611251 0.5407962315781845
0.3837340398841036 0.1522897761765023 -0.046844176538058946
0.3745789482885016 0.21147961446007457 0.021511559387363377
0.42607690451634994 0.19778874614196695 -0.05380490694911089
0.38644702836688793 0.22035713950694458 0.010317210491692208
0.42951563660128045 0.19791110028543812 -0.008892009924721833
0.35503625884464896 0.17232239508210512 -0.03010391234337817
0.4275819975090087 0.23538774238244287 0.025537819073576884
0.3651901000774558 0.1363543704069059 -0.04830296430564829
0.40018338461112535 0.1785316346150978 -0.046632211219304054
0.40368354387845784 0.20732362554301176 -0.011937237299719072
0.4121071280994215 0.19182513867227158 0.006839448951453164
0.7497950363792256 0.2905943339026038 0.1239756945333852
0.41214075162102404 0.17420226297603847 -0.0714911668659397
0.41360082974196644 0.22810526442721368 -0.010811458683804176
0.46263408240969284 0.18052651120464702 0.04683699882372139
0.43927538697698765 0.17845347988631488 -0.12246745207022514
0.3649220671214266 0.17718789070383423 0.09367022281796267
0.40953694352757 0.1955385981647595 0.007591317526760122
0.44834893299187684 0.21476299122215892 -0.014605866044973936
0.39012065865449586 0.16140545462044997 -0.016445072648849646
0.4793248140448725 0.2470536262368057 0.0960754341674317
0.40752507134712346 0.17988193753771498 -0.0359061015834925
0.4650867311840159 0.18100992102665714 -0.00868546047900054
0.427084019414508 0.20892644359302892 -0.018187258854496235
0.4207130608975831 0.19187978199497024 -0.08404714160758431
0.4516364636452579 0.2250531377700895 0.027164492936094575
0.35658542061261755 0.3454466161768579 0.11984547332315287
0.40224334902353576 0.1915849649087562 -0.010379082654495164
0.5434234530723359 0.22731245237812914 -0.050538347184186705
0.4321822929449297 0.2367216226738691 0.0011652108161968044
0.3301880295474291 0.18447825672291174 0.02307189007601096
0.3808255104438558 0.2309780389460201 -0.020765132842839762
0.4577811701787766 0.2047839963020408 -0.00988963873078319
0.38901444777840766 0.16068217781827343 -0.08834553997689909
0.4286792806666142 0.19764711303156446 0.03380160663304821
0.5096536214826983 0.19506877268767653 -0.013604419885723473
0.42235211864408484 0.18272117308552538 -0.055145851294383874
0.45548431937351097 0.17644286143143972 0.031002824395812922
0.546524235870919 0.181808368531577 0.12407569253187489
0.41617674656501435 0.24904296112731572 -0.05386204853687104
0.41365091904617657 0.17957748771944182 -0.05840042876663176
0.4179121186447503 0.22144712432120173 -0.0009041748055835797
0.5397062160852784 0.24493993946454395 0.027996405585014372
0.36993915344984885 0.17511373827299792 0.03734727531110593
0.4416115883168743 0.1884164562446955 -0.04238235978220928
0.33298753563553873 0.1377500659291968 -0.07364627686560254
0.4873021239595232 0.2269072076850307 -0.026434599238598366
0.4694747610723766 0.22490395382644124 0.07044218836628602
0.45817467880104346 0.24936313491591022 0.0888752574569196
0.19908098074853342 0.14505722031847768 -0.05508539650321609
0.4194238255588232 0.19076082574258635 -0.008276548178741905
0.49084413114161407 0.22913902019124066 0.04752729013287649
0.4406369934263523 0.19595511802336318 -0.022570869303592644
0.4381250347303478 0.2178839945752884 0.050431110389183686
0.4410775750381788 0.2091614777074824 -0.010155611873358339
0.48347635484674356 0.2480139672885997 -0.054129624666671816
0.45176054208704386 0.21974571077643645 -0.003954632859802132
0.4756114308451913 0.2290201921966144 -0.0611065746403483
0.40706565037075393 0.2266466381330332 -0.07648011836292312
0.4450380901483868 0.17079018143601843 0.006180906320409463
0.436235293089851 0.2028687477911717 -0.08138782017752533
0.37717923066202275 0.18998249627230734 0.018836425966270554
0.653090045413137 0.2531707093874047 0.03949849181026366
0.4937118986214557 0.25053073887403343 0.032996762950830316
0.4187561002471796 0.17429188456662814 -0.05462624385403103
0.3964479604562712 0.1779948534998823 4.964739943602581e-05
0.42604006850524456 0.22354378451484536 -0.008209472240253035
0.4748517096150522 0.23256713298485465 0.019917185165780893
0.44809455232461914 0.22202480162781058 0.024481647498191705
0.4621735964388449 0.2267155633415996 0.10922666263815017
0.4769717802689968 0.2503318287657663 0.02277684655970802
0.6583210102911607 0.19951421410323178 -0.14162197068691285
0.42783322974921134 0.20484335429691214 -0.020194130293575085
0.39423403577649196 0.18024630624242377 -0.09036001471639565
0.33684721430250875 0.1465608003523755 -0.014670975076825243
0.2515735515352162 0.19361150696585128 -0.0352589819108573
0.4902084329395393 0.24038522168578424 -0.051003888119339535
0.4785966551388867 0.24046011657682698 0.018623779748537572
0.38798086417742184 0.1920778917421444 0.021217325828999378
0.4312645031187401 0.20485168469988935 -0.005064148878304309
0.46997395060631675 0.24673453557929292 0.020429088245435878
0.4879946814973266 0.23534009687030277 0.011698994134235363
0.41179081461115175 0.1927853804343158 -0.06207445388297117
0.35837677095238973 0.11520759655127222 -0.0872404038183845
0.4459477202583457 0.2363940138294538 -0.0015049097044652626
0.5268652797200275 0.19099724173699428 0.006994759689575858
0.3786168051237553 0.11263109028286067 -0.13019697760623217
0.33453506571976277 0.1494210427684095 0.024846735307988865
0.41057148571394464 0.19661423165118208 -0.12899666554885414
0.5358506123197628 0.2288686281261363 -0.04825483802346753
-0.7192576313196923 -0.22628022106351864 0.45476556931535583
0.4253401362263389 0.21361961464859291 -0.0028960824436694566
0.4476211879722314 0.2133735484171666 0.044396006172377156
0.3057222215996376 0.22567314607674405 -0.024989931986723946
0.46992186688930815 0.20071906023508745 0.03826119085070445
0.4187545773115744 0.15181389455827343 -0.1435869192344228
0.47707493763581965 0.19605526033316778 -0.07489601743205299
0.3916593094620566 0.1575258886439599 -0.03863309154357353
0.38776548185586535 0.21568274561471412 0.017736202432487858
0.4985879307992036 0.27245046284828334 0.1717353715809793
0.40678886246172397 0.1826358319898702 -0.015354215197575627
0.38649672966658954 0.2171479255163149 -0.13511760112854176
0.3808237065020421 0.20008942907361416 0.05637519774273869
0.4972192461362397 0.23578841143924478 0.01191985188032163
0.6510259478559419 0.20747435546859094 -0.495484768761699
-3.9238575115899152 -1.2215138081616885 9.723040477192683
0.5236627522522781 0.25302955882516187 0.054992178585024476
0.40538144922106767 0.15466456943931917 -0.06490201843595855
0.3502359975887259 0.15357532446817856 -0.09890483581909848
0.37418279447408054 0.18262315439051235 0.010318987070064622
0.4400570255932621 0.15972802197788383 -0.004988069179688637
0.3861898514039126 0.16801856159435147 -0.03644812995240443
0.48236034369023173 0.25400095079757534 0.03970566733136138
0.4070274173596147 0.19854073554277818 -0.0014132224251852676
0.5230881441033546 0.28732392248450367 -0.20464390114771902
0.42555969915542846 0.24174333861350306 0.03577397516571068
0.3786875712105484 0.21549256499227454 -0.019039563674255078
0.42986352847910325 0.17863999774311878 -0.018771677909626305
0.4295801220150963 0.2612597719059977 0.005644714649150728
0.4357854825219363 0.2013194559613396 -0.024378008965044273
0.3622307624313805 0.20631786386837803 -0.058201042360011
0.4707404980433978 0.24818808617740729 -0.02145511419757895
0.37312386809679765 0.19493192497245104 -0.19847170212499066
0.47303323267129826 0.24616970374373182 0.07454456949443511
0.5127282291963979 0.22363488590517022 0.02506201233583738
0.569382737970983 0.1670833586502738 -0.3641770459816627
0.4972431258964889 0.2587091015203953 0.012562387899350824
0.42708295154417897 0.1944506905582557 0.006618799951013443
0.4745893077617609 0.22082561105780485 0.022570433740142448
0.4084480858988684 0.1802607946075483 -0.09712547405059979
0.35059005535859455 0.1742605853527266 0.018782105313675856
0.3871293118236281 0.16415572509049525 -0.03557697170994345
0.33492595843895856 0.18127347635591207 -0.03896349716598024
0.38905498527230975 0.20391764339714769 0.0031351379451365347
0.43285197178744284 0.20985264194831643 -0.011951909090143431
0.5318932063894408 0.3576576328177907 0.08447475125052506
0.4962332412875696 0.25110575842246874 0.01853982429190637
0.40798497079484264 0.2060958843437959 -0.1940700668238975
0.3986983169276357 0.19192075174021284 -0.015447506822312107
0.27349945363235406 0.14332957948792568 0.025013281595761327
0.47989125372598096 0.19672083984352184 -0.008032678468012477
0.4891129262714742 0.17605358789120373 -0.08945870267683631
0.49689425341591686 0.22642780390998496 -0.09622043173411043
0.5364389028995902 0.21579889524184637 0.04542407476878907
0.4737852933987483 0.2318655119614732 0.03699851546664945
0.4283757232109906 0.22203853466946555 -0.013978996646017094
0.44621674240045195 0.22320597918752583 0.008760741998941057
0.2729623714571119 0.1356781310090014 0.03056188551212813
0.3915812358490314 0.18365272686588696 -0.0023158833665490874
0.4615359116428408 0.23520423243621735 0.006333548274653822
0.42080195314542834 0.20807498396476376 -0.008959084270458106
0.4673204912441804 0.2395191187644059 -0.07927349286163121
0.481037972690217 0.2121252310317061 -0.017056237578032096
0.43729795460137666 0.26884177490462946 0.021034167206209986
0.4237263119733541 0.1973459254882357 -0.04067424067167735
0.460027981390823 0.27202961473847154 0.10580114384077888
0.3563183282903424 0.14737548114860033 -0.05055353122975248
0.5797226711061683 0.26842074443693775 -0.030157901144349353
0.4943565453624501 0.20730093592990784 -0.04921122359340302
0.5040325304395026 0.25204209692591917 0.005039126936580374
0.3095750264588162 0.17699586469757378 -0.144502382319331
0.4204623078563543 0.19796295080695359 0.031002909556534064
0.4449959697644488 0.23030342289558803 -0.06097898767112042
0.45806943251187704 0.22609922711708919 0.0538652141767102
0.4380984872209126 0.22045922565634157 0.052641792841171764
0.40506516009148186 0.18469199570733963 -0.015489247261513128
0.36567481722707385 0.1854013510679522 0.02067989239863266
0.5219430207540654 0.24027005784624578 0.028356041512637375
0.4479392289514408 0.2085805559045184 -0.031619595667876865
0.43538244664586045 0.22323934260754186 -0.01019631385605635
0.48408333442927187 0.17933924505159382 0.0016001971458905473
0.43914519981481703 0.20075984178606632 0.0038611336460974144
0.5015553498137706 0.23552376222764337 -0.06133903789427109
0.5045680933750987 0.2513980182487785 0.00500007892091503
0.5926099432298031 0.2809246869614981 0.10582016922435855
0.5035838178949632 0.27953278033245965 -0.017099217898447705
0.40119871571153 0.1721293902455301 -0.11395172847453239
0.3984038200123621 0.1974852218000649 0.052065349885197065
0.4370259535556329 0.1935259959745821 -0.05760304285938389
0.5417929682958516 0.21336941776900176 -0.040530592133421806
0.42839504093223013 0.20546859118186944 0.022365174445099
0.47539877343419334 0.17950647202295045 0.02299744918536817
0.32377642251174166 0.1325480541038928 0.024229056203665778
0.3662339722775414 0.18002349991138544 0.007655888801906485
0.4242711970412927 0.2040479718343846 -0.05952361243741677
0.3934385645154066 0.20427032090677244 0.043558666353675335
0.47203205683555893 0.23431674666971958 0.12499750682174238
0.2609960933025377 0.12431395212780671 -0.17558864985139166
0.32412621254860596 0.14528667151678576 0.049198760090177984
0.388838198498604 0.17085354517793405 -0.11391762985532239
0.5106416710280826 0.24404173772489912 -0.004596546260955847
0.35611587928028143 0.16242655651853966 0.07337015439037486
1.1372742197364119 0.32823631610732207 0.24463997598621745
0.44137626492849336 0.19390429630686867 -0.00013763240463049442
0.29119616717756003 0.1969018217637597 -0.2858504361448695
0.4451588294315627 0.18682461061113997 -0.14976107104332925
0.4203489236410576 0.2228771986809619 0.05776666923532048
0.41158872248286116 0.1609702425537165 -0.11719062050761408
