# .PCD v0.7 - Point Cloud Data file format
VERSION .7
FIELDS x y z
SIZE 4 4 4 
TYPE F F F 
COUNT 1 1 1 
WIDTH 796
HEIGHT 1 
VIEWPOINT 0 0 0 1 0 0 0 
POINTS 796
DATA ascii 
0.5399333139709483 0.08275279277285108 0.06850989927011142
0.37775490136090184 0.13921277827523681 -0.1504232682293889
0.4893795085384198 0.21928544867677147 -0.044007744558030026
0.28990127974367397 0.17865553435564152 -0.02542708075722544
0.362668662421882 0.20555375668021725 0.05966589957769486
0.4347381393487382 0.23383892472668322 0.04593264675031605
0.5039088235138536 0.2577859552023227 0.03128801937231174
0.42842354360494994 0.19973021261697 0.03261844313371398
0.5116875059820387 0.20533994151813317 -0.026864395072479397
0.4627331586656709 0.21386286510471564 9.620283236699834e-06
0.348714601897953 0.039801115863980385 0.0444381056851455
0.47281091993437485 0.20506082504707024 -0.040891762043358426
0.30691463787795215 0.13174247123876626 -0.06719090908458725
0.3955701964634244 0.15360814208729323 0.034693473540926334
0.37086256247803817 0.16458549558515756 0.03161876372860206
0.3570683157613672 0.18913562627041358 -0.07176063735366256
0.45259296344931954 0.2220560799310647 -0.00441190494956345
0.4398393527003748 0.2102990052242717 -0.015963137399111815
0.45821350479710077 0.19364472185998238 0.03783355273466782
0.38996076695468673 0.17541026209042343 -0.03318863822138951
0.4883304164430484 0.22876329339348445 -0.05406707750422868
0.4144613262202199 0.1889077011822593 -0.024873992169318626
0.39366986950513194 0.21798413078202827 -0.1996986605639961
0.42252068331967507 0.19318082917624224 -0.07786736938908234
0.42888620415571665 0.23214068725150128 0.03820851267354897
0.4605746233656589 0.22199792539592522 -0.04234729640451462
0.43419432279306136 0.23149784444159138 0.009261979906824536
0.3989713125652372 0.22330231438557746 -0.07250733772181661
0.43040325648932765 0.22221851447881136 -0.021747016918084228
0.4218124580554843 0.23303447450112458 -0.024795686603496847
0.3630486362323495 0.19786063762309425 -0.048201635924712605
0.4183955656030207 0.19767948559686488 -0.02259329789811204
0.41930222565481756 0.2076475331872416 0.03463014017243893
0.40100000576681794 0.17990516135409962 0.01557680938421413
0.5103961512840698 0.2380764124472421 -0.03851124544043216
0.4073220961386568 0.17349325336761012 -0.12301062691958009
0.49176757299342455 0.26251492862175496 0.08752110904465837
0.4142487265315964 0.23605746311253029 -0.12532991866629573
0.4721512982495284 0.23269890194198695 -0.015993418347392208
0.5542956369101262 0.03884123960932584 0.22021043982981325
0.38265180624780726 0.22903800522476558 -0.028075965427618144
0.44533353177438073 0.2291344822928636 -0.008159595345119897
0.44385834678429603 0.28420845110397863 0.15379679417503667
0.33232596882282905 0.260402923778031 -0.08106247788410315
0.40865077775717396 0.20062895583842533 0.020864772868208092
0.5212568509147104 0.2846151222717026 -0.02425453837315672
0.48584613923272 0.21920632794271455 0.017159414705702147
0.4908658069805938 0.27480992582988506 -0.022132111757656503
0.4849448355565471 0.24386234125300632 -0.05479334009373815
0.3987250249972618 0.17522441593979465 0.017706613680161354
0.15549319746730816 -0.0391599496913102 -0.3649776557527957
0.46516322012710987 0.23844561721394086 0.06591432193356184
0.38925097558153254 0.21709872310003675 -0.10548624539651996
0.4604953872519957 0.19886708379223705 -0.0496753915830368
0.38360668432201805 0.19702544018602453 -0.05008708172087495
0.29641607340452936 0.3161026396284399 -0.07457060018873563
0.45019066015382236 0.22518989173047999 0.04155070345353806
0.44958872985237974 0.14769796698843152 0.3261134082571999
0.4271527895048308 0.1873731283398854 -0.050158062666866954
0.41693924562876816 0.1786103607593077 -0.04171179876831843
0.44107980384023904 0.19454787897984716 0.04455739243012147
0.4032694532899086 0.22258432876881784 -0.013374717206460218
0.41318616739214065 0.23212856006064442 -0.02553060952752162
0.42929505753083674 0.220139563872209 -0.0072230056278215216
0.4129372064410006 0.1806313183262489 -0.06918013982314619
0.39211716197397095 0.16831723156937528 -0.06214831652577857
0.5323588797591583 0.24298624665757984 -0.05535222271169005
0.44254723318687184 0.20944691443031616 0.012891346088508726
0.3442007839691996 0.16458885256983535 0.027637169155809715
0.4697683515948796 0.2192333545601457 -0.05183440029669839
0.40362935018012536 0.1704523168421872 -0.09186491226421367
0.3852935694798134 0.21930332243925932 -0.020209602785214997
0.4736568051579013 0.28329867468312386 0.04034400669776517
0.4294349523480747 0.23706617123181672 0.09242045377413888
0.4503676402562178 0.1962178708594422 0.03201979950338796
0.47330305890504576 0.21302787627257658 -0.06030071735592912
0.4434538656242637 0.23271374294330371 0.00781360831106781
0.40006681649830966 0.16335938236169056 0.031361446366275914
0.5097212390899841 0.23012648748090214 0.04104536458497421
0.3544453875123992 0.1685979965009352 -0.01216106487524371
0.4278247520589815 0.1922799260909045 -0.04564002294688407
0.4848027860718531 0.25279020262192375 -0.013961409339060538
0.49118064827771946 0.24036736450256058 -0.008087216164199162
0.4473576748721939 0.20224697994430585 0.020349910779202673
0.4296539241172894 0.1723756476728795 -0.05374835303102543
0.3974247685517156 0.1890071318330797 -0.061134136540886175
0.45911291620473094 0.22285799645813142 0.0005081733191332205
0.4934888228394243 0.23875328355921965 -0.0441646551290944
0.4500756379604667 0.19721947282297947 0.05212109722553748
0.4488847067157451 0.21146742461584722 0.0009413755566640702
0.5351760348626158 0.2920912228946122 0.10067715573171654
0.5148533914897655 0.3158473393866075 0.014157276966088261
0.37687139017752713 0.0947102238600337 -0.03507080204315116
0.42751927364643905 0.22711891681780116 -0.003776202057451883
0.36751290610746423 0.15738556687526284 -0.023496063250121324
0.3862409726769016 0.2093477521096645 -0.09567003961869602
0.4492948764096809 0.19573056975175973 0.08447227195242135
0.3871202049948863 0.17781254372913224 -0.08924717514980784
0.4407343176969363 0.2321664169001565 0.0553860119977827
0.3893165221619057 0.17306209233700542 -0.024871799386005478
0.39404422616155443 0.15395803398349983 -0.16596223011518418
0.4097934209848262 0.1916757052894127 -0.04228298713020706
0.4589750046933716 0.22756300748648073 0.031030315674627218
0.30448416970490655 0.17593050306678037 0.0006286290839909725
0.33229880755871477 0.19788463492685082 0.13096256049831823
0.458091375352808 0.1735229549337589 0.05455149788502922
0.4481584991802521 0.2580669413605534 -0.007454468476908005
0.5246975266484526 0.19315977429528175 -0.019040591498566073
0.42740950473816497 0.261406404266495 -0.005577385664423673
0.4331680444547743 0.22518073636763347 -0.005232330244069772
0.471442434522487 0.19956754489845707 0.004852334007637182
0.4511850912770683 0.21945267613597252 0.03141184024775612
0.460938315518149 0.17051505246806187 -0.004696898082187317
0.38054346699351527 0.20697759757379686 -0.029590178810124712
0.4355675351478112 0.2086013254614585 -0.045008351768814236
0.5097039987907976 0.2439364883997257 0.008072933645706826
0.49786320750638424 0.24539595496314348 -0.04445277777489309
0.3877817589181092 0.09157459637243903 -0.04372127913853774
0.5061995551863703 0.22208991702133574 0.07859357883137363
0.36666007570187276 0.23938266196665836 0.0747581450984427
0.4209155459956122 0.1987153726900175 -0.04876506445306461
0.43914021795977476 0.19501703920929003 -0.0176015607895863
0.5719678940208865 0.2446125323919972 -0.09389012833672439
0.46531773796132825 0.27039950718690875 0.03388856024869824
0.4058627543595179 0.35263662031542253 0.09184721830857256
0.35017367223173324 0.15576459483203564 0.061808898386686906
0.3582553546156362 0.16729378634164505 0.007205542721195002
0.4472695011478294 0.21149029355458993 -0.009737080960206868
0.3639882446277909 0.14248289666852543 -0.05690073797593698
0.4151726902515662 0.177510852384259 0.004536072230678201
0.43378634613925726 0.22441284311105392 0.05085058751444649
0.4533376313235351 0.22824726024262532 0.018087978530758164
0.37715216472308555 0.17392124181691315 0.007163292152483791
0.3158808477178212 0.1451080627296193 -0.018553937353999572
0.3713847127066714 0.16757643323313687 -0.037367386654665324
0.4154683504404204 0.20478707197776203 -0.01787132530728286
0.41012238994530037 0.25763282762378026 -0.11972008520729105
0.33899267138176015 0.1768380447203839 -0.009868199824268231
0.458646101827199 0.18081748858791968 -0.03118288188360907
0.46027178008930036 0.2454862829992237 -0.009684637608657454
0.45532705095229176 0.2108479256129101 0.006984338065237239
0.42221176933226445 0.036388644396822656 0.557744812809247
0.44328156669561736 0.20633578400003216 0.015069531959412075
0.45062048135038424 0.21455193880885304 -0.024959780168373413
0.5089981706064179 0.2160357647286304 0.06280224367178278
0.4558715714555177 0.2105089122743209 -0.005628821219573865
0.3994181894949804 0.1394536913477964 -0.057272020623898356
0.4276538381162851 0.209948165534513 0.023116253192540626
0.4881869449056353 0.2172613979019502 -0.09997837376857888
0.44987544824874703 0.2234093484355668 0.08213811641900293
0.4461898372695998 0.21031537692573465 -0.017487531970147074
0.5178968082464905 0.1846675783582299 -0.15051024945762492
0.37810597985064476 0.1670404643779193 -0.06214776192919658
0.4561463703132489 0.2436007748783311 -0.02572496579436745
0.4477763352504809 0.21321427026225592 -0.027498116363929626
0.9150435148023917 0.23706016292773313 -0.256527465504206
0.5564176524452478 0.2144146676458405 0.03619233187994553
0.501714937183678 0.23710688979132044 -0.03151076350287951
0.5201922583390228 0.24819303336172993 0.0953693528807662
0.4792895368000103 0.15490533164131648 -0.018865614526760055
0.5124582414241701 0.23111451905984381 -0.010475860834930018
0.4060871122540419 0.16877154553279183 -0.04143947068794773
0.5147876427649436 0.20847110884479036 -0.040036698687401895
0.4633566758111556 0.17940888019649037 0.041602870038985884
0.4379269241296413 0.22191332132511832 -0.01065177229280323
0.38209906455720954 0.23328600413186962 -0.00966915223384035
0.48155695589845493 0.21810853232773297 0.047810449324373394
0.4477136413985221 0.22402070438127453 0.08093770351935348
0.40704284511038225 0.21009527206081202 -0.09923455965645189
0.3891733264776036 0.18425156957786726 0.017441361826485036
1.4442067086023656 0.05357229297266031 0.5521964431829929
0.47329158041992514 0.20794898209516077 -0.04995838988753576
0.4225180913517619 0.17150558792252468 0.013513938788406676
0.41943052519711443 0.2610997574597036 0.01778563156537416
0.42546651619436204 0.22745012935760656 0.06330110000723721
0.39728679445633475 0.24899073381500614 -0.05480118980841553
0.36910123082672897 0.15298970996389016 0.05195550800520721
0.4238112149753164 0.18883763991939873 0.0023549821211190647
0.4250196052321371 0.195317037873167 -0.06714706759029809
0.4255548779854337 0.19441807054460014 -0.033349437026316764
0.4774236143770878 0.22959780591641277 0.04552648949589866
0.43600210894381064 0.20434177890584238 -0.011897019404827347
0.4212343662701983 0.12012371114769849 -0.17599496240890744
0.46093393649005066 0.25623719053038485 0.040914373656391945
0.43942493755388057 0.2032015923515189 -0.02437063592158495
0.38630855126965 0.5312543324721446 0.29628853770472574
0.46883030218602073 0.25578423491991487 -0.04499684419748462
0.4351940619196739 0.18659121295557668 -0.03438245791858208
0.5057211670476534 0.21521703247165647 -0.10932440853406433
0.6187974806849894 0.31599175159544757 -0.723939008261766
0.44470499995838964 0.18053735536686588 -0.07020453438380514
0.3876992889859139 0.198947962797007 -0.1272916422256145
0.43449678060572694 0.1593387112493474 -0.038596842115211416
0.406861599488451 0.16505909728064694 0.05565200237910517
0.4834843541992768 0.21749023293224923 -0.013609704663025468
0.406072145684405 0.17068828722267426 0.02688435001746825
0.4243155833719072 0.27402580012736166 0.09826362574055736
0.49779137357387526 0.2820764435811185 0.017963413805887285
0.3454246453001417 0.13688175261373203 0.027456671861386894
0.4729478656098678 0.21481925475329433 -0.027852948673881883
0.37699977870703094 0.11617581562306611 -0.01810043931737937
0.4193447005424673 0.2195385639456333 -0.06557661471637743
0.4151977616722746 0.1797960561044647 -0.08466862054234525
0.3588645080900932 0.20598716397343253 0.05267525455420241
0.4630864120154712 0.22991470033967687 0.05504796192650474
0.4560040333530253 0.08659567810624935 -0.15142014995001318
0.4936505957491306 0.39765111500533123 -0.10301274201776778
0.5296086421530077 0.2669453774998942 0.004887595211073403
0.4515029694631778 0.28582272940350606 0.05468236759516287
0.45281385362967796 0.20569741709508094 -0.008261231361331056
0.4611484188914545 0.2149156460423285 -0.018131816333266215
0.4326697607845347 0.205553558057332 0.021343353711301916
0.4526676613497358 0.2271421996211842 -0.01773856997735379
0.37066201712890745 0.1797981594622513 -0.06868756568118783
0.5523601432558536 0.3001615530917121 0.08034844613374048
0.4277155018879455 0.17277310077471952 0.006686196072450912
0.47191955161436283 0.21624806468243207 -0.024865850166222003
0.37364733956819407 0.2630374584996815 0.13741243592950525
0.38666335349756764 0.1802398658548725 -0.04980884452965029
0.4918920563378606 0.23047098543619882 0.054531367810767506
0.3305942981682364 0.15097514443607452 -0.0804694723333057
0.44204742116679085 0.22585285907157981 -0.00813473534954312
0.30556638373872147 0.12318853786359796 -0.08880696998573967
0.46566914895815614 0.1968043951065681 -0.05083035945642678
0.4385620179267562 0.21614399765222458 -0.04178097317461038
0.48712454608347855 0.23076456856796312 -0.004438198264864468
0.5116974605991231 0.24105383179696105 -0.014164706612902478
0.34434390984912966 0.1989037397008815 0.03143831166246969
0.45492337007752326 0.21911617158329477 -0.03182340259027683
0.3956249386337305 0.17987587588299903 -0.07986893231924341
0.3415947167145106 0.15925467149801875 0.05647675083179138
0.4392493044563821 0.21208761575206836 0.02010132179577795
0.37461779391392724 0.12080434144644414 -0.07422326660585554
0.35610605651554295 0.1544730597633759 0.017888094590844617
0.44580613100995947 0.20336183753505566 -0.02367442523815555
0.43139796445498746 0.20803566864640288 -0.023599971560514632
0.44146381243072597 0.2608480668443178 -0.09668759575403385
0.3554973025322994 0.16100842564830486 0.04728524825668501
0.3283762859787345 0.16861014712161193 -0.043033229755224056
0.3974472816976231 0.18728860143446013 0.006226408978790232
0.4235429635251933 0.2120322023570509 -0.006060240663657623
0.3428292324134077 0.16754523615625772 -0.009404265041666804
0.45355589323145296 0.1753347333423676 -0.009956536497242041
0.549627541688551 0.31300240115669453 -0.18824928654439077
0.465657307005543 0.20862538006841191 0.020800455523783512
0.4938252277103601 0.20020656942747905 0.05758356656644992
0.47219855513527875 0.21256250903449825 0.025721876668114874
0.4311302204693277 0.17924074377461352 -0.012461295177686793
0.4316473690791156 0.2113642807792928 -0.01719363684230757
0.43146455447006815 0.006032050171612013 -0.3791897715140351
0.43438056152943716 0.1845618752775522 -0.06761593421829559
0.4666854885620495 0.19441758903428763 -0.018429270677074783
0.37587445619818993 0.17355974229342053 -0.026092985400225643
0.45557569942121745 0.18600133075590009 -0.13796278394444528
1.4780790961453079 0.03921899636262083 0.543474164866268
0.47011847298709597 0.22366659750599638 0.04205803931691321
0.3973300672064397 0.19184419463509528 -0.005691766303215218
0.4494007347300908 0.21893019286009974 0.011420479627304303
0.3727268986710044 0.13168836983557242 0.030316635944529935
0.4478096278975272 0.2133722605561843 0.01934291966121293
0.5494801059836476 0.23954424929630136 -0.07518179420100068
0.5209604821351661 -0.4032037680619851 -0.228549958339471
0.4637370828090468 0.2195844624301344 -0.03645352032106075
0.4789368059793446 0.21126353706199552 -0.055061027214861724
0.4102980352489851 0.19307146241939677 -0.026885733115989296
0.4603804884922198 0.2401969351750779 0.0580886784503889
0.4430130173229969 0.20861113907415074 -0.016968695241160958
0.41552456764782164 0.1767014633523729 -0.05159501942125644
0.4567060750108993 0.22585891814767933 0.1277348191557337
0.49249045415302817 0.1954456355947798 0.07749874359754472
0.6673569318925558 -0.025185873744248966 0.4720684735211762
0.5691713018587592 0.27789162777619936 0.05702666590350702
0.4116074980268678 0.2153938183446371 0.05690222652381749
0.5117735427720049 0.23357772782568986 -0.04279304525607586
0.48331289269773947 0.3043522652443187 -0.011079897039948605
0.8065877116392528 0.40006791523683205 -0.26610042817883084
0.5018682867587501 0.2469309273319027 0.04535439039372591
0.4314527656787277 0.21860374048574727 -0.054695056722522395
0.4773325780268891 0.3158873153653303 0.07366248068244374
0.16789102178033488 0.051795306509461625 -0.07702580479006826
0.37438695901795427 0.16916191525623958 -0.07869873175177133
0.39435285868390224 0.21694701176866715 0.07147924425666474
0.4529768104819567 0.21452988860471578 -0.0332841938426327
0.46573115681896127 0.19577368829749275 -0.07225714883637124
0.43064962962318987 0.14671985683932576 -0.09946587901387716
0.4013174609625736 0.19821037389016283 -0.059667104678595706
0.47540293671534073 0.23773449567895 0.005678464292998342
0.5011334734034705 0.2857995495456862 0.0688857256224793
0.45438841054395596 0.21750232763260158 -0.030548011027292432
0.4441824077629519 0.27917275800804475 0.10639401264521098
0.4194472143382342 0.21763314664067934 -0.029919324244247036
0.43050727795314003 0.19695456700642922 -0.02454723985272267
0.4493318213949493 0.20428240420969246 -0.01595278657845256
0.525533821862922 0.22128373317599426 -0.07295527019300607
0.5376060119623816 0.2867179643835698 0.0302398254514884
0.43426756708028336 0.23610463399180048 -0.015236113589978117
0.43979374795739545 0.24550189574232206 0.05785714895819183
0.45777772914000536 0.18208802333407448 0.039491877418100785
0.4572060752122127 0.23898731645562066 0.03310742443812842
0.4898639305842636 0.23511491179371546 -0.015152918309311758
0.47182779116855045 0.207201950046624 -0.020795552638702475
0.4730279187774755 0.21388973171872294 -0.005313585280319444
0.4430663157447725 0.20818469158201935 -0.019388247004059167
0.4803767569969608 0.2500286291941336 -0.0067785906543207375
0.457198882831392 0.2186970538933508 0.024379629961671867
0.5031745261641589 0.22699233410432385 -0.04336769295238696
0.5454605518847302 0.25837908168863066 -0.06642359983317192
0.41233687033980004 0.19444947477674646 -0.08594538120712514
0.4514854604398124 0.2291520346545326 -0.042937496915655515
0.5294354966787722 0.19822410128074353 -0.023109969706098354
0.5137101150653933 0.28484245507264916 -0.07986869526436635
0.4749467423017961 0.24139639872521457 0.04404959437582079
0.47889816857257017 0.23460538600315317 -0.022517921114086903
0.531793454493922 0.20858689084406024 -0.06071914630663855
0.4013525550883088 0.18198615258629047 -0.02561483595638947
0.40468923902406573 0.21109969628454905 0.027757653372574964
0.5793731723726125 0.2574781976663445 -0.014511027964402956
0.3370362330196599 0.1436011597274387 -0.11487509418303432
0.42580323219104343 0.2242302039398254 -0.01044437926893238
0.4388569675292757 0.19188631886549956 0.04304664343558784
0.565405455862674 0.26450145337192055 -0.029418005052946228
0.46340397798941524 0.21666872288395211 0.031450781049016996
0.3628283550206248 0.12271405443024719 0.036056605794783536
0.42815803559562937 0.1756111617477103 0.006419097676314323
-0.9282641392167932 0.24763374015961404 0.2008712431612878
0.4460412599842698 0.215918701012896 -0.037366784807005615
0.47436053990401206 0.21462861124467736 0.013220200754489042
0.4345700156068233 0.17859573470997248 -0.03801398554733737
0.44551828400133786 0.15203489198501074 -0.051261507923101135
0.361663768615756 0.14539840422349926 -0.018124180383637167
0.44486026555431124 0.22410852682922666 -0.03401004649529682
0.4807926654877548 0.20898013760110246 -0.03350722084749691
0.43120135110015667 0.17426966243580466 -0.014564338006962885
0.486974576270768 0.21017996667757188 0.0440307140894447
0.3807964290678427 0.17467657607055287 0.00897168808269555
0.4333378493304849 0.20081418850091382 -0.020595247484976653
0.43216676693820943 0.19610205637798117 -0.06984091677701088
0.4371236676447694 0.20112358860681923 -0.009882760175031535
0.4144632846619487 0.19849308037092328 -0.014170269241077449
0.45341410595482046 0.2679145176490749 0.050044551088035405
0.38692080269262874 0.2290945644307243 0.016327568211067955
0.3131218602692911 0.24684777477895636 0.0023889018826537267
0.430733510623142 0.164590660954957 -0.19175594379606764
0.4054940899144128 0.17793632892707478 0.005857217939990278
0.4958007736365033 0.21830247145143744 -0.02601273276887639
0.48124024608435434 0.22812644198907606 -0.016797339978779746
0.49521490796966816 0.25176029691652957 0.03404344591771746
0.4212630782803899 0.2584098412583131 0.03808126957312652
0.4583761573870646 0.21688375570026608 -0.008528142194535349
0.4729930095870003 0.23641890002798505 -0.04880092720986795
0.5398960058645486 0.2595524913249676 -0.0573796128878854
0.47142924951720033 0.21949425105118792 0.041008073112777765
0.42831913840329605 0.20667200653289797 -0.031186206452048282
0.4482368105216068 0.1890110257568267 0.08555822037786243
0.4144987805352116 0.19999248138481107 -0.01177023211259609
0.32958458924876766 0.16330307150701628 -0.03752210015085211
0.37183752759544575 0.1796895420268072 -0.07257947184506008
0.4616737486768727 0.23174452934239298 -0.09513766459826911
0.6085988807434006 0.303986559605562 -0.1329528107054898
0.4354872725598682 0.17654200868504688 0.02818326149477457
0.4469644908582211 0.22015490571908458 -0.019163545872629584
0.4310903135521187 0.19617790893930476 -0.05606670218590182
0.3741914429017328 0.13079419179912577 0.00677949998623717
0.5294332143745208 0.2285645621227843 -0.01142703855543914
0.43939251936721746 0.2132773505442742 -0.046098960889381146
0.10750694889919998 0.39900813920985456 -0.07500525303140648
0.40824482793742334 0.18487641791440979 -0.06666998751033759
0.41447909550481654 0.157738498733778 0.027436288226624583
0.34434921882738934 0.1483362480060464 -0.05073512711388162
0.38505605091195605 0.17665882229084673 -0.05498226327483735
0.5405872077343474 0.23878430247056315 -0.029907514108998612
0.3273725862412533 0.19437699147911758 -0.022764849300784817
0.4490661769984996 0.2196794412648444 0.020573305487801008
0.48171552396648565 0.32108334130538196 -0.09960327577471162
0.47022472184723085 0.20802817119727024 -0.08419511943101554
0.4250228326963992 0.158047158789131 -0.038388010449665444
0.46319610063562777 0.22137371683240303 -0.0003720208796380575
0.4576689069020574 0.22368121936719376 -0.017710242602234416
0.39351183208096074 0.159129981697248 -0.07905874322440809
0.4442840955206009 0.2356214655861777 -0.02327679612068323
0.606258110036265 0.2189027659593421 0.12232118512261536
0.4733618283818828 0.17648164131688304 0.017411471125399203
0.3448914198268227 0.17222474609289407 -0.012314229855178382
0.413346601125383 0.3043037909484667 -0.06416578030706432
0.3773562711908909 0.13863050072018268 -0.007456803841591864
0.40896371842576684 0.2119601752832807 -0.06455358427629676
0.3698234305676351 0.1949541589775805 -0.0068588460346745705
0.404511283461261 0.20063314207177996 -0.05385721951057576
0.46607885753724076 0.23359993937894785 0.028871336782287926
0.4358793266039527 0.2521302151734943 0.08187568721642435
0.39897700760640475 0.17807969528706735 -0.0095916463722574
0.4409913927126041 0.22618704214333718 -0.02024394506599947
0.45518216330133043 0.23116301181572396 0.00623780386008832
0.4203103812499762 0.2100346438453755 -0.02032399486708414
0.28608769077493434 0.23999828397873557 -0.07008252581051977
0.4472732328916038 0.19344048397245217 -0.016184661120973942
0.3924937643938051 0.18697265865783663 -0.014035955755076657
0.4480474430810375 0.19010681656516226 -0.030178202780277275
0.3654275725017726 0.1929110735338213 0.04380474503550147
-0.14876057369089324 0.2120983738922746 -0.35691427467870085
0.414823085532646 0.1783598864500675 -0.10760294028835915
0.47005184919746057 0.20985242952457384 0.009563019302689213
-0.293410336554615 -0.2451003467141959 -0.046758473051227156
0.4388533757368691 0.1889946745251052 -0.08349440528198215
0.3530571254409409 0.11530328466363926 -0.07408182367049676
0.4043570217680781 0.19672488182743564 -0.0012048714901311541
0.21559065233421393 0.2373908717281381 -0.14866223846469495
0.4825308910770616 0.23229403333823484 -0.01470503941546042
0.38554178899242686 0.15223219337102023 -0.008394402874316143
0.49358175520966086 0.24536067827787633 -0.043446959136062446
0.4370246739860164 0.32401482671313886 0.07936340861613189
0.34870461492583615 0.15034147132215026 -0.0033225323624606062
0.5420682085989199 0.26478953509936787 -0.0403364161338402
0.4502345033720445 0.2564198792326806 0.00804367866675193
0.386671402632615 0.16508714054948825 -0.09649431310216983
0.5745116256031935 0.13811093390668816 0.21742040046220268
0.45096972985714956 0.20519638912546156 -0.02729254275423898
0.37947065970807614 0.41275696774735593 0.23455218997918337
0.47672452334755633 0.19922804688332008 -0.053534520197217716
0.3491087165827196 0.23277309734498886 -0.038066161361840045
0.4257084188892861 0.22630763668924203 0.04923991951983453
0.5145521350239051 0.23259643264596264 0.001592166384583038
0.4324758763414991 0.19894197638876676 -0.0309779792327447
0.3526543048930506 0.1148159901150052 0.034424327273697486
0.429735837199118 0.2036636817804265 -0.008002675929603242
0.4271443177529761 0.18547504361175982 -0.04195380540028282
0.5817487384114344 0.31626479825047227 -0.07114197023039992
0.4501776124536718 0.24488984268856484 0.012130021755709208
0.5332464445363172 0.28757234099578 0.022048219395543356
0.4373446061127453 0.1727692672447887 -0.0911958031155109
0.4356425207995045 0.16454912130370758 0.003006413363266347
0.47199164719403086 0.24227981642718532 -0.15164746292033726
0.4374596962347823 0.1980380613218813 -0.016925483920942952
0.3859534474170516 0.20467062442935458 0.023268105043115384
0.4995135046149244 0.23268186183935313 -0.01415194744231485
0.48612648552025917 0.1992175273453256 0.0071857077382162515
0.463686894937112 0.21790464847470048 -0.1048167565586624
0.4132602827441616 0.20156104893311522 -0.005167462822996072
0.4406869911843927 0.2122296062967024 -0.025797728978446344
0.40823561767176386 0.19542970619325217 -0.06950678228618301
0.40478718593753626 0.23987945014194167 -0.03775845104237874
0.364591972064332 0.17422933544597186 0.007721741786383518
0.4200911397624054 0.18544885076079254 -0.033731294615392926
0.44412872243995594 0.21252357396900834 -0.024172098371536777
0.44465216764879756 0.2226213779508157 0.014246722758002761
0.3528154414091489 0.17953613372894495 -0.08252622558251232
0.5323433892066873 0.21457076515108042 -0.013550223506854309
0.4510106192801544 0.1887711727347039 0.0025981331582158873
0.4354909856759974 0.15581444478797835 -0.03075892868729113
0.3693774494637978 0.21651070963196162 -0.007516898630242963
0.45835466581704054 0.23023134658200206 0.012113805380039366
0.44860307402487365 0.13698506019193246 -0.12403636980343435
0.4947263193582785 0.22542538398730017 -0.031135857350932383
0.5031131192447305 0.23784873900709158 -0.010134251049322529
-0.3361273209242057 0.49497267575775084 -0.24537145945652128
0.37962188193506563 0.1901672527529854 0.041170826806805394
0.390009731799438 0.1861741450925649 -0.032564299409017394
0.4223176931316175 0.2526419302669751 -0.05424257754575024
-0.0256294828838719 0.445192331479646 -0.01366249566618194
0.5265038186971225 0.23721453084367283 -0.025568454580294997
0.539380006094035 0.2126540327636235 0.012450561954281625
0.39401077668622975 0.14130159841532475 -0.047095060582933
0.4825048834250367 0.23701615450977442 0.021963092101970005
0.4649719968850121 0.21493362547079187 -0.011960492916898602
0.4214671097149818 0.19483321380097607 -0.013622977006690462
0.45951339291927695 0.18733267908660878 -0.03442853827137071
0.503957608646374 0.14754244138100603 -0.1216159719041201
0.36705286959700345 0.20898420105412185 0.027657424212975457
0.43655575643619215 0.2781337397656358 -0.023272649128955436
0.46880041244189385 0.1780645319844325 -0.030671327600018117
0.21338755798535658 0.379703426437203 -0.0693794332256914
0.47170184573735696 0.23220545293085593 0.041440713649478766
0.48544839285705166 0.2530906306842269 -0.03223315439706198
0.46446336053706716 0.21925716145219099 -0.013519929542354703
0.4423152529187462 0.19287552139715558 -0.012851765054492148
0.4246678893126443 0.21259356129016282 -0.14020159056583736
0.3907940912868213 0.1956746953381412 -0.07380355179761011
0.3823684236143663 0.1830789415865297 0.05633907768901736
0.40235088211392167 0.14477232940961926 -0.12944381379871572
0.5100031706895578 0.263386649331224 -0.004422919542037107
0.4420061704906857 0.21716347261086355 0.0011401524566565513
0.4379282805492579 0.23173095587745252 0.006507498260418743
0.4569527412972718 0.2912521661338303 0.012521206288099052
0.4691762197703042 0.2161136312546148 -0.0012840397007352067
0.36059413058750067 0.2777398268408291 -0.016715579936985137
0.4239701671730245 0.17183648957978903 -0.040737501522983166
0.41902686170877246 0.20119396654132515 -0.07718545893844464
0.41679914085216296 0.22587733940579824 0.011761080008540148
0.417946760280941 0.22341737392821415 -0.0013012308458257849
0.47543870502680363 0.2149235147771833 -0.018696038211828636
0.4683732342553384 0.22956716482313766 -0.006076826600548202
0.42341159964851727 0.19415925865121153 -0.015793863470207725
0.4457263235281914 0.23111564246926264 -0.016145826353536563
0.4059063126316005 0.24386302335193477 -0.04749780922014679
0.4882835623072026 0.22329682870770284 0.008074187544167444
0.42150128427421407 0.09087364097143791 -0.24021111599083156
0.39848594148442373 0.24207871613978682 -0.0443810548090795
0.4758922530118923 0.27603745648445965 0.11274519252752668
0.485641973466457 0.32896339255626117 -0.05754030585558212
0.42717112056008943 0.19955511066555687 -0.03984008584704668
0.4191998413160718 0.22357526647456893 -0.02725658042328405
0.347913383524201 0.20694489559771512 -0.03225772183756703
0.5383672024767492 0.3176320752055517 -0.019052976392003984
0.4271286627181894 0.19025698159043714 0.05032683856228459
0.4289857778407935 0.20094532877628524 -0.05339778497952352
0.3750965150389902 0.1810318369707602 -0.013687308149911814
0.4432768244917895 0.18125358885518494 -0.03793143392417164
0.5484532861494955 0.24701020646679694 -0.033474501069932217
0.5098065821321143 0.22700193997891915 0.017094005858481864
0.4417219587680563 0.20275777518656923 -0.006906703002698578
0.45164596090843645 0.23216436771437543 0.032943697750255296
0.4250880545795752 0.18662110917850327 -0.03266942654704508
0.4289945396135977 0.19989238674770604 -0.10391770219142415
0.45002956763134705 0.32682225753666216 0.05010119964573789
0.40566307286862013 0.1565631962853331 -0.03688627602124939
0.3658598227973471 0.08374016087512359 -0.012775732699822129
0.42359510486659246 0.22469248961456856 -0.03807927537904732
0.4427438822467593 0.17864799087544725 0.0022419486056719506
0.425847810487781 0.17414481116878733 -0.09325440256708362
0.43956062810600827 0.2120410447614205 -0.0018676274549989103
0.4717812859846475 0.19881637427747023 -0.06319771224494275
0.46134460643841635 0.23414559501784993 -0.008754058314707436
0.44505013030588714 0.19045771449017934 -0.013119392318429846
0.5299003354681133 0.24346982908124915 -0.046617958345166244
0.3654465039563348 0.17516348708484486 -0.004336223962297936
0.43565316907888985 0.22295576948272355 0.057293354751848824
0.4626501650589461 0.1820937503536726 -0.039112239861935905
0.4763925952793642 0.31701537464174123 0.019331757277655015
0.4882548300997769 0.23562854952072598 0.023832578824112716
0.5661366366694409 0.2329078732989558 0.05539343881859793
0.4462428025905041 0.2210930970103675 -0.0409054234606856
0.4332603966249877 0.19066390515278897 -0.012715590512982544
0.5420696066858568 0.22738258485989604 -0.12480225695321678
0.3954873846927711 0.15341666577256774 -0.04343258058767674
0.4497487615275588 0.21467530788646627 -0.00983512750194393
0.48277582999565993 0.2186018052329075 0.005967263314389015
0.02698452349486047 0.17175002275664042 -0.12544656297120582
0.3992557889838366 0.1580606598492409 0.013591121861281863
0.4061666482501778 0.18198817491813202 -0.08356301024630852
0.6733593006230905 0.14577223387004778 0.006573536456471629
0.45131499008194 0.20894121979779356 -0.044925015824787806
0.4434769361759976 0.21671152244323366 -0.04169377617957082
0.43205052034265634 0.18300680471477904 -0.02658054242870378
0.4549185937308664 0.1972389857428425 -0.006753282577534492
0.4263386456720184 0.17861657554024646 -0.047174997784466655
0.5046196915860577 0.2726301328846006 -0.0005563278250519943
0.42822755164259263 0.1787569928124526 -0.01854583920740538
0.4939976645176216 0.22003461841016758 -0.07497424001223862
0.46082134544062114 0.2721401845325033 0.049689470124604895
0.4399047679972483 0.2028240872328979 -0.0525858672972106
0.43720095012245963 0.18944723461868307 -0.04527463211596228
0.4616980598111269 0.2110512099608286 -0.011462370501106989
0.33129723056262605 0.15347957359500697 -0.06322349530123006
0.4973005360211289 0.28957214653291885 0.0990249491402011
0.40907379800930244 0.17718967219596493 -0.02373878003757568
0.38748292314971877 0.1749613919521522 -0.041064366694939736
0.3587396727170642 0.13865783498522433 -0.04272315212406852
0.43264508938295876 0.220944433982325 -0.015777705445174206
0.4139572890713481 0.16588832472280046 -0.04201457085440552
0.42946827330523263 0.1910880222956166 -0.10651063907570801
0.4192862090505116 0.181833700386278 -0.051303688745946374
0.43804728982097174 0.2223289509184383 0.026248363055046298
0.40117038883842326 0.19274362076859575 -0.09458840729149642
0.5141741291940463 0.169714986818434 0.07425092559813606
0.49013180295561654 0.23221522645725656 0.015638328550949154
0.3669076084363354 0.13737164148942327 0.0072504273887830095
0.41974882014582704 0.1268370879089673 -0.15299875300476629
0.421834127058176 0.2230089404275759 -0.026504820613553193
0.39559813946220856 0.23597959620653342 -0.007122191762704233
0.40120766787696027 0.20163581717417856 0.03485181237070378
0.4465941964243001 0.24175932608763162 0.051778713860628045
0.3539476667959889 0.1295463632633016 -0.13095337408935848
0.4611996019284845 0.19982426172038004 -0.01619410319302972
0.4713667309442684 0.22515252959343002 0.05949571228154582
0.44316553249485935 0.23470783051240574 -0.005609166123150544
0.45747867675871134 0.1606037558386646 -0.03944145183848491
0.4418896134468042 0.19078403851892745 -0.03637836911082104
0.4137304109069362 0.18493839134464451 0.061641920118745475
0.3932639564232687 0.21192124628532838 -0.08160032423394625
0.12929776727894193 0.10854802665217278 0.4173538038671154
0.43405003438502376 0.2425156865138547 -0.027119909958884136
0.3616520142206383 0.1758963008467731 0.03912002115089308
0.4532940053059349 0.26188132278180376 0.018709004499413595
0.42331826455965427 0.18869535349634248 -0.04119178726486439
0.43469514475044946 0.20082555171461536 -0.001874672892995477
0.26709869232895755 0.16476713754828154 -0.07713362261520729
0.48303815593888544 0.24740520902025764 0.01861326368160121
0.3672309489917893 0.13651166870261022 -0.05821148541031107
0.43248480422107605 0.21385961947819965 -0.03159790904454951
0.4789969307308297 0.22299846699129944 -0.056735035272524215
0.42401014623462174 0.12436970178563911 0.023584788091170594
0.4301809063398707 0.21261100751328854 0.006328105660912797
0.39127666021292384 0.1906152703721773 -0.0036085269592831537
0.3781611703458907 0.19124022016801234 -0.057509902814160796
0.6768995811478788 -0.665738405859372 -0.7424807577679928
0.5076719087097814 0.24608063257657875 -0.02534402798008273
0.5141160252282759 0.24898666141595527 -0.05723004567073531
0.4945338458177986 0.2233317692840302 -0.03755382826257403
0.43553265505708794 0.2034259043815183 0.013838351530452542
0.4195999029229256 0.20335175627863578 -0.04206080915132304
0.4715645229694445 0.2074095096914732 -0.07305488463954646
0.4501715842809517 0.22668335813833096 0.029061813577357043
0.3377389002426696 0.15712969484235373 -0.13379846192867717
0.43813992228973575 0.2212869224075007 -0.05702534568820283
0.4814385366885574 0.2408060175960145 -0.023636509700864394
0.3857991388662043 0.151904061489347 -0.013234513321549457
0.5020288236859187 0.24450078453794788 0.0411638271752679
0.4327699113784149 0.21436672031364878 -0.013718953988302474
0.4193494515958349 0.2122757007399798 0.043891466241291255
0.4208722915346641 0.2222614801218583 -0.05831879300556864
0.3294044397117375 0.18262217711497897 -0.003901933197909102
0.39607850385804966 0.1782194786980682 -0.08645681423365659
0.2042050302972882 0.13496935602526605 -0.15920810232367444
0.43944153743167647 0.21791917346453715 -0.031354241982825215
0.3625091788728696 0.19853733048552158 0.03819369226079061
0.42713787559790717 0.13215496280389516 -0.05751869102391538
0.4178163955617009 0.39285928736930487 0.044140878517140436
0.4291024501052476 0.22529827594871676 0.00998146691821944
0.4346834781040485 0.19823198718799517 -0.03989081676766659
0.25573433798638234 0.08104146478531504 0.04194966312337556
0.49278333616626924 0.21264760957097906 -0.03844734827906393
0.4311551471950281 0.18073020439815934 -0.04742332730856447
0.5651846476576168 0.2669613152503274 0.07798128113529401
0.4564326478505336 0.2209211793891228 -0.019451250589639812
0.4455095438014496 0.22249711279144435 -0.006821032816674233
-0.012552708276473368 0.8005227452808015 -0.30668100526176545
0.3969915869329128 0.2140370795332842 0.0182758591111849
0.43543872748597323 0.17566792574700685 -0.04754738536398406
0.4515704793450368 0.2709821641469432 -0.03137031430986781
0.43954015378972144 0.19317506450269661 -0.0012236593596242074
0.3690505778676112 0.10298470024753215 -0.00547113561117385
0.4711645195402525 0.2372201466071715 -0.0031135308402951978
0.49843766803319056 0.26383381291523733 0.0073432304510276936
0.416213690217873 0.2273204710295147 -0.0016341086063675903
0.45637342222622124 0.22878444677036214 0.022649558184070884
0.4481152309245857 0.21159216041304774 0.00796816312906401
0.48617146633424113 0.2416304697337921 -0.07422713008482162
0.5574292888922798 0.3000464766497686 0.019668595282027468
0.41057650249867095 0.1745702391821311 -0.006999919663726928
0.5320133089369108 0.2164570029657682 -0.014502315241486485
0.48008765792914687 0.19617317967959025 -0.07485114875657928
0.4801393442744768 0.23798326248157764 0.014982996369326429
0.4210573945732108 0.18102092578899942 -0.00939252845971339
0.40813190533951627 0.1984815699248088 -0.0027795036105118243
0.3934429570403637 0.21204799290745768 -0.04825275348892433
0.18908467753087166 0.10370285041855709 -0.042260813571203926
0.44006550688141033 0.20046715201129928 -0.022652750495353757
0.5493396306476654 0.35415828645548686 -0.16339511485045932
0.4814460127535938 0.2795890070440805 0.07633141440763325
0.4466348060650347 0.21167953375190507 -0.030325415116266186
0.38213726670575454 0.17017891682583297 -0.07056137693447795
0.36915595197736195 0.15717028654839282 -0.05874937511873668
0.45439056249927035 0.19213480840821262 -0.019988174467869158
0.40649492535951026 0.1893076342901736 -0.0539878548346735
0.37266553289201454 0.2229280092514898 0.04025487453355936
0.6136360010227833 0.196167712128684 -0.043952234024089876
0.32991869594229684 0.1462347503298531 -0.003781545087605309
0.40059678990253644 0.21279683742051247 0.018778956908505506
0.4561798171615834 0.22495068540915497 -0.029178924503369785
0.4324939602578155 0.21596018438300746 -0.03002168607926592
0.4119099880127095 0.13110768436803255 -0.0392991760778898
0.009881927370784638 0.20203462218944424 0.020224559115689544
0.4331979168761393 0.18156336003059437 -0.0338697305636515
0.4238080540887239 0.18810453574488406 -0.10919135618215137
0.5088727537468003 0.2559543170074505 0.014255745224090788
0.42257296450985393 0.1835304367709938 -0.04882567508411739
0.22643867207537482 0.19590562517213073 -0.42828577914053767
0.4125595555472188 0.20840825417468523 0.12734321187009812
0.4028538988319781 0.19055156008653285 -0.01101021021774784
0.45739382674702256 0.22467764323506856 0.04189649169312304
0.4589534575772092 0.2559958049422022 0.028593537420931625
0.4282310183082103 0.19868965044605602 0.0186170251244846
0.44767649786956554 0.24135377735602503 0.06428413430515434
0.43932262309697023 0.18660739754190558 0.042813299409218075
0.4403580456955041 0.18110581341552745 -0.057609865386439196
0.48275028009533116 0.23158973767155544 0.017655910176443967
0.3784322891637544 0.11394749347761035 -0.04477703991753401
0.4451134977129243 0.22487127672319218 -0.010348924334721232
0.3367733387132148 0.1984537371398858 -0.022781782372248927
0.3387498989231119 0.1479730518906308 -0.0786211915730064
0.45382017541250264 0.20823331648264798 -0.03296616603644509
0.4220505134040451 0.20368663955366628 0.022333803640975702
0.4438329564959247 0.1993396719475129 -0.013317106824416669
0.49482816627606496 0.2548426159277426 0.0637374661915544
0.4148785093442342 0.20031426282739062 0.09074184626155102
0.4466906103309327 0.23109728293292164 -0.03809676891179947
0.42004493735524306 0.1884072299285151 -0.0007688300622135102
0.37547726264301673 0.15991458870459496 -0.03650659156198799
0.3859478837961632 0.1742819027777216 0.02497629416356517
0.26521784413191085 0.11362157636031611 -0.12395345007507785
0.36536749119791523 0.11818601266017481 0.0017524947349158992
0.5286242687926404 0.21188613206483353 -0.10047063701981074
0.3539567398142651 0.16537845565417797 -0.04666166710813968
0.5160828777507049 0.29093030049999413 -0.09488582926417166
0.4228172957456735 0.18927242961112256 -0.10797525298902144
0.47606001883782767 0.19271254951866013 -0.01013686937244529
0.6953004562063114 0.15548722015095962 0.21237387540001862
0.7016667881798213 0.3171693232574171 -0.03565339944395873
0.29450673499691504 0.17822341049119927 -0.08977088147079826
0.3999187677009246 0.16482520980042636 0.030756271516111156
0.433636370580615 0.21744905625496358 -0.031522322452246954
0.2517493408867466 0.2487659060832783 0.011975792978461186
0.2972392962333288 0.18544935665201479 0.03227776365980617
0.5726542294424775 0.29565814027739634 -0.03372244226298449
0.44303582008639353 0.20425133698603304 -0.005357001517580784
0.4887419455631772 0.23650004420062487 -0.04180417729460828
0.41164620926929274 0.20667212180352124 -0.025523033542924622
0.48132568551388033 0.19634522259926257 -0.06087593535730207
0.3548187213610987 0.16758901870306886 -0.0071386766265675305
0.37655802291365603 0.20047873890939627 -0.03220128342806561
0.3988409508330051 0.16815209499640105 -0.01486085583366048
0.4485388556432355 0.17937877796981638 -0.08130155080110057
0.5074711982717588 0.27670882096496996 0.053478838519694705
0.4146871762722242 0.18046506282929897 -0.036480590040440575
0.4390881668300608 0.21639576373361535 -0.00951432363621052
0.4236005171201924 0.1840009715130435 -0.018913774312196097
0.4312536525187909 0.2192348664411412 -0.027520583726953873
0.4244271907174806 0.19944072503903953 0.004011894083191692
0.46807524940047074 0.24705029874701268 0.0024176909008133407
0.4514113294014379 0.20725215312995715 -0.02824353971956839
0.46826798708178785 0.26516891487015926 0.06054993569901512
0.40354402039646686 0.1933129677349683 -0.009944720271178653
0.5955584247946746 0.6292084765234733 0.2345316133905584
0.46886391180809994 0.22880700450757274 -0.10872010830547651
0.48987080869073907 0.24771474884394706 -0.013366349077941209
0.7803284555909471 0.6295850255295079 -0.17707788859199525
0.7518248367156701 0.1825336048649433 0.06811073199267526
0.5187517945518465 0.24488503917365279 -0.006192372825012171
0.4248458497341261 0.10175213384255244 0.034561211544186676
0.7812288611901863 0.29029564972113064 0.2035927326106446
0.4900513650637919 0.29596681413275405 -0.023430585846057284
0.4972750861755486 0.24301434303022518 -0.012420930742280234
0.3418868655805909 0.22951851855683003 0.016426037098625557
0.3803672827293383 0.16421437833361097 0.012915121521587025
-0.3191234037802957 0.8690883699045457 -0.31414392022873017
0.4351763914173148 0.23490822812573242 -0.02153527984143011
0.33233838485341494 0.19056984393537846 -0.017462098745028243
0.48548131423258667 0.21277493370033085 0.04446027551577458
0.48942212672065466 0.23999710497562887 0.006197688978147653
0.45915877747825107 0.19377141585906088 -0.021504815608722083
0.4630140186888525 0.21072231095811844 -0.01585624189488044
0.3858772701871658 0.162886509602032 0.004276299397247385
0.6618184968215388 0.14914455058087128 -0.017067504142644907
0.4582023130482753 0.20635755462740235 -0.041810604861041156
0.5129677926428116 0.24813120967510827 0.04796363009631932
0.570782282867512 0.2115344642537309 0.012873349460846839
0.43645427768503 0.20811109894465574 -0.043566729937879245
0.5407377015227013 0.2623253533425043 0.026919857304278594
0.5094783695279403 0.1640839029652028 0.1302914275585323
0.45468595629667163 0.2610731237473942 0.028621122463320603
0.4921758254230042 0.2415205690532929 0.09163583627513106
0.5697798471366866 0.31809153323587225 -0.029420531207748013
0.43294390869392885 0.15104627570639195 -0.0708413747416472
0.3734413128632923 0.1945594857323556 -0.10207747166482761
0.56529304784641 0.2855784745412677 -0.00282024864259256
0.4385824541091665 0.20552012535158326 -0.053748361707732784
0.5009710135751106 0.2963993570120351 -0.0781483926105011
0.43186117572842875 0.22487960227337567 -0.0005904477037006473
0.38633684837958526 0.18883200241580766 -0.006041582907229781
0.4242083006817552 0.19085758910992467 -0.01596435608126967
0.13109621251584258 -0.06316017546163266 0.060581050366209865
0.3812530973653594 0.14275224857027524 -0.06374909645273874
0.44216261654705136 0.1981918550438877 -0.009611287234577048
0.46564172601593157 0.22157401123156717 -0.0032541257419040903
0.37199379226814244 0.22427636583206834 0.017438236550475494
0.5219165725520014 0.30103293767874106 0.02899846123668226
0.487644740901402 0.23065066456493355 0.10316244561606425
0.5288588905973484 0.24797295543655196 -0.05121599457163484
0.5301124028360817 0.27563853753571266 -0.0351862083221306
0.5112035693862822 0.2527021030427079 -0.038974754045398186
0.3794716066659589 0.19371846930920356 -0.06825815019524839
0.41353805257162435 0.2025946164742436 -0.05545438639940414
0.4978792501723177 0.18714951052092488 -0.08483222322500694
0.5192538037649399 0.21520463996503736 0.012505701629706323
0.14011721717562864 0.3542250404070444 0.34675408790934625
0.44123535286956894 0.1870727255399629 -0.041256100004403606
0.40410457022036894 0.1998611799731549 -0.1092719916001954
0.4903720818167301 0.23415794512540344 0.012254349640215878
0.35002119189059044 0.1894557722924617 0.061914516903897265
0.40516975234075403 0.207374349597103 -0.047193197991902025
0.4521241022457758 0.1940996490191651 -0.014556133081327971
0.4913573106187954 0.1969384576397033 0.14532173061388676
0.43327256750208676 0.23052983068004096 0.02173484181786023
0.33473462015000166 0.20341468373851512 -0.03217629707394565
0.5005725337810816 0.25843777587652994 -0.013700575082992827
0.4538190300113598 0.18741426677145512 -0.09052520775281891
0.45684159361022125 0.21898469088603179 0.017760176773251146
0.45071301237427974 0.21524709524439345 0.08831968022956005
0.47929877412352084 0.2515087007718364 -0.07071828829620586
0.44328661967816174 0.20806738919449685 -0.1318335212840509
0.4902515990667098 0.18481451015203731 -0.044461308710054936
0.436728289684595 0.2202383035677684 -0.011044899386590146
0.6444323123149047 0.1471827328780364 -0.08077972370938369
0.5050337018670916 0.25881708983871476 0.0475815167467033
0.41699076157588877 0.21354372516412923 -6.15508570547263e-05
0.41584849552023684 0.12128004230365264 -0.10778440707792925
