# .PCD v0.7 - Point Cloud Data file format
VERSION .7
FIELDS x y z
SIZE 4 4 4 
TYPE F F F 
COUNT 1 1 1 
WIDTH 795
HEIGHT 1 
VIEWPOINT 0 0 0 1 0 0 0 
POINTS 795
DATA ascii 
0.44472324928949547 0.19216592105438224 -0.02063584859061507
0.43143152454433675 0.2026983554034416 0.003969069095305144
0.4580478001148549 0.22186195471979886 0.012855152858094243
0.35078709595256896 0.15983341084117342 -0.02006066222695324
0.36247963482475143 0.23936666771075465 -0.07751543115226411
0.4256968414431981 0.1919730786609648 -0.08948730056641807
0.45228558545817066 0.18461578313292648 -0.029259798364904555
0.24766290524888745 0.14499105285962344 0.038002900897168956
0.4213156272031142 0.2019003441543532 0.0026707469740188117
0.4979155178440777 0.231383362092501 -0.028201022167422707
0.5053438094871723 -0.17787772944521407 -0.1411690639058918
0.3254286597361329 0.16553663424716092 0.05390861963947202
0.39119422592337116 0.18641649321003229 -0.0007779872772175622
0.5049469537882629 0.21555059961679035 0.013488159820383316
0.4918420587478778 0.19612016541253752 -0.04619668873593241
0.32022638397656067 0.1397203039792032 -0.08092564481299291
0.4424069335989316 0.2062845543727576 -0.05988019781204912
0.427114330362798 0.19989674457441708 0.033691766526317224
0.5115342963241716 0.24034468886748073 0.0404357746751316
0.33316728378538585 0.09267217129057315 -0.11274564472233806
0.39929593888174963 0.2146202391602685 0.03231776285601029
0.41546906962379637 0.22590936908602544 0.018501110155995093
0.49028806206075615 0.21509904493967724 -0.03446218920019817
0.511053130763031 0.20778955454858306 -0.1050176437330208
0.41496629807973306 0.1889482234059443 -0.10877526092505718
0.38268449550544403 0.17097466388452176 -0.0005415617118131877
0.44867374127464643 0.19568329642336835 -0.024468329934833832
0.5019511264093097 0.22894127815513343 -0.05813169672619267
0.4642946366011813 0.23189043683433397 0.016718013826562128
0.49020699422673886 0.1619783875387384 -0.023147967068894104
0.47395975401471446 0.24744888483604655 0.019300021519754296
0.3826449094266735 0.2333097293201689 -0.02607626006317787
0.4393802017847719 0.16430623921664278 -0.007117134550668425
0.540099879275246 0.28450755634239044 0.02336191533845522
0.5183194479835151 0.23408617452477642 -0.04703626868845845
0.7177941026291705 0.585082224715535 0.15075326076984652
0.3840488570941716 0.186094956805249 -0.023873578929439532
0.4383092884569777 0.18260331825317166 -0.03618306130229598
0.44686060415514817 0.19010783885090632 -0.025354527280057937
0.42115633761312665 0.20674283407777239 -0.09698078982798108
0.5094761262374874 0.20846469300059312 -0.08484826368159304
0.4142276365419093 0.19290942547873158 -0.03431853623864356
0.36574734106064 0.16943756663141585 -0.07765988953380543
0.4448500407878129 0.2517032914055335 0.08298646781877039
0.31221686200130705 0.2806385065101864 0.052841281403360085
0.40483955580108955 0.18357572686447554 0.0227109561437544
0.486423158576045 0.2507533951740015 -0.026518893768425755
0.4615049030764311 0.23408710194306082 -0.061723431630639425
0.48132095017116683 0.25541940573776856 -0.017358864031621124
0.42522279004379016 0.2041659527923514 -0.017149309865203577
0.35163301652835344 0.17332136944429521 0.0035763102210069064
0.48176353113701964 0.2004410294834429 -0.039339978644065354
0.46485071533784605 0.22407863295173058 -0.015061011326153562
0.30892939493536176 0.09875878355785517 -0.18201407445602058
0.689369634129875 0.24775394317613575 0.07075948771371543
0.4605568538760423 0.23477244013579934 0.020483907905088472
0.2097866819092502 0.2035166813602416 -0.04284228618485031
0.4320243632861178 0.16323460943624468 -0.043582718123929
0.37656233918278303 0.15830154117657003 0.003642424873675054
0.48135101474302644 0.11313702233181289 -0.014907710773769622
0.4930885428913001 0.18264527695646393 -0.06754385360828508
0.46054827382228325 0.2170740462511418 -0.00702958142281318
0.4471964448063517 0.18771016755491132 -0.03799160052231798
0.49123684297778425 0.24598952516902273 0.0037933522480813053
0.4784631476319845 0.23038192292762005 -0.023945488583365204
0.45370818012618486 0.20084712867128474 -0.018732660938013623
0.4663778156273395 0.2232372555120321 0.017182194078941393
0.4583436174037132 0.212352549000542 0.043299381965510975
0.4803355311765074 0.18683399483764163 -0.07013172080709751
0.42436975768082164 0.21033050865426617 -0.006861909179420422
0.49834423363645897 0.23844361385096136 0.016001300984669342
0.48432213639225097 0.16284586745958052 0.020334081055523257
0.3813417403335819 0.19726334749917385 0.034877252820663784
0.40138578492424415 0.1887271875173866 0.012878475402857248
0.40137039888689685 0.15710920574413478 -0.04725739722813671
0.37493046561645826 0.15607343019465247 -0.009353605705527457
0.43553827976504067 0.18615996770816423 -0.033540013014516035
0.46946010084324996 0.16776390322706902 -0.08171135758522041
0.41097924975233013 0.19804599124444167 -0.031157539918709176
0.43886321234708703 0.2001840905754051 0.0162177263611909
0.4554847223329972 0.26406785287159096 -0.050236027526096905
0.460404185115209 0.11774944095191131 0.02878100969951447
0.5033258367813005 0.07970525238532389 -0.27039852218126725
0.43401703049596563 0.17635335794838625 -0.03545715670696836
0.5389870312710343 0.2687821380150268 0.033859546155326825
0.41696007692173964 0.19783028931362878 0.07340247429723945
0.43734876914197685 0.18425511221670376 -0.02451216982919391
0.5048778420623279 0.23374008823131476 0.0032221963249128294
0.4420695166185453 0.1865325180295372 0.02462751943181729
0.3821996668927312 0.1780641787143793 0.01191388577015573
0.4567200651224539 0.19175713893427826 0.025249679468402064
0.3831077876310047 0.19451069405070598 0.05905795814678072
0.4509966155541747 0.15222015530380872 -0.04583453345584587
6.087112224014021 -1.644551055515251 2.7035857722914898
0.3376663711311636 0.18341145439208617 0.05978102322984569
0.43702020277555675 0.23221458062596412 -0.0748261892194364
0.41479866488568007 0.1940918082807883 -0.016200689593318884
0.4521095803006716 0.19936355222552038 0.015737470173604606
2.396503503700174 -1.0635274208543137 0.8416419601956591
0.4879405983002698 0.20710221354026714 -0.007259084519375847
0.5761010174187788 0.2823124110250319 -0.07494218880950143
0.38765984092403016 0.21074674241225466 -0.004142704744779735
0.4510521121912916 0.22149625057662092 0.014508417264465834
0.4752524383474963 0.22909715791202245 -0.009792465194635724
0.4487584322523759 0.21675607271087927 0.03164220516849525
0.47436161010358546 0.22840347123729998 -0.0003914371076092493
0.47418259411384156 0.12993680592823864 0.33695050815202876
0.47364166120084406 0.20513637086742165 0.015027408175313894
0.4345933908575148 0.20593797927931234 -0.01427798471942765
0.42567492622100644 0.17237973122556127 -0.0029247096978792797
0.4384893928600917 0.17337262940186804 -0.010288398259859832
0.4352550913056774 0.22948147252589024 -0.03251838400359475
0.4634830103106111 0.21200145070130816 -0.018200285799736093
0.4531779845259649 0.20186466463658803 0.010055208469140098
0.34197299590341856 -0.08618366802892297 -0.3977949409667332
0.3538127880734123 0.08625816130850694 -0.15367690113387766
0.4392977909030549 0.2191769849491152 -0.0034943464954437786
0.44790366876604537 0.1928844830741241 -0.0277734410648236
0.44511597987835216 0.13025753269124607 -0.03243774869594063
0.4334753175935475 0.20099351907762752 -0.026485919258220747
0.49596081043002016 0.28284411405869037 0.03687301719993741
0.5187148523180412 0.21094593942899564 0.08258139660986785
0.6267847835651992 0.21742791895907487 0.20015123001226698
0.36888963129419494 0.18611561063741533 0.018048221942450482
0.4154927929790375 0.1984561444178894 -0.012651736228008303
0.6829143227687098 0.9671754789028455 0.8730520211402393
0.5043507904678535 0.21772508173474137 -0.056776105119922704
0.46066948109849193 0.25217597979113293 0.02873310872712409
0.14747658393910967 0.17699272875199767 -0.0033539965101141433
0.46859335272536384 0.25483300708724244 0.024991466757484204
0.5012146765688499 0.30822687405014904 0.03770125613266373
0.4690795561950125 0.2128182979419364 -0.02537824130783406
0.28975420410294817 0.12761480147464965 -0.03359766392738095
0.4130189410921332 0.19266716036534604 -0.052106477124993944
0.37933854367101105 0.16830664614435875 -0.05352263822814507
0.7300511543158592 0.1289133934412945 -0.19432622808628253
0.4021860496404912 0.20068869126671984 0.041993020672293824
0.43890114132494773 0.20876630022132758 -0.002456124662728598
0.5361889214299111 0.21840913120209393 0.045996488461412355
0.4231135197599798 0.18438955746589158 -0.04499479937328488
0.40394290872472993 0.19785780298445843 0.005064308965415876
1.4421152566345796 0.24355649751699104 0.43413206430903983
0.3887330385236112 0.18733225771627815 -0.06653195253282718
0.44366422021481355 0.16907172477588972 -0.06319118920023925
0.431788947586071 0.1665221794741285 -0.013073676147200786
0.23692776298710783 0.32227997970929323 -0.11943510165195903
0.5156711164184884 0.2578817662680706 -0.04165317784865863
0.45977726233911653 0.21284400029094286 -0.02447313346857527
0.4780701287615301 0.2610785581072719 0.052459808683522624
0.41792229651888135 0.1717549639246272 -0.05852216576552394
0.41641095075962653 0.21471238680379656 -0.021683671508142766
0.39132689975551216 0.13165969393116939 -0.06696347671012859
0.444399349292226 0.17202469534923637 -0.06366148171774455
0.41679168166103864 0.23441835938638178 0.09299629755608407
0.4475426625052563 0.1268772810126677 -0.12183884824557367
0.4654643797284166 0.1614453950284087 0.02317893088496703
0.35222213588491513 0.1839733286802243 -0.02832417966138223
0.3672965810859097 0.13508712718274296 -0.06123203330071192
0.44109065312565576 0.20383752854849035 -0.03521899774864323
0.4370856995053174 0.24397332185756682 0.028435241983615356
0.4927859808168904 0.23116911194370005 0.023905014317691098
0.39003611861666343 0.20667675288510168 0.014884173034261039
0.4711862848024424 0.2111053434102388 -0.023039214592927237
0.3908112376822004 0.19530908661661783 0.010045811929416004
0.41381269401910004 0.18229520671607702 -0.07995025357402596
0.43011873095386477 0.2065310942162455 -0.012479281542084664
0.431446733564826 0.2522297770032651 -0.0013442769351286188
0.43981183437007587 0.19867499527009613 -0.02093351282175604
0.4523094690595144 0.1828424481778086 0.01021133569818744
0.46550337723934376 0.20764441771476072 -0.03529577897525371
0.3848535818655847 0.16991897051551064 -0.050803022949210686
0.4628931583245759 0.19794316573305082 -0.04432849493466051
0.5549291422276639 0.2543540421601165 0.11475580211907754
0.4203264179586199 0.14029695673887943 -0.03707150129237391
0.533732383921631 0.27050765975496915 -0.052494573749214624
0.42584603549768474 0.3171744716013336 -0.001288779620040259
0.46810257645994113 0.20437531256700936 -0.00931440708802711
0.43253636102440396 0.19208060828084683 -0.02887728790645383
0.44788207979881633 0.20503608725189792 -0.01247479562775311
0.4750964579067727 0.24095708695153917 -0.049034717660561
0.4463087479046095 0.1978526902281601 -0.0012504959590273756
0.4839495295563978 0.21198501625369204 -0.0774709190233267
0.441896749967043 0.20243428983778244 -0.016129096791317465
0.5643053610656636 0.25400673658424466 -0.02406655470500141
1.124137578424424 -0.10106600520215636 -0.013054649091827741
0.4854627297697647 0.21298367826125286 -0.04027987905489283
0.42134556396165124 0.1889516501741184 -0.03819521984326002
0.47500848455091216 0.23497033898452457 -0.07931058067100594
0.4610792146925178 0.19350329835722846 -0.024575951186506018
0.27669542393233826 0.1018234718378892 0.015246922571819255
0.535480168329272 0.060632826779084326 -0.15245947238111057
0.5981266090520592 0.1085144185588689 0.04604244519123313
0.3451167267600681 0.15423474435374374 0.008562770379228368
0.480248757512058 0.28419298106933866 0.05518784248273789
0.34931694138265357 0.14375155876908252 -0.01936909204442827
0.49941157994676644 0.21525320691812055 -0.03178093567117912
0.38312381796511374 0.20769590408610838 -0.03364789920857447
0.4057593355597362 0.19627527020337254 0.010587485801096364
0.46118128944027603 0.22283743042584092 -0.014133565495669131
0.3807618239296886 0.1620300342625427 0.07391857099841559
0.46752603305321827 0.19731951786451418 -0.0075982586570404465
0.26989656539835494 0.05226940419186121 -0.004769306909949478
0.3332223790456794 0.13133924606592018 -0.03382519483999147
0.3807262455858762 0.1682249454775615 0.024953266381132266
0.4894464708301882 0.21731780767251507 -0.06752835444314087
0.4933534145933862 0.195409079513297 0.018103428587011194
0.40129332454198163 0.1972493893202767 0.06085364852697239
0.4463993915515232 0.22294962351301706 -0.012401951462976513
0.41589024466433955 0.18121907251412495 0.022540236452158524
0.4402796437643417 0.19331514976150288 -0.03935210464771899
0.6446321129119355 0.3225556906536582 -0.007850217489973943
0.5319427805982713 0.22069953091371985 -0.006328404612403915
0.4243689191209228 0.1818255053006368 -0.08056222855475426
0.3928652097242349 0.15080145610104978 -0.08412767724513515
0.5927694664873258 0.2972937775553106 -0.002576917567921555
0.5462201538099549 0.22097868749858662 -0.0474717643951692
0.46005026867092624 0.2003447461737835 -0.030954905006694844
0.40163624641000695 0.16583334760886714 -0.06825113564629248
0.42652662577607714 0.21497899374219287 0.023349734426204805
0.42143682411013117 0.19236774786566002 0.008652510310625416
0.37466130409018206 0.14435212231212802 -0.00945823752269348
0.4219399885383126 0.15545161614093672 -0.04524683564775955
0.5221066528285689 0.23375494883157444 -0.08312056087325459
0.42906308591427944 0.18106685342101514 -0.047008309689204
0.47967886462156173 0.20828162080383095 -0.007834973200544937
0.4645600559605185 0.17019897254699856 -0.12121691764049558
0.4305093282172976 0.24426460387633142 -0.016901771142855182
0.38444447756423017 0.2023487362160381 -0.0353032413627119
0.44127305053606847 0.19193521335483865 -0.02428654751579984
-0.3746409884842876 0.2938615140259202 0.22215275922953026
0.4646969489614463 0.22388118813543656 -0.0032371126649763937
0.4106815387111453 0.20243490961027533 0.0415115736431062
0.5209202233458541 0.18991708646112215 -0.012124723316048858
0.4844996289418191 0.23722758068610972 -0.017623963523007546
0.5046738880928103 0.25915118986756625 0.022776526650005735
0.4264193962440004 0.20588498675775213 -0.032125268851785904
0.5761287432146247 0.4016107745676578 0.36441355329557723
0.4769808646075262 0.2458168993826888 -0.009929077865621139
0.4607195168347715 0.22889207733942385 0.01837815896968209
0.4805746167230893 0.2454724007261575 -0.021620352015006006
0.4962718667519823 0.27484614501611304 0.11936167939504116
0.4857966142124184 0.2310713271806435 -0.028664510138128207
0.3845242147661594 0.19160855056625792 -0.04593674992169383
0.4175460142689076 0.1759755414412325 -0.009633597908646152
0.4511062563012729 0.19689363763276901 -0.029086586079699828
0.6980903356728874 0.1772524361230694 -0.18040737746423474
0.4547841779023969 0.20879644926893093 -0.02616379334236285
0.42273989749925533 0.21470492321014945 -0.025022461296558163
1.6732544910351663 0.7367353760296851 -0.24160379233286733
0.4403708653756979 0.2149559290616594 -0.024468374660983727
0.4289167010023789 0.21020537827433827 0.008865989570523425
0.4588525535347543 0.2773294102829027 0.07427671976351746
0.4349369309040867 0.17044269021366176 -0.09770420619435072
0.42097227370528856 0.2003618309639279 0.02219376922784022
0.49626471322018517 0.2242038582345316 -0.09233628699013252
0.48895802651753684 0.23829888743139804 -0.001661579089855536
0.5750889210994217 0.27123905100069123 -0.014557420791987852
0.4314874466595171 0.2045860626290903 -0.027569309890424165
0.4948831436640546 0.23388363804565415 -0.10998050346174182
0.4835834095398752 0.20579820791327563 0.03166412229293769
0.5057356393491119 0.24196805707123303 -0.09685269996140278
0.46690337334915455 0.18221368049546527 -0.06842958506572927
0.47539595780709476 0.17508900337116984 0.08478573604124051
0.435586806608697 0.1792896006682554 -0.10561910836153743
0.456508267532584 0.16064578475638314 0.004912323646763639
0.41374828479079895 0.18240666725866106 -0.004602672268219976
0.45536819237987913 0.19679725949617932 -0.017929329865125965
0.5572876692530428 0.22949918282159842 -0.04617815967314698
0.5599583896564582 0.30054927077122784 -0.12405687606917581
0.5127519034611225 0.2678589337699293 0.01624921533280599
0.44756237852419645 0.20810429212235704 -0.07783039031531302
0.4288638358683414 0.16147071383505818 -0.025255587553701275
0.5055387355576357 0.2532954957175946 -0.045379666267635344
0.45795895735230374 0.22203525215067543 -0.00529469459601728
0.3430804905759999 0.1277806411173117 -0.0015099079273284133
0.46561681217512785 0.2230809679622041 0.014485680009244106
0.4641323073542196 0.19836711251973327 -0.04776880781795967
0.33123045861397316 0.21227987348581223 0.011610070460207567
0.4416697176587263 0.18529500062200555 -0.040006552741360224
0.42244530504505917 0.21097986414687853 -0.049127900986178474
0.3735023732334639 0.178890526635044 -0.09930763895177108
0.32193559792249005 0.1355823540331329 -0.05687488578435307
0.44742396883809477 0.20026703625779874 -0.05462850453363899
0.3640485339882247 0.16516957754353712 0.005800716686508167
0.4855861735117486 0.20955483417537835 -0.016106044469410108
0.5029987374356324 0.22996765020916143 -0.07183556327908036
0.40029676018090754 0.15451279942016072 -0.03939559964422301
0.48432599882646343 0.18167427429840188 -0.06202714701761636
0.4111489432013258 0.16523654790714204 0.0700552394855265
0.4719060230179224 0.2394490688669464 0.06981222338595217
0.4905727956256385 0.09996957921997307 0.07362892013622968
0.456710632176339 0.17092821354721366 -0.08281126015376117
0.4336740135093464 0.21776187345696485 0.01461637958074391
0.3357827012068384 -0.462951398774905 0.34633485499554695
0.5043531584075254 0.18645309709262392 -0.10395084921194098
0.5109879488141331 0.2855420213461173 0.06863091517816144
0.4807872253058463 0.2538438910989953 0.013402702979007586
0.47860866125411405 0.20117704826552085 0.0016511588794969612
0.43287926697111345 0.22355246034912568 0.006972047353485777
0.484927301438546 0.17626226413574386 0.0023029176442292965
0.5228828876608702 0.19645382008629042 -0.12872620332160523
0.46539187417894823 0.20100410098515908 -0.08667013622226705
0.4760163143760252 0.20050079795692 -0.11120574711625864
0.404003684466673 0.19920790205122785 -0.009921880028258556
0.3909360334958478 0.24553238447066406 -0.06747523913526265
0.5256348796610695 0.25600522238303824 0.04297266916049125
0.4010918159514887 0.16399497779649153 -0.004468877523720494
0.4580031531021689 0.24830625070413248 0.06769467355150027
0.4560915946689619 0.20822497674369345 -0.03166878385464145
0.415285078926928 0.1791922253110272 -0.11507790559747377
0.5041970844147556 0.2201828160835504 -0.07133840302390126
0.37575546462332454 0.17574036434889706 0.08431204370144485
0.5240435135445836 0.22308988820353193 -0.05219980696031712
0.279741139187891 0.1679256529817792 0.0015298384777793217
0.4540188307626494 0.23448634457022877 0.024017827473443276
0.49508948364432115 0.212302571772355 0.006209359032439465
0.5023613076792373 0.20879836862147272 -0.08188034244945186
0.5029401942875324 0.27308285380357233 -0.12908332466193428
0.466712651442279 0.21991202196245752 -0.08255187381024598
0.44507241609990444 0.12035574859163489 -0.04416274203440196
0.39847154231912896 0.17758292673858023 0.010585775941109432
0.41341912751731513 0.18546519493165192 0.030143604339230023
0.3363109164637734 0.1315592774419656 0.01495031498224364
0.41199562848150606 0.19969164224724523 0.024401254414826212
0.44681190862023357 0.1973472663578093 -0.045373841657976755
0.6259342957240506 0.20986473278216522 -0.07537612522270365
0.38581331479197445 0.1076704292268289 0.08252519410910963
0.4747748696495506 0.23630066606457945 0.007211478643483815
0.4114797086774473 0.19702761829753968 -0.020369274177525654
0.3862979050268365 0.12748300296418336 -0.055737257900375425
0.37306109190296866 0.1657329094543627 -0.05067784830046662
0.33427582739355444 0.15946212249711778 0.06272872678485442
0.45848322251751483 0.19904044094406004 -0.054371917776393275
0.4608361674136603 0.20864546419024066 -0.029984966095440768
0.4217861235982667 0.21722566279365196 -0.036311654431131046
0.39684223709481614 0.19400669439599483 -0.025558669689928593
0.44727461077168584 0.19155326907630865 -0.015314046940929416
0.47690734920247735 0.23271300404881856 -0.044517197368151074
0.4411029863704101 0.2029253442366752 -0.10494831981934283
0.459609111160006 0.19308302218769313 -0.04418056647831747
0.5030335099241796 0.2996536026308263 -0.14922193462395228
0.5216838324264756 0.2880900827273365 -0.5059585747240192
0.05873849728548919 0.3821931798311198 0.1345292435287604
0.5054165048639447 0.18350633622125656 -0.11479543183605756
0.46955023614809477 0.2460524788550913 -0.0101390454908028
0.40896802142788147 0.18727278583119755 0.025254215629701093
0.4354530385949573 0.20366436816634348 -0.03344605075017171
0.38735875162335276 0.1794148871383925 0.000949188697532577
0.4331188586073864 0.20260560751245293 -0.03360199454755275
0.42726904476609207 0.18514412867247643 -0.02643259458176317
0.3964134330090303 0.20415140821344835 0.01577048365572864
0.4739548379931193 0.2506998705733139 0.017744607891160058
0.5242614533095633 0.21118923381210664 -0.01973356111923863
0.44504120467793484 0.15398618339783354 0.04202842052222877
0.3965325514168825 0.16130048323978485 -0.07115463263488664
0.3725105139678817 0.20491023264192165 -0.05531629209434641
0.3883803782127586 0.13255009142028484 -0.08271429006995845
0.4404348801316047 0.20488030361420329 -0.07797873336166106
0.29718044080466655 0.1541740130265481 0.06981249587657601
0.5203635184713988 0.22761420447514524 -0.060787998833831125
0.3861667262762296 0.18298302879153994 0.02920281542267844
0.4168801156526598 0.1869076563973664 -0.07593327127169403
0.5290443937348357 0.26212527937693153 -0.05932865927155717
0.4557409558910024 0.26749889493265755 0.015579757311229514
0.4575796322379375 0.23657762610648092 0.04469916866958101
0.4598269172076215 0.17676531850727883 -0.05717961785899206
0.4584640181140145 0.06370432407965154 -0.01247377688586937
0.1963899531222637 0.04433564873301066 0.04227763295642717
0.391252932614762 0.14824536853552672 -0.06001333341491488
0.5422867918845782 0.2306369409055975 0.07966662177204853
0.4793190023529803 0.19737368505191455 0.012338218515708377
0.383371516121926 0.3986026404411973 -0.14455214379466952
0.40237154175621015 0.1565515060128746 -0.060662412661116605
0.455590588951722 0.20644090788593417 0.015756636834481696
0.5090964585189823 0.24429112489609395 -0.013595703123939984
0.4494070060325015 0.20728577237923673 -0.010740912401189462
0.49968225949855594 0.24628157786939653 0.002816735582172214
0.47404135069227493 0.15380054480419858 0.06374161021938107
0.5030013732267236 0.24334054893319035 -0.05111549546485605
0.48118485479049866 0.20559457665339664 -0.002303538209673661
0.5089053801296899 0.20300729897147107 -0.04130240079911118
0.3664785319872408 0.16759653265205543 -0.10995141461363289
0.4156898381062035 0.1959824665897969 -0.0564257565836499
0.3859893333867177 0.11044451785012654 0.014489385125699528
0.4546529131142023 0.19810548358358915 -0.03385886033696295
0.32461153614978855 0.16127048662167454 -0.09226574943893695
0.4300716583886697 0.24890698073113526 -0.083130049735189
0.3776989446627681 0.23354270057100734 0.016613606242742662
0.45079160799396334 0.18776230953460527 -0.12023891357364391
0.4148874178837758 0.19887816085409327 -0.00038840425341390983
0.43153853080083593 0.20102852632700774 -0.13715803088146572
0.41921525550037586 0.18708346793536634 0.019587542601499308
0.412961907451205 0.18251491068468795 0.018366308980702684
0.6636163208429622 0.4827337934926561 0.023165543282445356
0.45339502106509144 0.290028175081261 -0.2835195147729621
0.4664678772809765 0.22322301202075323 -0.06711820719269213
0.4074403631434649 0.18275195856963933 -0.07270001095857026
0.5395802104616507 0.19606309853440962 -0.11454108263535545
0.4420793515943586 0.20427469499446715 -0.009311513768011537
0.45411486458938555 0.1770824456501714 -0.06251115319292921
0.4021052659557256 0.19394199060057815 -0.002908793807009147
0.3704692787107291 0.15446139755073318 -0.048107084426433744
0.46974564540792585 0.19265404509994255 -0.02614378723474431
0.0612519437018193 0.39576676874560235 0.15329999007806805
0.44342822287052286 0.20320303693890196 0.017824295930367384
0.4709685296402739 0.19375727382302443 -0.03426456339064998
0.4308814417890119 0.24305287812705956 0.06160845996927833
0.4241427051626516 0.1837978120748005 -0.0647389731203134
0.3526983029139785 0.4711176639984558 0.16607353476722153
0.2877275998742732 0.39185429698508756 0.22093309734003697
0.47104996381085584 0.2600373720095348 -0.0541672779643676
0.40150965946118333 0.1747335670529111 -0.0904212581163506
0.5481687202049841 0.32328825388034943 0.061827717612715105
0.37019400630781263 0.15343558112073197 -0.01948110149432125
0.5363673524759633 0.22531678467225902 -0.026833092974470674
0.3412380914219426 0.126921285103748 0.04393523352072748
0.4443912141619961 0.1947669445273874 -0.050188367933571953
0.4037431124408499 0.1564084818789695 -0.0671417785399342
0.5200941363569882 0.22197314247512168 0.11090683088325193
0.40491004012838516 0.18483338004433847 -0.09012324769358315
0.4239986116808865 -0.0012248832460670656 -0.054427054131224395
0.4573191375406509 0.23116451040939978 -0.02954980111110217
0.3804948942046167 -0.053654081152984645 0.37334282102035843
0.4449535532947664 0.17370440922181274 -0.06915001600982862
0.4702671068170332 0.23038044316999162 0.022406957245124204
0.44098764039007676 0.20969383716575862 -0.01566640488971416
0.5549412715439104 0.29300507852573787 -0.16014417923476287
0.45749456913507913 0.1944222543377805 0.007342923176310023
0.35106855725764774 0.18568334699313027 -0.004003664151980502
0.4883031277397549 0.2493320107219148 -0.03753042280075647
0.4868951430881481 0.19335090220802442 -0.06461866015874307
0.49780426282825374 0.21767639852788534 -0.025589066859055265
0.43983719237522223 0.23204221197596553 0.004866012537263487
0.4606563999498263 0.17314655575086135 0.006487075273440723
0.38345782030874886 0.16784950243072672 -0.005496010395489748
0.4727292986104885 0.22067678850129369 -0.013145477067638467
0.3609788902493136 0.08360979196625351 -0.10557422972505037
0.42799156836973395 0.1989895239270254 -0.017825189524316443
0.43488301158450327 0.1812932752468015 -0.04836712749209937
0.39164864724331494 0.21025221112704173 0.10162160002712994
0.49286046918528825 0.2217734411428154 -0.014217207481948435
0.41444539190352714 0.17714262558610017 -0.07056725168244782
0.4907459706409725 0.2452642004411132 0.02560702758924549
0.3167391676677056 0.2011032130877055 -0.04664330122892579
0.32077175735641106 0.27540741965047744 -0.033849135753129644
0.4697975248252817 0.19892600147775852 -0.06372930770024254
0.45655487976023323 0.22940173959558763 -0.03040072999725396
0.4029408254893667 0.20081092182763882 0.026998671742489933
0.45453476255383407 0.22447249747018816 -0.021560481002779852
0.4567147267582925 0.10275132387306485 0.06423905215152104
0.45879930714485795 0.19129835647450477 -0.08640502417947005
0.4658685002468701 0.1932905824750577 -0.014446404979310046
0.3108327806949376 0.19475551674915437 0.01875017352830355
0.34106533065143196 0.11986045849280913 0.01500772321163879
0.52996677747538 0.15895940903446615 0.014035905161193796
0.3765594708091413 0.19749662041948568 0.024169164110801944
0.3930567803813574 0.25977086499938196 0.05176983354560605
0.40289286732659946 0.16158004921763336 -0.033605243400685936
0.4189316788162074 0.19184736393299318 -0.08691153013384678
0.5130403124263125 0.2410707863871977 -0.0018746357409042957
0.4669903755655582 0.20524511934974043 -0.09944030811426785
0.3757731882505624 0.14380074896672568 0.018483850473643315
0.512284458712216 0.22620692992791192 -0.04721150548277819
0.46801665526272984 0.20400479869576316 -0.04335443918736814
0.4739752962799457 0.23443298956993885 0.05473970351832236
0.5086137386853125 -0.37623314133472263 -0.7187488505486357
0.5004084603091883 0.22698799403022463 -0.0036395917060474403
0.4431311235306197 0.22947820656099793 0.03718685971476532
0.4682003819804663 0.23758232519436717 -0.05808693025122125
0.5044275251954531 0.11671236573475596 -0.1779555438014313
0.4321567268117974 0.2144991973497099 0.01634061958195332
0.44956907218748654 0.21284950112602985 -0.02496065201343356
0.42469859105615626 0.16245332948064117 -0.08959867276696798
0.5722474066614609 0.19121249859898626 -0.028347183726168623
0.4356404845374868 0.16283319851881117 -0.05386459862560855
0.44978402702341214 0.18976531272829789 -0.0893410278670359
0.451178639622384 0.16760971600064067 0.0008169313285435464
0.4343519832010969 0.19763540616898467 -0.08105773619823253
0.3967993265030145 0.20976487487382656 0.013167264478283869
0.44353681967221803 0.19418692537099957 -0.011139976412295027
0.49749357390253124 0.241955548229285 0.032899196523771934
0.43060951664431 0.17226599161556067 0.0021990410521937065
0.442418274086549 0.20874899856480056 0.021780865155477613
0.4674402103902793 0.24087854450385748 0.02314913988593048
0.43775255359032883 0.21510351833336472 0.045584937054599095
0.4623218655731449 0.2566297035660625 -0.010558899027827806
0.47052770820000944 0.20858995126721425 -0.012872133712122036
0.4309496647211688 0.20995839938871086 0.016486214923091325
0.4196020254314021 0.22701976244013622 -0.020769274535425097
0.47532285579096367 0.22373023870585484 0.011776049143037426
0.5258272243896585 0.20596679027599407 -0.08081615198511827
0.4387078376847455 0.22534225345438585 -0.01988410312958422
0.45655114734860547 0.23666478778375222 -0.006020426361601494
0.31223593654335957 0.13581253061043697 -0.10177335130745746
0.4749188963441213 0.23607414592450482 -0.051145722221491496
0.3817655391858352 0.1867497278207111 0.03551525084486684
0.4616966130383986 0.22715959364434468 0.007712721416780255
0.4188842860238964 0.1900623437614115 -0.03352296335783933
0.3982437714623188 0.23044929759299748 0.020456406865719146
0.5474355989244089 0.19601570954834813 -0.08241358629310014
0.4545443419932411 0.2740324437958179 0.051465684367329345
0.40142578633110304 0.1917708056125491 0.054283997812063944
0.4931407067902285 0.23532842198133608 -0.02152042356601669
0.5188663061321961 0.20110031316885113 -0.07083214977855334
0.5247080145898195 0.26745385940728283 -0.06663376187566428
0.42659685184037244 0.195811153706984 -0.048672569357989914
0.49958346956427135 0.2136706988581949 -0.019240127370039772
0.4508643064368414 0.232909883547606 0.026329674708961193
0.43856234016543283 0.1741040528758333 0.0015163209563127111
0.5160835497225946 0.24596037261295578 0.02535359230513734
0.3971665270674407 0.1908202377737922 -0.03896160122707215
0.44840937347889565 0.1890470117734253 0.03194435884051927
0.42732128710184725 0.16259483178919254 -0.0021453026081132975
0.4769804597926566 0.21430922488983128 -0.03990726544772372
0.4246952155275352 0.18455393416223842 -0.038978019459307234
0.3287692770021806 0.1527820571451315 -0.017873406239658607
0.3907606860025794 0.14742075473728278 -0.23021207210889827
0.4788554907968745 0.21666933733777682 -0.018899809913747845
0.40064477163808476 0.1642334129313383 -0.02961064242609268
0.3533021073643141 0.13745963508935688 -0.08638609421265642
0.4865307850975995 0.2104576443439612 0.015219471803675333
0.4207487553028244 0.18962297941502015 0.033276514237982724
0.4654108624221749 0.20290326252001023 0.053469683588218686
0.44263143869892474 0.21392616224393635 -0.0038506716095696447
0.3883590646384505 0.19251307281356844 0.022621072721364044
0.41981812516799266 0.18681870685225022 -0.0317474881340587
0.4361075193778703 0.19821620163418174 -0.010074016482590764
0.14205935573326656 0.5845711030270166 0.17108292567715466
0.4196385681680823 0.1820640067027881 -0.04712553606955794
0.19053996364365844 0.16849200396345054 0.0707903992911838
0.44429419008343984 0.21067917204722164 -0.009622858919385635
0.4485752132233216 0.2008576650687246 -0.008744623359575598
0.40759232912336074 0.20328407861299524 -0.029892372910865106
0.4109098294598539 0.20948959666185374 -0.004395639634012127
0.5493781247078857 0.2843364765100347 0.00545801972668869
0.4677265276541789 0.20238656511780562 -0.021816607160403123
0.44251720875158185 0.2981105587292632 -0.05686345946682536
0.3613783569735318 0.14705813014039393 -0.03396713620850278
0.38339421672571916 0.1802522433843592 0.005933188823448177
0.42318530843623137 0.19211119557058964 -0.009235589285879087
0.14192230915649873 0.14883715934064412 -0.2587892954199731
0.4624964651253549 0.21155899894428387 -0.023559032398623003
0.5107901472400869 0.22723844076148225 -0.058320122064259294
0.4117317767815081 0.17400097262947156 -0.05797519549594199
0.4294657394512029 0.1660920986290222 -0.11352180493258857
0.4997641868828282 0.18564592335221164 -0.02689539608860514
0.3968884987763204 0.1968949955658985 0.03204502074916604
0.48165061829226374 0.22508592011126893 0.03607747589384758
0.4836612950831096 0.1938379634277112 -0.03002677146429278
0.45429772468700946 0.23545912125041468 0.00926733740327279
0.5492954956144018 0.26561614353356333 -0.08098165043415406
0.37985069072713884 0.16087110259738324 0.04458462754315917
0.409893868705268 0.1814784478651461 -0.04097767649578543
0.39760382510930015 0.19062718723382943 0.005936557462007386
0.4644018734065014 0.21997138668278637 -0.015251555856082177
0.42348099962124763 0.1596789386087636 -0.001678970158309312
0.363282950235174 0.18596013433949565 -0.038058587451160975
0.41729438612992453 0.18915604289668408 -0.004500426543742719
0.43020873498399226 0.21410356147933385 -0.007888361808468858
0.4830733935110203 0.22737196685935146 0.05463087903213193
0.4714325750148589 0.1987857132092472 -0.05511296108650754
0.4836743638476264 0.25811862359176985 0.06089521694696032
0.3832635006150582 0.24360036866796975 0.08534131972140813
0.24789837684619442 0.10473123256971917 -0.12376666530730063
0.49459234127955654 0.23933143604509155 -0.018490430277296355
0.3371408354718852 0.11685431459343931 -0.12349453393979104
0.457486805398986 0.17802315740860308 -0.03471831598105268
0.5305589710888512 0.24862508312571663 0.07049826900085066
0.451264187793754 0.18939443903994402 -0.02135203512837336
0.5346005130191713 0.27318689572032895 0.03284092282892459
0.41695456415435217 0.19585151319955685 0.0035704310277395734
0.4352748237111399 0.1836046526402697 -0.04520302434386281
0.7334063273975033 0.14642815020545186 -0.12915028765726788
0.48786239024654776 0.2260155278402891 0.01860109021853873
0.4565032432227696 0.19948819837000542 -0.023976197099528918
0.4670909193977195 0.20243641415390812 0.11749597678499413
0.3779879961604138 0.1727478223583887 0.030374815793123844
0.4844421273920574 0.13113890187666755 -0.009189098583419764
0.43096431314575057 0.1802138534255988 -0.05580263000376817
0.44801875740913033 0.19149174412484626 -0.06619075796734819
0.4506920489235142 0.2064629551109789 -0.14470904722955424
0.459757762490284 0.20605515807724828 0.0043812701879346605
0.4545164362985332 0.19870816064423025 -0.029745619135042034
0.44301815959755686 0.2093985227411963 -0.006198143807438328
0.4017156593613862 0.20046712081304463 -0.047964383732335136
0.4199211426893896 0.21629304313998432 -0.009852521320070196
0.4912901488161907 0.21547319325716785 -0.049612004835452694
0.44243411992692927 0.22979278755951782 0.001965393251680325
0.300312708579753 0.20408294897943335 -0.010909733665300791
0.413191332394959 0.19413829985830944 -0.07574145200291582
0.4955145770345837 0.26846260393571697 -0.0006416240269402351
0.48930934523922076 0.22675013693681478 -0.0584538604867646
0.40010654353801556 0.381000839745667 -0.05745553945328652
0.5335961174181421 0.24302361182336085 -0.08980268643712463
0.48094456119504514 0.21358574342644943 -0.005857167506547967
0.43855666231910106 0.22364206695294797 0.02202513875803902
0.40916299148534563 0.2094027311994182 0.010999457942574509
0.5509992272531292 0.25967438544276433 0.11851130736052085
0.6786342668854672 0.24547237316359372 0.0058037504614389945
0.4072552809359422 0.1569486811797134 0.02502468375421074
0.2980210549193316 0.1732755585252903 -0.07613934182910498
0.42969185948845734 0.206005136828594 -0.012616450866318019
0.4622591416069355 0.19045421465088452 0.04091430046031519
0.33824003488142296 0.137606930830529 0.010685195846122042
0.633569439185635 0.2618293378799308 0.00424919537189794
0.4934929250466098 0.24781889561833736 -0.023387422797995328
0.4689302283654513 0.19112613629249608 0.0022263266628499423
0.4181948921692964 0.19874928193365804 -0.02524812443476776
0.4392240228801825 0.1989626564489413 -0.0340754156424623
0.4143184225549845 0.18100731677805015 -0.013668930043110095
0.4657049515821683 0.2247364551469957 -0.06458777678082583
0.4027019873717279 0.1470643338128923 0.03117876254283658
0.5012740357240375 0.1965796830533293 0.016126765618125205
0.6748203154880201 0.39399235208260563 0.383106188539017
0.33210639750518567 0.16656333044855387 -0.04271725933894288
0.41168032733359894 0.2058736388589466 0.025414245835577276
0.5245125965706023 0.2703994413620876 -0.0711953678792554
0.5318188639464552 0.2385917604764245 -0.00958827624511116
0.525000492365379 0.15577715242633872 0.02052332881402208
0.4154767449765302 0.17215472159838896 -0.04600121501562171
0.45149782680476847 0.26068471247768343 -0.005927327724123188
0.4766606088295475 0.20379799121286624 -0.08626652626435316
0.41574736513159394 0.13443348969536828 -0.019796871029825525
0.4423510711980043 0.19113709315323035 -0.0210363112208114
0.4359567998653233 0.2486639006375242 0.04154696968804217
0.26807184414155927 0.17421164248412424 -0.11930659023090584
0.4695929974623141 0.2180870727743951 0.00047442277826803547
0.45697227848582145 0.18668291512368285 0.0817851091802595
0.40906397131348626 0.2987279268370031 0.07682300382879248
0.5267471971206703 0.19917235229533503 -0.003468493498104408
0.3770138984345124 0.19525182237607908 0.02565954351686628
0.45118326059073866 0.1903685439414886 -0.006160937742791361
0.49003823659808177 0.16755512973077202 -0.15502581666444826
0.44397304138814775 0.18219360235741533 -0.031236216638063752
0.47231587600604996 0.20761801291632764 -0.0030992612969527045
0.47838689539655377 0.20841736720365134 -0.04119825050204895
0.5094320010367994 0.14327193221993184 -0.10168223706232027
0.4302266942254107 0.19251612692285391 -0.03331713731738262
0.4682675144190114 0.20787794902685164 0.04307455265970361
0.4797638378691431 0.22385039880941804 0.035494120584274924
0.41381282473153647 0.20374646990794076 0.012021674989298958
0.47294814517276507 0.18882002080010807 -0.0511887739935446
0.526635439952571 0.23109070774239626 0.0705139426341077
0.44370490142084407 0.22879822025142005 0.09765302823559807
0.3382328205323546 0.12670572870992203 -0.06270033960269927
0.5484280419095029 0.3237083744562028 0.07919063749488942
0.46448716844284377 0.18753227628968716 -0.023412437196896008
0.3903367232383772 0.17111603319865765 -0.007181079114644717
0.44287742679019004 0.2051725268942164 -0.0050110325472729755
0.36825386710501107 0.184471156512501 -0.026357887815521508
0.43126467777156563 0.19633246583336472 -0.07679718251266365
0.4427318202139361 0.1787663435694924 -0.07686629165877434
0.442367897656311 0.18245171642809055 -0.033250658762653984
0.4213734187081286 0.14888414105848824 -0.07578636314337928
0.426595926780692 0.18005668715531442 -0.058718958394251786
0.5170885196413622 0.24727618454289768 0.019476935789896288
0.40931369081302194 0.22437113510039808 0.014715990846838167
0.3732298919482133 0.26211584124435205 0.003775359983734461
0.444169542777928 0.1933174901358825 -0.02891707018454781
0.5327632428231084 0.27502387568651443 0.06784480404630244
0.5466242141170028 0.26680115143736316 -0.009011374198635735
0.5170790084655152 0.2327943540740307 -0.08758235609727194
0.44404617317859163 0.24228499097122835 0.10722602074906717
0.39242290471383967 0.13640085659370982 -0.10239812957546235
0.3867700627541808 0.14546028860418403 -0.034104680848926705
0.7503110222803286 0.18493674361710077 -0.09784531277624353
0.5666413357573674 0.46488974531597194 -0.47894560859978696
0.7443197630841496 0.028789489554498005 0.03973768777981945
0.4645928339178056 0.23764513489550154 -0.02461748003042885
0.42525980494737325 0.18018592606962613 -0.02464157547071011
0.4451641605498935 0.18773644606250173 0.0023486641254066853
0.48180567455055723 0.2249792106052695 -0.03318460490410757
0.44217140801576704 0.20228631146457587 -0.019207633264031188
0.4410734542380652 0.19075240627130086 -0.04650852000895611
0.44006263302112814 0.20442434236295526 -0.014774746671520234
0.455040562181253 0.09599252663591074 0.08481091160106757
0.3888539846233243 0.15349245560345537 -0.03424707102109892
0.48410120632001963 0.2558087659483448 0.056743322706907406
0.5090839497970734 0.28034005101244475 -0.06067391745662576
0.429640028818838 0.18183284465970928 -0.014891891137992275
0.38879623285572507 0.15087646241761377 -0.04710666007147779
0.3740363674197624 0.13600112138925624 -0.029744180634281747
0.4661243708741978 0.13750970627437198 -0.08395272285565625
0.4850898235517036 0.21214788581428934 0.0024186620268409342
0.39304038858206525 0.19090570704230458 -0.0667788295289995
0.44176514879582385 0.1865259847992604 -0.08399007486158894
0.488104683793793 0.2244332085056726 -0.09107311392068596
0.47701968856732435 0.1633469776181471 0.13797397370630904
0.4653521693321494 0.2585966212449904 0.03512574379602995
0.443829200579998 0.22200988217520035 0.02088199944353164
0.4540132562302972 0.20511124689673466 -0.02422979258706448
0.4110552593194541 0.16548143060973075 -0.04469088520903597
0.4811791801807459 0.1619767347911818 -0.021026148711470682
0.40862085439387386 0.18438557666573274 -0.018129263445416655
0.4676664131570334 0.22227620192678899 -0.013682914630507526
0.4370836476787616 0.1975934322973103 -0.009093873557617371
0.42682363564473746 0.17966012796870245 -0.0011229162539336812
0.4515323132348641 0.22560614943992618 0.017087128499071014
-0.4085458308872205 0.38830399211735767 -0.48263465126828464
0.5265117185804513 0.14917599542266657 -0.05331316497347416
0.4913984632466395 0.1983244055244313 -0.024487980153594435
0.36898808685343454 0.17047956526026553 -0.05546032389655409
0.4776887284278928 0.172226997982591 -0.02358462939758965
0.42593363550459173 0.21473571433328686 -0.009649611800455205
0.434215349362276 0.20106021869014512 -0.015380113486202163
0.46598554489227695 0.23981485259619717 0.049458320806991196
0.42914424823420916 0.13850884385607287 -0.09459344833656758
0.42965466603412494 0.19277884198652373 -0.032021755257602535
0.5816584798431848 0.33635927694419365 -0.06862301296391138
0.38568111796206495 0.14993365859943708 0.04919762479687506
0.31707903816791827 0.18571747671495586 -0.01716562292051549
0.41268597499147575 0.16231734811898946 -0.0003121656022528896
0.42923620871913215 0.20114032135914783 -0.01823477454257727
0.39355827882246786 0.1781300472972589 -0.04753738328838608
0.4355543502329624 0.22512326439489527 0.010058746323181822
0.33869152201323516 0.119433555701562 -0.07640755203283334
0.4029412456123964 0.17293060078304734 -0.03720266157914409
0.45443722880483506 0.2475654470291886 -0.031832033490843514
0.5155234061445242 0.26533344160898764 0.05349453749749955
0.3781166736498136 0.17177478914695143 -0.010857017058924612
0.5017666642588949 0.22760044494123122 -0.00019952630856323594
0.5312652099393915 0.251911187086705 -0.09953479788927666
0.4490994608290748 0.27397764403073666 -0.034611883269533905
0.22913911199611903 0.0946585073653381 0.0079053703330203
0.4164834551214227 0.1881098359290121 0.03389784433957743
0.3945921155282548 0.20143129390177705 0.007021787529737367
0.477236275611304 0.23110153543183287 -0.019287201859697234
0.2769753368431793 0.1392677440235559 0.029402095790828753
0.4661020957706654 0.23073190779159347 0.04076186498909351
0.510790117260143 0.2716275503793497 -0.04889210276738254
0.4761874913268258 0.23298023025186865 -0.061897481442073854
0.6320744005459744 0.1103611526471866 -0.03822522985402088
0.4190190899342525 0.16234781642046414 -0.09483800819492672
0.28898485684511854 0.24983198849439248 0.007647229262659039
0.34626554723340064 0.2062365517415259 0.023857039977542627
0.4286960264064845 0.18241534605981258 -0.07403301287067166
0.5930179985780057 0.28067183509158156 0.012682058070609514
0.3541248587124386 0.19105971042272074 0.04460010417260207
0.43008270244732216 0.13231475520993285 -0.041695263685880946
0.5145644345042086 0.2828875281596339 0.03577976708139374
0.48276105088967824 0.1862948323392004 -0.11765188861673437
0.44006788080749004 0.19727977723908907 -0.03647817098834594
0.6051948467922301 0.5617261793923092 0.4718268740293752
0.32473196339681465 0.11350608680010055 -0.09243253361002246
0.44713818513159254 0.2066999413181918 -0.0024787879614791564
0.49881314124712617 0.23833272691116747 -0.0002736504808353857
0.521689189862272 0.41522227257067357 -0.09614145479527281
0.5320560170024606 0.24593567686231665 -0.03473537443949226
0.40692993727888904 0.19882730658918035 0.006331369333878456
0.4281503464578975 0.20751689932251338 -0.04414853840492583
0.48759224405630164 0.24402336325019292 0.07667239710687568
0.3916066710150119 0.15916013044082433 0.007616941801785515
0.4266705284781409 0.1972925887482404 -0.025599756844940202
0.48722710118360624 0.2183114966117614 -0.014555546782304418
0.36605116491443823 0.16387241983335343 -0.03635792376442737
0.43377861774339976 0.18414900760686237 -0.03492566848142076
0.48766883566106856 0.21122814940432022 -0.014197459745091123
0.44612593541249623 0.19164956190937232 -0.022222964939743406
0.4490294709026301 0.21747937242705007 -0.0049189966017024744
0.5062761258451189 0.21038974863799353 -0.09380731258436015
0.5583444943749356 0.7663100063924162 0.04980504313098777
0.6082002294588733 0.2807725533362344 -0.033175864067629846
0.11431649291492363 0.1445662959829832 -0.07534579880962156
0.41788469191611455 0.21167568313829577 -0.010148999838264672
0.4415767428377819 0.18753309317446565 -0.033658138068730636
0.42570369471437175 0.19054078518063022 0.0013687389488978852
0.44959801242896447 0.19933295433443732 -0.09710445240168042
0.4565973058987538 0.1820989794143486 -0.047479024128875835
0.358233680800339 0.18754291519975652 0.033083648119600184
0.40311138674923086 0.14959471924845502 -0.06431590318221936
0.45611448649891884 0.20216964099540746 0.00965416617046344
0.5195440589508991 0.2201587107766585 -0.09144636930730599
0.524013750296092 0.21403321844567813 -0.07866358790937511
0.4973954266930889 0.28858623712460485 0.05326333900735847
0.4870365459701418 0.21264089039858902 0.00043774397528295594
0.36543158729342906 0.2115739495065725 0.03258153112804507
0.31934766668025816 0.1187954550040331 0.09183905387075697
0.42108345145406645 0.19296519846403726 0.006278115339995338
0.4420083425750221 0.22286649446184015 -0.011882601469665133
0.3384433047465478 0.18026989491923473 -0.06495373137933314
0.39612577772241764 0.17712320612574217 0.0234644898544758
0.3525594802283507 0.25110057464203805 -0.05785033688175645
0.4345925600459708 0.19719927059583142 -0.049861385566998706
0.4068070915023725 0.23076570023127374 -0.06687731691638987
0.4257772542852649 0.1862591084315568 -0.04490938788569565
1.911033773644661 -0.8323709045985197 -0.28470936725886986
1.3866020533707086 0.2809469886804834 0.5224090808947608
0.42531442674355446 0.1992136612937827 -0.031022586168219846
0.4428015495130495 0.13940970537348107 0.01718777505431035
0.41643854950378056 0.1941764667730297 -0.1546064796375788
0.4019842890260321 0.2222147552859326 0.07124168212257587
0.48045907921429887 0.1893978624478052 0.0011870564340483725
0.41022763047404 0.2602964488178543 0.01216850722053664
0.40770440835167676 0.15891779146514295 -0.05977573042738982
0.43889749008751267 0.19228795008493194 0.004969381207587276
