# .PCD v0.7 - Point Cloud Data file format
VERSION .7
FIELDS x y z
SIZE 4 4 4 
TYPE F F F 
COUNT 1 1 1 
WIDTH 796
HEIGHT 1 
VIEWPOINT 0 0 0 1 0 0 0 
POINTS 796
DATA ascii 
0.41134003375904626 0.17435554635883932 -0.005275039134744475
0.45327762001471683 0.21970061023523613 -0.006965987894858472
0.40187775437807716 0.17941004048255138 0.06476427616991032
0.453822417945986 0.06150023066672361 -0.14509415962879757
0.44472287474881966 0.18298523908779885 -0.03504219899517125
0.45393035863418163 0.20740921082440877 -0.00846581054858575
0.3451993042899062 0.2251855446919251 0.002583935972111817
0.47250545662639354 0.17656415781810608 0.1378146431126197
0.5170851839812656 0.23746793695895008 0.041263531053715496
0.4282926594988936 0.19847643779965551 0.01330708903140021
0.48613315012356395 0.19562804862457028 -0.07493491110425055
0.48627839074880796 0.23990882489164278 -0.015084712013930357
0.4974288393531481 0.1607953969032394 -0.09024724929511763
0.3139303234245574 0.4085648171964351 -0.0286720205159412
0.4896363348692603 0.2537270053078373 -0.008900179634352412
0.4982708205132269 0.2524670301917098 0.04275755617366883
0.372356052236654 0.1411708991714562 0.011549344029106123
0.4758813860497213 0.21456150978900723 -0.07035846617051789
0.3371270710373153 0.230797318874437 0.18767969699653975
0.4396752932089072 0.18403112164529034 -0.012511116769275077
0.4251821515534999 0.16625300369847196 -0.029619135209088654
0.44671606523913 0.2098961994306876 0.015685469799308294
0.45126357626017466 0.20684103658099673 -0.031282886081342554
0.458825448612032 0.18978350555775592 -0.09207395352710535
0.3453123520861112 0.3633743151018507 0.12795248661144853
0.4394879777050562 0.2075996228686563 -0.04848633923900536
0.23255812892372774 0.21768247449384148 -0.10709783460723088
0.43856354959682164 0.19535168391576008 -0.007663485570802209
0.481393238683097 0.2122806082627875 0.024377997409033014
0.38833380884918256 0.1786775473665898 0.0660498456445282
0.6907240586739078 0.3824239241570808 0.017035870416734156
0.43658931978083615 0.23697646319004662 -0.011320627739195288
0.30744482231961 0.16617797316803262 -0.09546919253290298
0.13244451908634858 0.08285664908066792 0.06933519164557822
0.441751705295502 0.23191732321430436 0.018542975432850994
0.360036541057994 0.18743178677277683 0.053523865679920846
0.4576766660562299 0.19625176813262613 -0.029285780556676855
0.43424867858293226 0.19007906162073596 -0.044520917085606015
0.4211266639744764 0.22679528940139448 -0.06743678685839427
0.4848694044375037 0.13535523270249428 -0.006276742924896439
0.33125098910323914 0.12450830960216308 0.4314081728209942
0.3683331059780386 0.17518790604718504 -0.017843693411833783
0.4367346064594102 0.20107214437305743 -0.0004156508664152625
0.4289798772069702 0.1911473572823752 -0.01832402276303924
0.4241846080357732 0.21096497791793922 0.017583261320140764
0.4429630239371818 0.19393372195330016 -0.01566167481948355
0.5705613245087022 0.28017116386955365 -0.054719627790731806
0.5143635426322248 0.25338322662540236 -0.037489900647557306
0.49854603439607104 0.20424731075519276 0.009854981107125127
0.44153738265923437 0.20488056826134482 0.011655614613118814
0.36552206782972974 0.1543738933230543 -0.07089119253697618
0.47099957850184637 0.19639452750999453 -0.0108052867610553
0.10197282254101481 0.12036830428053236 0.01864053657891418
0.41819010155263925 0.18789524127807056 -0.005088580839696988
0.41988341726792555 0.12777659232163785 -0.05401826394391662
0.35692537846826156 0.1587112107658868 -0.09986034758728124
0.47499364328483296 0.19512639170406487 -0.0017119172049433473
0.5223210146203172 0.31576317638240425 0.16673559032196295
0.50620431999576 0.18193808400093303 -0.06573418835527889
0.5325774204534071 0.2225650826751746 -0.0509933133044882
0.4287384940186172 0.209257230473753 -0.03086997369251776
0.3918373377189397 0.11439895777405695 -0.043075730660774525
0.40827179762219146 0.17347266489076674 -0.026737522319052687
0.4700138356018755 0.25430110111851434 0.004600660156214076
0.4332006565656741 0.19958609842848318 0.017884491258513435
0.4445202405843247 0.16162415686008558 -0.07079376785651448
0.4179319105073489 0.1791757232165878 0.02989666292408799
0.4875281112050942 0.23369417786383906 0.003349268012129869
0.48152087812694333 0.21264486361525314 -0.07075193161509219
0.4618949391090581 0.2130802327887693 -0.022557196076718355
0.47482391345504027 0.2117427415030022 -0.02032382461852933
0.5293212178045223 0.22268387013738788 -0.06898129406073394
0.5048517119576275 0.2623235209838981 -0.034715165834143136
0.38850601186265976 0.18457457406583444 -0.059438089591210996
0.38323974148794093 0.2327411646901396 0.09727132626861135
0.4006265251168486 0.17231653759003507 0.0245861548456503
-0.5108702945365877 0.7227427917109992 0.09906792021614308
0.39498202475569144 0.12900906140386326 -0.05107891845793233
0.4556553398124379 0.23404067985754295 0.008320132352125142
0.2888906338288706 0.16489731271425967 -0.030152090613000837
0.5765804761380053 0.18097765295431145 -0.03678936681407663
0.5630084781665943 0.15539888195581852 -0.11553582524649642
0.4254738755817584 0.2013127671486501 -0.033035862185101905
0.45818522022595687 0.22179601618732647 -0.00658010992215452
0.42663053248679716 0.18891944442250974 -0.036907208702928074
0.45991175792968875 0.19399784645389673 -0.02784610604450677
0.4006071644646312 0.20758794196454744 -0.1098448541124668
0.46866517961422005 0.19766631806442092 -0.05164832533441199
0.39488360770187114 0.1430579846477258 -0.076816874836652
0.43522032661525145 0.18065718038275236 -0.035598749344117664
0.4517803665543738 0.24455248616024505 -0.06098445846284051
0.34630075253934933 0.6031779074382797 -0.06896021807955321
0.5006457751347 0.2482175786869334 0.019363911252696653
0.49853896871542247 0.1989504907457018 -0.006020020281169991
0.47957418908191585 0.2255101314266028 0.10183472783026559
0.507119673432598 0.20639131357799556 -0.01780128726414887
0.4395768427591804 0.2392903046431485 0.018512066908030533
0.46410587534487036 0.21608110828921667 -0.015746899808348758
0.5377109426351154 0.2512959018787342 -0.07154540559433542
0.4623696714838701 0.1933512130540862 -0.05926274986686053
0.4673208749310618 0.1940756075618424 0.03620013309583214
0.401192640527384 0.18227855879665356 0.04716199840467539
0.556340610467501 0.21588728744885088 -0.06947422644296353
0.4393486158128752 0.2074688581594728 -0.005450794691384431
0.490651291121722 0.232097607927372 0.039295968933231507
0.4173191620574954 0.19586052630349116 -0.041259346320714485
0.41360860763782625 0.13699145235341348 0.005082915128042487
0.42244470769067277 0.18826128569608613 -0.08357663416251171
0.5012897047878369 0.23616221171451457 -0.044654929578001656
0.45959057483614174 0.18739965777321288 -0.02232059564656197
0.4399657671534385 0.17983084844206587 0.035462503406691326
0.44974723365930913 0.1961752902569458 -0.029625115494098964
0.6037754460526514 0.02825879871096504 -0.024039465453427056
0.44824541250608263 0.20535261581080988 -0.032299125188387734
0.42480287781381776 0.24388740812187848 -0.018425567903960882
0.37955471878281344 0.1553866836572979 -0.05142269597149607
0.5020852128395461 0.23230543918194257 0.06266357510848763
0.3466132071295078 0.18739266783808262 0.02325785633965438
0.3646791112188623 0.1114839325304331 -0.04423941739935344
0.41934373282113313 0.1386426011764854 0.004389523045773558
0.38939211656756356 0.1516355605990043 -0.036531013915421795
0.2896819907166588 0.12123267416825456 -0.05135662160580523
0.49068865805492123 0.3267630176194132 0.0217382122414449
0.4096761246128864 0.21749295356315201 0.0499789444311034
0.4436470666668555 0.16063294190000477 0.021199284310512212
0.36484465305036906 0.18093305738764798 -0.019881641486705348
0.4496237316515135 0.2158416460900412 0.006604584363003596
0.49367071461954026 0.17136655014842006 -0.023265208697296202
0.3783083495968498 0.17560883791837512 0.07693524389958384
0.5178984828877873 0.2537770538863242 0.014267421220793608
0.38788231309230525 0.17964583659843925 -0.07603190056534004
0.4499632933151787 0.21835399233319208 -0.012812015513759434
0.4961629530083087 0.1995203005109829 0.09060304267259767
0.43712051115683437 0.23654221220067484 0.021829837992811463
0.4729122895223128 0.24573851482603004 0.0026663554234573894
0.4371062715002978 0.1803894496548537 -0.01722842653654766
0.4079673737916636 0.17811369284169132 0.03838010559915972
0.36255228873609724 0.16882311064227906 -0.04502476687956403
0.4470497222569776 0.23520158296625482 -0.025775669410961655
0.44495793252609417 0.2116604566445517 -0.014947358731518534
0.013581481643797133 0.4282569424508438 -0.1262045921897368
0.4225937571769549 0.18528386216610215 -0.02254395032247203
0.4239796328867129 0.18344386027575865 0.016669379490593883
0.41272348638560175 0.16177058691785362 -0.009769543566363836
0.5577527821918835 0.21077479143838218 -0.13114666384481666
0.16262542032743 -0.39406007406394394 -0.14261156467838987
0.5155599626949368 0.24840167524547496 -0.013906574591118215
0.5111794886624779 0.22540282527856448 -0.11690937355001552
0.7858182360127017 -0.11703982577421357 -0.4340270608697665
0.04504123772679236 0.8168412055740077 0.45472729562644076
0.4408545483623101 0.2122665238442778 0.022171345461657666
0.46499803412551444 0.25155890005876813 0.06226256520638174
0.44809515263462174 0.3743212840357444 0.09092500919170732
0.36753673939082887 0.21034426335333478 -0.07599411174174975
0.3646558676666274 0.1276219957670861 -0.06356732899430995
0.465741057792485 0.1995700334537105 -0.06642613683297327
0.3088741654699021 0.1362490555964797 0.004898179707993222
0.3239200316391475 0.3851759063672944 0.1024263748495855
0.37312178465056434 0.139927712991323 0.05469866047322114
0.44019101092095525 0.225664378246762 0.020746798775178377
0.45258293643604475 0.21714761331205068 0.02572164141868427
0.44652335914480545 0.20725666938571408 -0.007445409241540801
0.45646839225823044 0.22145992510800738 0.0033515074237442377
0.5335297357154474 0.23930751723057142 -0.04575028967661865
0.4510951353118884 0.18179614465344685 -0.04603273235672134
0.494492260453427 0.25144884598606154 -0.009726679222808343
0.5040205509677378 0.23531705361494915 0.01269468420949238
0.3871737042868375 0.18563327617566472 -0.09096787894597469
0.5362727283225723 0.21978262817739846 0.07909685048514348
0.46088341457871707 0.21827853352849047 -0.0031831444725014535
0.45218648105252157 0.19891724320163462 -0.025078250817657022
0.43664000552675475 0.19025978168681945 0.000638143175052619
0.467349631533466 0.20306273797352503 0.07870050284634544
0.4955114834189658 0.2650765681097198 0.11368655178543463
0.4444653154578049 0.22515385149628742 0.0067906974361164885
0.4563501451787886 0.12520521578422006 -0.0029879097453573422
0.4008334246645404 0.1446541449542451 -0.10902003208379085
0.424312339761201 0.20984696278055992 -0.003684550425987254
0.47125702067961583 0.1957605037733714 -0.09094338798708179
0.39239195703505914 0.17385545106469635 0.007110394350235083
0.4319537745292763 0.19513358679628823 -0.010127808852956832
0.4087228659854105 0.17675530650225824 -0.0904436071857333
0.4751941295647981 0.2280034096908139 0.028209639685428556
0.4502370547036634 0.23833390050563708 0.02974006653951733
0.4298975800264344 0.16794417675558293 0.0058603737538192036
-1.6478659017949155 0.8690725150489556 -1.010992915905149
0.42197895091769055 0.1742556028481772 -0.06867178107845007
0.5099852320973213 0.2534507293401447 -0.1422942595746548
0.5134752021813966 0.21417675136174807 -0.08150008359814365
0.4517174503170054 0.2156115801599725 -0.09316829185905817
0.44207952390425476 0.19325730162177024 -0.016750548735217308
0.4837335329176682 0.2160290907511353 -0.04344671703665881
0.41790790659578647 0.20756873596141645 0.014546688589092582
0.6069450208177187 0.16695166261646932 0.10549662194995335
0.5088490762714457 0.16160935045557778 -0.05194760020131639
0.2784266615945796 0.148781315184209 -0.025213628075533734
0.4433255848285427 0.202736405784691 -0.0023429881411232145
0.4038943449235859 0.18993129749962634 -0.06515093293711516
0.4188584557938242 0.16289057428755882 -0.10528115602889443
0.43300353243256495 0.16363248504036676 -0.0664564526518916
0.4853483373619554 0.21370863150907837 -0.05362281441031769
0.3904671581179855 0.22367520787176431 -0.02001363400445655
0.43754336734888 0.17837312774879877 -0.040132587192843516
0.4686871714385319 0.2276010991595001 -0.0050647366071672195
0.4032126740898718 0.16638195757288088 0.015546204922117113
0.45765805191847164 0.2080624680187384 -0.028404251331437536
0.4235407877319233 0.16419799368162558 -0.03378764467208839
0.4819769243209038 0.2370310272629581 -0.0124013912966916
0.5133426683046878 0.23691573063962323 -0.038504354166278176
0.4545334092762374 0.21779813125849046 -0.03913992789844656
0.5263716469189603 0.2121058074717439 -0.04083941508795874
0.3707738075189013 0.17844575439849564 -0.020545730195934198
0.45716538796855843 0.23550642746597816 0.0244946610266652
0.5414331275073181 0.2084048971040886 -0.007923511913588754
0.4929129364874001 0.20726106501251707 -0.06753499021364462
0.393720966083805 0.19785894847643704 -0.03879215969297434
0.550983752802864 0.22738650291651652 -0.05027454541581733
0.43403716279821936 0.1958016286358486 -0.03444373616582652
0.4861160625134602 0.21906027935416716 -0.03201056753621856
0.4515003049241244 0.234278146611814 -0.0039303841241746795
0.3902411235522294 0.15669859413661413 -0.0756293054506898
0.3919854542957495 0.14641426287788306 -0.02204132997255215
0.47434215477132113 0.2373982487616786 -0.002354252822470926
0.44515255282504995 0.22324262518944238 -0.006339688302205104
0.43285864757898196 0.22029532022081355 -0.015191075094548978
0.46938637131921723 0.24900692657411128 0.036196892570842465
0.48189992368374135 0.23741778051561369 -0.04897445125132549
0.48143408801657017 0.19830582101408822 0.0036152800650768313
0.40796475362638773 0.2152450105503334 0.0020733733315410063
0.4990646734114108 0.22751618734946533 -0.06541168745762604
0.4586595268877147 0.20660951261319838 -0.023317063891852285
0.43076881908001496 0.1952916456819196 -0.04569766148503618
0.4197336991680203 0.1970415138934527 -0.05261988733471412
0.5756838120922652 0.28121745055847214 -0.029386811488592457
0.3220486111619465 0.18779106681270719 -0.016758918883482465
0.494161899993955 0.17660283109410102 -0.06689909274869876
0.45578492228501943 0.23126748995952084 0.08980624461642606
0.42162522555824467 0.20610346777735344 -0.008314209984234822
0.4406278933631427 0.21219021162012552 -0.0029040600250169746
0.4334949769138632 0.18586003975742926 -0.038964152146746756
0.331187330802436 0.1528011945134864 -0.029752557645068123
0.4149279316557397 0.1665975198841636 -0.02631528698137231
0.4408726473784128 0.1978970862001006 -0.04481737396147878
0.48838431118825554 0.25462767888544136 0.02106867040185989
0.3660806146299649 0.22453330323027387 0.07245869655014303
0.41288241074148857 0.18340897629173014 -0.03513955172613237
0.4413500590736703 0.2573477830350015 0.015638650276741828
0.4220518738271579 0.17361007130546113 -0.02084242943112713
0.5825572988202623 0.2526665720757819 -0.024079564974258005
0.4426387993123768 0.18456592724263032 -0.023330658413627248
0.4001976845317756 0.2046340805843414 -0.007506466986313853
0.4284616890259372 0.17181997996604537 -0.047796363603310965
0.43688511469086677 0.18981997599490796 0.006126594149549192
0.5038185852797454 0.18989419917502914 -0.02363181911761103
0.4355321964037131 0.20051428444759267 -0.013156534406789433
0.37318847356274887 0.22320821296037252 0.09729278996920243
0.39589571849536753 0.166358479159868 -0.06736013255229523
0.48629452057846834 0.22919253785724436 0.05519865043962113
0.46371744486478406 0.21788157043458511 0.01348592164596596
0.3321685975546842 0.1319482240635068 0.009731884740602936
0.4579741766199845 0.16480306610574758 -0.11525720844011289
0.49341694965676197 0.21534929128472413 -0.028570095109699878
0.2904920299535405 0.18980978373872404 0.10827758702610879
0.4768396518574036 0.22578155378579368 -0.03711306713381646
0.4561347075052282 0.22458377462257317 -0.04055701477895468
0.545628978823558 0.25083378129554035 -0.005291181846729387
0.4219654100114383 0.18760162790516688 -0.023248257557966667
0.35185270562598703 0.2187627240293324 -0.06654373174337991
0.4265467203735227 0.2130820566219711 0.010396932644482604
0.4490166481124618 0.23503739239085064 -0.04595536857306115
0.51596955697228 0.15785415256856083 -0.16613915307996763
0.3827462944883848 0.19577775973681355 0.021088006785646485
0.5505450705353354 0.21127450764427635 0.02369770305563179
0.3551247682621579 0.19481408854896642 0.06950704856845391
0.4602219931573188 0.19041135277743138 -0.07341642517522473
0.3564499942186643 0.17648559100001648 -0.012074141595874721
0.4931907119833454 0.23766984245366984 0.04342092900989769
0.3768518723770313 0.179641960339481 -0.023975396694439155
0.4720797080152579 0.159803461422527 -0.017644144670398987
0.49208644458083484 0.23430613891272856 -0.008799845180334387
0.33126256296039003 0.158026176596735 -0.09389259346019685
0.4375687686944332 0.18054302798775268 0.03185259987768063
0.5187562771031224 0.21082173139727445 -0.08205523945264304
0.519951631061673 0.26207506210917586 0.04176257833226771
0.572625090851929 0.21021703316861817 -0.10914944336117571
0.4416165378040944 0.20605229260831948 -0.05053478285459789
0.3700226992184099 0.19325137732610642 -0.050151594732767535
0.4932467773936793 0.20030293344686356 0.05054238094714947
0.41750089586162176 0.2181555269465889 -0.04249237209167234
0.3313619428229373 0.11941000558192627 -0.03984941047991697
0.5136737586422839 -0.09300952714346522 -0.32570199749859796
0.45568148103613737 0.21558043280722927 0.00019839453258896356
0.3918095887212729 0.22127288913270604 -0.04088330839692844
0.44445271761298955 0.1958010101499923 -0.05463972733448941
0.45314871709364013 0.21066773556103158 0.0076297592824943195
0.5064208941703328 0.24690197200841624 0.050000860520299284
0.3900068606187972 0.22338725346348554 0.055248755705207486
0.34461723621686247 0.16918275870750676 0.02790414444154976
0.4292702412290623 0.19697332336534146 -0.02468596419913638
0.3874075429152981 0.13913297309019867 -0.0724512034947935
0.46145163202091055 0.23556983627847217 0.01343091454694445
0.48505808961297703 0.2506031751859723 0.0035570522811951832
0.4505226923120489 0.2100348653060422 -0.012442995624937225
0.4727111144732561 0.1971045663043185 -0.021194279434539
0.46689334089933254 0.2028080286337115 -0.035769352199906734
0.5369301574821606 0.2147975485753193 -0.008735992313717134
0.3682224263196474 0.16984076396900605 0.07914471120786004
0.46984909844738354 0.20974211649945573 -0.0536958688989273
0.502944132484572 0.2702372381732516 0.012187102296948638
0.47044254464530866 0.20945277483500035 -0.008365879812160415
0.3284505355559162 0.3587485182252408 0.11522114603496902
0.47854742942547546 0.2083187100163144 0.007737717909307662
0.389474774869214 0.12132454543163362 0.033125453855234355
0.4415362618973404 0.17862270042287776 -0.02428746782032931
0.5995065028688629 0.362013330282025 -0.11432051653292774
0.48325098890673246 0.2211608821476716 -0.004973804140632865
0.43237633884697857 0.1743335686070111 -0.0225128347277348
0.47078989728458964 0.18135236315993097 -0.06147110534563183
0.4654922573563596 0.22822716429556067 0.029966181662743452
0.5261194868882058 0.20668014395860723 0.007764441923711729
0.38884197730911296 0.19659553768238425 0.031097948077984938
0.466328420624194 0.29986485401971663 0.22423333090657138
0.4735138040158091 0.2169517214452128 0.009866413827154474
0.4985403910160926 0.2168172632267158 -0.11456291862245394
0.42884933314986995 0.17143190323056956 -0.008799400403972868
0.5224790199371228 0.21442855799014637 0.006719659428398472
0.46435471803253847 0.25298505584468955 -0.06850056039365882
0.41942372069054557 0.2075127866494313 -0.00468247618556461
0.3663297984288789 0.1547207207778456 0.00561147966959652
0.5321213434924914 0.200086223453539 -0.13027240170052323
0.31381590467296405 0.12395654019407232 -0.043916857570152956
0.3710688607818611 0.16356605804111268 0.030938288559298144
0.29987702604584854 0.1369477316762726 -0.07079933097126911
0.6677969974038689 0.2731452543851276 0.12647751512298555
0.44026783319992546 0.20027001196611138 0.004796997987369878
0.4297368047568 0.2142187602440515 -0.15655519148108965
0.4522767763548359 0.1876810454888016 -0.09182646158362218
0.4256576378722059 0.1645291877814543 -0.006572652394567058
0.526152643092928 0.2719742626998425 -0.0438457581851992
0.295658946943405 0.23051784373842565 -0.03576130869024041
0.4221139767671218 0.18056837401265113 -0.050754061226598424
0.2689038075652803 0.06539547695155079 0.12364660878084521
0.369881992258712 0.07360682225521487 -0.007926614640126672
0.4468596214914413 0.20111057492374584 -0.009424132809641605
0.43100808102123267 0.1976856381511709 -0.08934915440553937
0.48510391665112707 0.201152108560251 -0.013822639443191065
0.44087664066967136 0.18801936718799084 -0.03892905463703755
0.5330620510721644 0.21292237299520878 -0.060202632374455334
0.46064640478152796 0.20109384870116287 -0.08439182647140342
0.4918246141983218 0.15434838906955406 -0.07585809133601629
0.4897592283173111 0.21507884399609623 -0.06629472442432416
0.4208330104422515 0.18548846959839693 0.01805591740853174
0.3220933711410794 0.03215296002221635 0.026083487103605307
0.39513804362847793 0.1795183608769264 -0.03072475181043899
0.4166193761010959 0.17326269809586847 -0.021063160254271907
0.35006835671946135 0.17943276548896847 0.0016495601771282509
0.5015647525962663 0.178597504824495 -0.06564842369037649
0.4116056790134337 0.16382127294994575 -0.08992828221178684
0.43806056973305374 0.18705924108289196 -0.1395561287014857
0.30729914649568 0.11086104998882718 -0.10520285731911372
0.4737943509719855 0.21517662388183112 -0.015812562321599444
0.41914135026679844 0.19187083936142812 0.0008507789984832925
0.3922625764488572 0.17794026120520812 -0.027498740513394182
0.4541116988480667 0.2082651690144246 0.01409078672367059
0.4043870445406412 0.18399402155945666 0.005723391453372528
0.42340473855408334 0.1595545392875124 -0.023034178731165866
0.46017859649850834 0.22089345682346107 -0.016986574395389198
0.47393288864954286 0.20985100661860656 -0.04878731330752828
0.4527235411751036 0.252538330704823 0.07374982047346634
0.4630530822742571 0.1686894122982352 -0.028159902225951328
0.40893685379099054 0.1836767667247159 -0.01706902226861473
0.35481946791941255 0.1757819311593778 0.014587430643842936
0.3965497384683374 0.13121725664882433 -0.07126291166446208
0.45061256085200796 0.19699576584419276 -0.013561125900707793
0.4486626646568226 0.19639027670703513 -0.028580060091684345
0.4603012006710401 0.20192811660163557 -0.023203734276577848
0.6357053382056677 0.29152662352476 -0.06107178311393113
0.3568300593206999 0.25023774683367606 -0.03280890799172198
0.572834453713682 0.27031532091362465 -0.0709626933742129
0.49574360414260354 0.2446199377059486 -0.06520421695444156
0.43794750529292514 0.13232454167891206 -0.014876509544222927
0.37011960785382314 0.12186728534359759 -0.014623143066160083
0.41870970104864114 0.20049176975730632 0.018550221012006318
0.6947087977537194 0.7689855777145169 0.07028494665436824
0.43590265154567476 0.20446275000676906 0.05481742306375281
0.4506021988451181 0.20495957189490355 -0.13152556544662275
0.3534649143242632 0.1318128049406937 -0.11934355857745516
0.38060304825961566 0.13672252350870906 -0.035567212790681424
0.56985208082952 0.29289055697746846 0.01551136199319103
0.4633380824106439 0.17686492554442168 -0.015341875848648101
0.41546359636528507 0.20826092613043556 0.010506103258592248
0.4588927606180846 0.21997580539988348 0.030323388906893456
0.3693088276489078 0.16031628092073902 0.003004600396380397
0.522015565023807 0.20188191609472028 -0.13927761428087138
0.4424548710415337 0.18193700017368997 -0.07251869948504464
0.5051099563585097 0.2907005166104142 0.013057973329409833
0.4266228183439438 0.19457114518114338 -0.0380198937191949
0.48781340190453193 0.2094888614410877 0.025989329577299713
0.419555405125152 0.2036054984191935 -0.09317136394648173
0.14380664381188524 0.320176226063694 0.0319917170867825
0.5478650432618224 0.2136141625848893 -0.0513690263175306
0.4361074099319069 0.22372989701872825 0.019422844455448285
0.4645564810170413 0.22178254867338865 0.014073999518018354
0.5696871677374276 0.13163777215156358 0.0700585240203111
0.43745782310691084 0.1951452492916701 -0.034753677366850866
0.41235343978111416 0.18028424119420094 0.02075681146129682
0.33416219702465355 0.21231751045914393 0.03583100827654562
0.4358449591632336 0.23803330134973066 0.006237264659532116
0.484048906641803 0.07664660782663191 -0.04893473907239354
0.45250298189270666 0.22015161821212814 -0.016786377122386398
0.5391593001607049 0.2097120042461853 -0.09970273047188982
0.4445055923926873 0.0023272750523517516 0.5476284927417225
0.5409819445807642 0.25264014311345306 -0.01521824169421393
0.42752202696971153 0.194254277074009 0.04654124442271268
0.4705987430940013 0.19124514820029503 -0.11567322465234042
0.25608968267695786 -0.2649851771542302 -0.28451528861751285
0.25153413943047553 0.11138362148355441 -0.08040626973830456
0.49845149653934584 0.1878008703905607 -0.025724498728351364
0.41873681459235 0.19490309596064037 -0.03489322314996457
0.3966186138801788 0.15646164998733525 -0.01300291632078654
0.4246805722194722 0.22087990015987202 0.053883199474654475
0.44456876697542214 0.20562788584047098 -0.038723519523315986
0.4786968151136506 0.2227824117695434 0.09684317916725149
0.45464332221129666 0.20746448522902483 -0.0035801912779902523
0.45113969376477314 0.24501428979553452 -0.05993528760947697
0.3672947096255683 0.19831748157172058 0.05822449527943263
0.43090178394449197 0.16934597702183396 -0.09844277288249259
0.437202499069528 0.20941449180435256 -0.025509962272195708
0.3614300793245917 0.11588228291144276 -0.062456303800644264
0.3953118340912454 0.19764968250828474 0.11950539827219586
0.4890777830183026 0.15982137052246514 -0.031440107427457065
0.47405915800025866 0.241555327455643 0.01697869350914516
0.4555126951985784 0.23722119010204779 -0.04216223977672939
0.4006517960626894 0.18377570917978403 0.092867519953856
0.4546954357778219 0.21443072222720616 0.01712586381583492
0.39935395696863907 0.16566002410641545 -0.087776424651409
0.3953795643319893 0.20480255388315527 0.04049064279591619
0.3764417485295155 0.17212136354530116 0.05935457718661041
0.5108281504537757 0.2581033185812345 0.04922613034247547
0.502821437394104 0.21430766275693713 -0.039768457265040524
0.3411154996168193 0.1545798373132783 -0.20666688899706287
0.4849246840584982 0.1788836088771859 -0.1299443374315956
0.4983412020049087 0.20035429902505086 -0.041834333820759184
0.4851997978115179 0.20045195781959535 -0.04267325885138007
0.42180564056234005 0.18817218698060856 -0.02701893896249885
0.5267529992193118 0.27354576669169717 0.04612132414729331
0.4752953745255297 0.17512430487809638 -0.03852897230720487
0.49016960780026864 0.24196518369819842 -0.00022698513174645996
0.3853492037221429 0.23851048456853619 -0.08581444112290626
0.410740888265579 0.1649869250744871 -0.031388065041397795
0.4382343842216727 0.22083262029298112 -0.010655758974081664
0.47500863578339647 0.1973217948446404 -0.015198537576523563
0.39258919541754267 0.13319367586484532 -0.1346193190476015
0.511981033073269 0.2066019153735823 -0.041625378481811026
0.45933269029823975 0.24510944848324812 -0.030674191641310244
0.4333976516717968 0.17929325924424688 -0.027346870399156842
0.2692945920930896 0.04487993048783778 -0.014490082234715373
0.44999205764108297 0.19562869082761836 -0.006856086204891199
0.4141921118788332 0.13095865089900371 -0.058786927869988403
0.5212256714689687 0.2531434884382122 -0.0077299023739385575
0.45596221501229195 0.21655190890464837 -0.06915880646872097
0.4989428294291116 0.20445322767153584 -0.057477537106606746
0.478744337197341 0.24039810664396555 -0.027163733707823212
0.46514923618123305 0.20204393422233125 -0.03289060078706996
0.41229452662769006 0.22369952186240027 -0.05273901814430815
0.46891863076257323 0.22383723709157266 -0.03946956202860008
0.39028198580999174 0.1798208158166119 -0.06633504158151027
0.41600162619596404 0.19303866293981287 -0.018316901441238542
0.4289394084135125 0.16445603353437832 -0.06017772153693102
0.42824245573294206 0.2020162743414744 -0.01945633011214909
0.49211364264844804 0.23042598870407005 0.04764367161109817
0.4217390034237951 0.23265776950587735 0.05354210068469456
0.475083146752425 0.17797664561214788 -0.07788903566823535
0.38955478981172575 0.19481522040287302 -0.02339056219253166
0.560728270187596 0.3102013331886866 -0.0747227367366321
0.5261811527519455 0.20091082293217255 -0.05390079627872524
0.46141861759474523 0.1511344331765372 -0.06583800879010937
0.4923659876073998 0.2510511219167597 -0.012390417470982129
0.5212392101587966 0.1999229012709236 0.06522460999774182
0.4280737464405604 0.17936760010876185 -0.01261071327121499
0.3991295018612533 0.22102480959554782 0.07873655597862239
0.4559149943244165 0.18911437337774828 -0.04624759706076986
0.21166002731555977 0.09182478453814724 -0.1263878881788827
0.256090959087544 0.17544242147542377 0.11249299860196516
0.47067163591937344 0.22645239431142272 -0.045192879897044236
0.4276866508108128 0.21078927470377096 -0.013247560501156386
0.4749166582083433 0.2475819284155989 0.06940287181717508
0.4618864949758006 0.23745135691154928 0.02346869142382957
0.4854879869362918 0.15867790340587362 0.048746543335312253
0.44475084028370304 0.18221808495482605 -0.00910141867545633
0.3833307963271011 0.2160221157015343 0.041793122920140036
0.44201865947913177 0.1495333089956432 -0.028145883730942955
0.4683723042249426 0.21228816121586647 -0.006650646173625319
0.4388625072276966 0.20044502562339517 -0.049085720506838015
0.46315985992528397 0.21539104502161877 -0.019085233498159937
0.4879404407398624 0.2461076691342896 -0.061059336124174024
0.44514176091162483 0.19294472678015495 -0.006392177157437118
0.45258672795817745 0.19066861304963822 0.004141015630551692
0.48969151010467726 0.2539475592067504 0.004312321830312271
0.4385320751594577 0.22971794889052433 0.025463914324816983
1.3625263622194694 0.38963400589844355 0.43348230253327813
0.447224705712415 0.15606968965866486 -0.04401999235564347
0.3374145679502618 0.1495238633308702 -0.0010929196486983983
0.5054590168519439 0.19983091972893874 0.04545313556018016
0.4463296987650551 0.2069776455720671 0.00649389949956003
0.37944267203758386 0.2016318161077777 -0.001711193387521348
0.4452770041313272 0.20789059916042163 -0.021653740417832523
0.3981703558491887 0.16417738155736572 0.047007727327496696
0.5472471693292107 0.24618847846321046 -0.1409469425633887
0.5381897493963521 0.18603624813802355 0.031186824252941392
0.43793396583456 0.2168730796494458 -0.002660249508267043
0.4442351363944539 0.2284943688047747 -0.00934483431203148
0.38798510029828037 0.12933658955245164 -0.027865879023977413
0.8627121872245027 0.07305355477313924 0.163297927612291
0.36202045625509527 0.16675400784903616 -0.11403133382694364
0.46383655730841156 0.19102110963046925 -0.027686366322598133
0.45473633042777806 0.22376395031841412 -0.007053052098228818
0.3325046119640547 0.13769165448863419 0.023540797775154942
0.36055577693744567 0.15848584959130108 -0.08243942521384895
0.3708266891323433 0.1685161027755271 0.019274520272063
0.5042349545042271 0.2236248891622239 -0.07908214443310158
0.4243894239061632 0.18715527907008322 0.004354214477601204
0.46403797074054864 0.17695407359019555 -0.08740748247876695
0.46156017011212214 0.053584959502643414 0.026790734108814718
0.3322383395533848 0.1355958251118352 0.01586288266281599
0.467819034419108 0.29789850681875407 -0.02336300892865495
0.4670262772165046 0.24012408820560438 -0.0007616871535844894
0.48231685778921474 0.20173713270280302 -0.06142876853525081
0.4661579941027014 0.18289324437282062 -0.02732215987632003
0.7047499659476557 0.3678285505891381 -0.011529014612960964
0.40513987400240126 0.2101008926215684 0.08171642326874462
0.3654955276635121 0.1931965082614795 0.047965634619089315
0.4853421405098004 0.24019994928484323 -0.0019182420060417371
0.38435379947488 0.1795289336014747 -0.12999801691270818
0.5307229647810487 0.16816533749980067 -0.07487969656048676
0.39504093868731616 0.1547505099776174 -0.0885605637251956
0.5450659696298459 0.24001417916475987 0.05839041035906689
0.4740571718808724 0.21228694630693212 -0.02747036492172583
0.4226979905251227 0.2237204594437685 0.07052583444752258
0.4099538743580382 0.20528353960665413 -0.013624293957917644
0.41690419673963675 0.19368079714659814 -0.02899228391197539
0.4585316897552474 0.2166529762127709 -0.01589896709518257
0.39880911104421557 0.26309973339371595 0.04611861079928303
0.45366711495114487 0.20671463570738524 -0.0563593774386959
0.43707188996002344 0.20176356630197745 -0.011702810740160885
0.43404518992558394 0.2015982480302796 -0.024388075806399456
0.4264188664953963 0.19271243175353447 -0.05587275131318847
0.48840418539967345 0.2165995394547906 0.07053694781268405
0.3578542051793505 0.30716305250800247 0.06121351921258622
0.4262460813205422 0.21349975349166073 0.05495472315601546
0.43506816929743763 0.20836081156411979 -0.02971491602545484
0.471587460869614 0.17909317383363543 -0.11695338728344495
0.4170454143283564 0.20147405091724124 -0.003230102469487406
0.40917108819974146 0.17251125443229398 -0.025085211369685112
0.49597587402475085 0.19230873744649557 -0.07786714567470199
0.4331692912564904 0.20284860654643921 -0.020331304566269637
0.39252799410014916 0.23128857805699 0.07483128038992959
0.2913687849542015 0.17806696186144677 -0.021888742586838816
0.388162954499947 0.177101750841274 0.010072827954573427
0.4533723889575896 0.20956058669681 -0.035366802067727576
0.3468792229226949 0.09620679020065381 0.047101283598635746
0.5084790369862304 0.23549775463720835 -0.03607816852749579
0.4213301480552474 0.2221799776125124 -0.04229866325576381
0.4788243842550912 0.19936624321496765 -0.03995931643970607
0.48917812332322796 0.21787689161689627 -0.056895905100304844
0.39944423112730476 0.15853936786841416 -0.044994473866836415
0.4319575094960726 0.3241243464860162 0.12146868081417495
0.4159002176971285 0.17211501395594553 -0.08979922307946708
0.488583095292654 0.21958787863766815 0.10134454448487418
0.28770108053718957 0.09648711172384594 0.20288743004273613
0.4718430779331584 0.20505924704562517 -0.0016453956557569427
0.4237387210636854 0.197440325403079 -0.07464708826398692
0.4165470559114084 0.20956673182213592 -0.010645001726615533
0.4907127055957119 0.19079247963762214 -0.051667783324631955
0.3739068021237415 0.1219853977627281 -0.06548688585542095
0.5049021950311356 0.2290824357755099 0.014016658024587514
0.5219380474752455 0.24945573872531668 -0.05236085923569078
0.39129266427423204 0.018170384969053544 0.5322011608314057
0.4060988775560048 0.16302026626067345 9.49055841772406e-05
0.48816063540509447 0.22166778023859024 -0.07999268905248869
0.4308962958971563 0.14148748157136026 0.004870538288770376
0.34985427458263985 0.19740082820146654 0.09832441434394923
0.4815883746049394 0.2673775053292786 0.00892654572731999
0.42635359997127864 0.20627910292495244 -0.10304388665070974
0.4292261243840727 0.20930538349189476 0.013057740666937434
0.4988623335262474 0.25132175235128784 -0.06693487077052396
0.4677034292572131 0.20543509594250509 -0.031712621731230684
0.5243157154318538 0.2714461895452871 0.05463103455969076
0.4111592235884416 0.1794633977746969 -0.0009943124799463021
0.47514665784741794 0.23771272714537872 -0.0739399179969098
0.43844890626313315 0.18496473871209673 0.005203893113488789
0.4164799326436821 0.22457526351533375 -0.0030342262825229227
0.5101720861455163 0.22364586380366802 -0.009267624605939773
0.4984049009471505 0.22992531060387478 -0.0088775474229692
0.2919328848423959 0.1909129027501706 -0.19000246063366433
0.45702882631910313 0.21883915239470753 -0.05325298212780183
0.4949495828806505 0.19520153841745014 -0.11361158080646305
0.4535580850717338 0.20769241917003 -0.018521435248828766
0.4499428614427643 0.19884052970573407 -0.054162302986355826
0.5160736714635874 0.20227377254551016 -0.07941587562957864
0.44543142108476275 0.22154732969232782 -0.021286802603668775
0.27265886453696453 0.06437178456036463 -0.002620093600000928
0.4665976468370303 0.21704214796633892 -0.025033129703246004
0.4130349127581212 0.23393961386510398 -0.006758113347558492
0.4194133109001257 0.17954893925877968 -0.05209290689056445
0.46534627769202075 0.19283104265446127 -0.0028111343213907958
0.39750908654983164 0.1570697464454156 -0.04571981078690612
0.4356444616544195 0.22693271537508508 0.02971001000872775
0.41265875521453665 0.1831059629600702 -0.064632214872546
0.453129197276823 0.20953834978817554 0.020531709609201698
0.45328908779866595 0.2224804684724404 -0.03716480404091271
0.350903056983185 0.16529325568076558 0.01870091634026494
0.3324013724725887 0.13456145579792178 0.027692690044204937
0.4613929134952741 0.24081448955175233 0.021105735168816864
0.4716977123299415 0.2034872969099979 -0.020039239432847467
0.43982054266754744 0.1936482725074029 -0.05526914327234067
0.4449521564894354 0.2095218160498291 -0.010459232677561658
0.4375152741208552 0.21753500964180716 0.03945720077462056
0.39239848643460107 0.2029373967210404 -0.005896898374501802
0.4521892563142842 0.20620041212214346 -0.061594530674810244
0.2736251573292776 0.181584145076215 0.13159337670535365
0.4701876977653541 0.2141178532879735 -0.01596668118098421
0.40115581817030943 0.1978837424182558 -0.12541600682121157
0.4757767094324663 0.24107957538592473 0.07124201255980722
0.43617465077090856 0.19422074236254616 -0.035802406532098985
0.4234920794685024 0.2127535431178984 0.05530472824173671
0.409461007767689 0.16929506944345007 -0.11541809398818259
0.4187807141351243 0.199271065785652 -0.036887162918560534
0.4504010136688805 0.19733441198559376 -0.003626177088676741
0.5054092634305078 0.19403990964035245 -0.04827118999943991
0.41583238803666234 0.2087942933383431 -0.06666953965944344
0.3936679099116418 0.2021008119105545 0.005380111593268566
0.43502866140262597 0.21575489840961382 0.01279165360102752
0.45367941956202174 0.2455177136897646 0.0005026437898010272
0.4270580966103097 0.17203913360251022 -0.13519712962269637
0.45363531548872515 0.19482884579377924 -0.046451999296806434
0.4565943904136702 0.20516654689669167 -0.03563172911535162
0.49908442584491297 0.26395252175926487 0.0820353973634127
0.44999346472214086 0.1749415688711622 -0.02860737388662926
0.4311320649795505 0.18147164708452124 -0.015667355917472037
0.4967850230689379 0.22914127081782 0.0267191118758916
0.40799684091702204 0.19266211032896763 -0.017197169840017068
0.5033146751417945 0.2634756046361133 0.052646083385354814
0.4701790630863769 0.23989700889003984 0.022185408798705453
0.3883812871097234 0.1513220941725848 -0.0645367078183341
-0.07827488059892573 -0.1200959801653596 -0.14491397784496485
0.4607782611775093 0.20591325532160454 -0.010181001803687195
0.38428687230732805 0.16565870063708132 0.02672617478219763
0.41440491426381243 0.1695896849659846 -0.03105339827314424
0.5136278439255335 0.2546852607219705 -0.042970649732765764
0.3282144599476311 0.13763589344313232 -0.0029288820792316983
0.4726565767640807 0.2412156868655302 -0.005492456208770591
0.4532016960619387 0.19788706102900733 -0.007832872998932316
0.4155008255702626 0.23332378667782905 -0.00990814870105794
0.4954558449147868 0.24231696300742556 -0.08634413829832965
0.3815772325487643 0.15584078059086437 0.0031855412342878253
0.4483507976347312 0.18906408292703247 -0.1412643692916049
0.4249536038043118 0.1983826678442142 -0.027457224461898022
0.4546763555663631 0.18353777648194125 -0.09178159059374025
0.4124920077454277 0.11769716160509347 -0.030603638150068946
0.3050787113950406 0.16525500151996653 0.11712740406306921
0.36467732933779473 0.1645534055035398 -0.06765923079822755
0.4265834528029302 0.19907416577069625 0.004476355582099245
0.4310263802347549 0.2395492492293272 -0.032836697935096026
0.4657359873811515 0.2417180889483177 0.017519580374155908
0.4951344987302946 0.26768866186517926 -0.007416704388830908
0.45747711243967615 0.21443686726317424 0.16978943305460348
0.45884230774026946 0.21978603540068775 -0.05151686154178492
0.4429833424169374 0.19989835917012044 0.043074882970373096
0.4150349319663462 0.16593484902223565 -0.046720316560922015
0.44507739480837927 0.21552596205316377 -0.008023113606412835
0.43210945371217235 0.21145175322340037 -0.02541307377023827
0.4773120389807133 0.2143225258327277 -0.05156184468387437
0.4814148815796102 0.20566416698699186 -0.021446362278908282
0.4501605754135056 0.20823584957221897 -0.013479496114584322
0.5259097603074707 0.19376250184225796 0.03116188841948997
0.4797449414544701 0.22052194799165648 -0.05480718117581773
0.4422505858469634 0.13967029975803769 -0.016442366762504435
0.33677783758206203 0.24966470603851576 0.056085412314814675
0.5545077744400544 0.22689955179677668 0.09146742106938177
0.4457859953041492 0.31522758493572667 0.04542387943908466
0.4466741034851509 0.19548404193312763 -0.015451851717784848
0.4506899126777455 0.20210304727845596 -0.014424129431475308
0.40115203329453664 0.17206035678961484 0.010074949159019297
0.47116352712046705 0.22831216060686188 0.0032105850730772545
0.47748967762703387 0.2058719652931984 0.03193674795103618
0.48057067725024183 0.22755921417588354 0.0002410808639865536
0.49578888920981967 0.20304435734527715 0.06245158512999183
0.44995909412304513 0.20547943974000304 -0.0045650367126057745
0.46224082449961656 0.22927861030200347 -0.05483256122261082
0.42784442329903527 0.2017596124395311 -0.005397464886755188
0.38347411169264944 0.254452296474895 -0.19150808017897702
0.49603602232458854 0.152141077142943 -0.11886263383966877
0.4309181625455807 0.1800351706386607 -0.03557934093034021
0.39600131597387644 0.2250771402922851 0.002359060384307554
0.42683483223629537 0.1719876842461474 0.0011707303523280643
0.49088958816957984 0.20890489255276634 -0.021869928883063494
0.4849082126598887 0.16926412496226817 0.005611110604206715
0.4160818742108461 0.19611747331188667 -0.008448286507174885
0.48081461211710064 0.18656744908031442 -0.07301716007219738
0.3618948739868415 0.15573945935656752 -0.00726640446117699
0.4834114918626682 0.10034585149536213 0.040113345727689875
0.5070889275464054 0.2541192092060385 0.05688244689000044
0.4290494365113062 0.2022175558522008 -0.01803313125296313
1.1251409182656147 0.5824560399733514 0.001680601956877581
0.46365980527130546 0.2025070966632967 -0.05633191139121152
0.4729543707575772 0.20700977014919886 -0.005867199900364994
0.45022341652197895 0.19669608143549056 -0.08100520601868766
0.4647709005360241 0.23142936635906608 -0.03168308390695529
0.4192046720766456 0.17831209055272268 -0.021925492076405817
0.46130767483293766 0.19130058872330835 -0.02570321499129591
0.42528188664826416 0.16995716286426443 0.05112234834682283
0.3722431124688228 0.1639062349441076 -0.08504882978445494
0.39899680723222275 0.1822312235378405 0.00031526433966178047
0.45349372942514776 0.1933012892974375 -0.026447115008338073
0.4121391371682108 0.18079383548574413 -0.009131293779773841
0.4113948304322719 0.15773807073603052 -0.11557255322830429
0.4701260162900809 0.54398121271646 0.3246373875149402
0.4563355810704479 0.20401633102204642 -0.03841501373122469
0.45205884513141825 0.1761853329958285 -0.0275982485167674
0.3210762417868409 0.16155870140498507 0.09698602784609989
0.46837608192240054 0.10551140273520332 -0.0760695489073413
0.5094356905711805 0.21470924128058755 -0.06652660447770131
0.39553922867405333 0.1668938419098538 -0.006771558218872542
0.436117790197315 0.18873909945703815 -0.05882780878863514
0.42537583293159287 0.19364863174133973 -0.03376134042723322
0.46519107259274506 0.21654293894997068 0.4097129225505256
0.4461378140140084 0.21036503672226559 -0.0007963527012009308
0.4228522514662387 0.20318579251689073 -0.000948519740404663
0.5304140800357118 0.23298947291840477 0.02713660055587752
0.4320571836887268 0.21501111052982935 -0.025321420147363938
0.009883409013966116 0.21138182364398972 -0.4745596431616548
0.5435921958187748 0.27639574116652454 -0.048538288836766696
0.3942898407586881 0.18456750145546152 -0.019400594393431447
0.5488608322874313 0.25260561763727196 -0.030868506079428926
0.4286529666541412 0.19447023908386996 -0.0017468111172576073
0.5096608413348775 0.2297379908091557 -0.006964082692476836
0.5263536135822307 0.21424688714809292 -0.07951227913360981
0.44758229362123814 0.18402691255013792 0.09195271400072613
0.522223510430365 0.261492558827328 -0.02731110237466794
0.5042222939833607 0.23816802950935312 0.042915017269322675
0.48114254185080085 0.2490742504486434 0.024344963917229734
0.08598822301432563 0.25616909163535695 0.4134976791972065
0.41595882307655074 0.20307315569047546 -0.11638915354510004
0.4831726968414358 0.22645230235923464 -0.062251600226545634
0.39106330218064045 0.2001884075000362 -0.00160327443657593
0.4266942317446052 0.22669196560376292 -0.020681983119075653
0.4131269312942152 0.16759120510693037 0.04307467282228572
0.4273952121335469 0.19591454548314857 -0.0004175300219202427
0.4966674823625823 0.2428622345116338 -0.04381461460167202
0.3888919714557062 0.1387369725750034 -0.05704492013708773
0.2980790906939177 0.21307355236555736 -0.012473355011536569
0.45909676500322405 0.20101561062425333 0.019611964133090964
0.3923222791733707 0.2152329263150108 0.06178248268767561
0.40867828529358974 0.16434432976035396 -0.023923745833855037
0.4187310322552662 0.15562733862992673 -0.06909403258632096
0.47945778022946683 0.07058104714145941 -0.04582690940208067
0.4197206067535859 0.17985448637742252 -0.0031759387384795446
0.43653231777278734 0.1915993204786588 -0.06947796769233605
0.45542149978338387 0.2123464547575935 -0.014429167137421928
0.47282496777094707 0.31129263714777267 0.017495711671983827
0.39765790411017576 0.1684206287796428 -0.10181368959584347
0.4222760717380396 0.192713467251167 -0.022793298403499307
0.42745340190150216 0.20127780288508745 -0.011446711148551003
0.6326210827783569 0.26469289320851885 0.01436343985591293
0.3675617264975841 0.11681895922217223 -0.013211887045684989
0.5112422835801311 0.17093440448095976 -0.10427975659891331
0.43426493481449313 0.21245017681485479 0.001124021931403263
0.39639216428886925 0.1838670133622884 -0.024717976583417567
0.4586234520134269 0.20894740043250692 -0.025046862852590834
0.4016388048659394 0.17687559284919985 -0.00015005360032205317
0.45968862204219363 0.20971714577342482 -0.0052581812800269745
0.4440746189525555 0.1857594749256748 -0.0009981502765725736
0.42366823680849564 0.1902362178840633 -0.03675646715349501
0.4518780494756669 0.2156258085357905 0.029317511382657813
0.43470990462904524 0.2360009360599804 -0.006745206727543973
0.3528874755793794 0.13686852339944267 0.05768154695437033
0.37788241063006467 0.22220053485921198 0.04856148260375903
0.45924978545913575 0.2010430110481991 -0.005406858894446032
1.7736829951388557 -0.3658695825293137 0.8559180499545391
0.4609290238996806 0.19279319600113354 -0.09917850073793488
0.4638491498348145 0.22008185472623154 0.014731263033979758
0.42208224473631617 0.16312753571611438 -0.07814382176064782
0.37461164286730764 0.21697122809516145 0.052404997912617546
0.44639511451437386 0.21214441723951438 -0.015155049586496716
0.42167517436737967 0.18901265437544623 -0.08197169864155285
0.5384402410439009 0.29373882415255537 0.055411001089140655
0.46041851755514074 0.22320179390393946 0.002628137612333603
0.408660341083916 0.1927213268486696 -0.029860408245568237
0.45578191353737907 0.2113096608200209 -0.004105371434178551
0.39072450089581423 0.18193053583675578 -0.020858472868127365
0.3973048802082815 0.17619808239136603 -0.06516866305589986
0.4669698547621266 0.2179900984728249 -0.04021995486345986
0.698560674714571 0.4120849540010738 -0.17371105926925168
0.4365886617095498 0.15896019703319553 -0.08352088179420036
0.4994723680699735 0.21415118503841768 -0.04860377976402219
