# .PCD v0.7 - Point Cloud Data file format
VERSION .7
FIELDS x y z
SIZE 4 4 4 
TYPE F F F 
COUNT 1 1 1 
WIDTH 796
HEIGHT 1 
VIEWPOINT 0 0 0 1 0 0 0 
POINTS 796
DATA ascii 
0.4669157573390663 0.2055328409313688 -0.0342283402762007
0.43579333706958323 0.18960265306861857 -0.029759091847964214
0.4104502715953089 0.18430796664283378 0.03050788786333669
0.4188881066837098 0.20520155878666912 -0.03006463255763947
0.4161835462596457 0.17308174918909458 -0.03321674274225472
0.4935592948609582 0.23822983008220433 -0.041431400370242955
0.41464185979013735 0.23151769786542786 -0.005078795223440125
0.4720992947325868 0.21865639170557927 -0.014525574160330734
0.42453198630209954 0.16939008392412802 -0.11807304215980707
0.5211836587389342 0.22720808006826587 -0.04665812651313672
0.44066191567203816 0.17880821308533257 -0.05596834126671979
0.5452272269393603 0.31049392743813087 0.14591503205471668
0.37406261945720587 0.180575184331758 -0.002754630169704342
0.41957222506393066 0.19881409647486237 -0.049826531291571996
0.41972035999749835 0.14188787749318976 -0.05204621212340044
0.470161514946696 0.16612984756415017 -0.1550825336855155
0.3878048882207281 0.14852041104933278 0.024038836126038632
0.44689114681062847 0.20584176495565032 -0.035276134277239635
0.46268028258843685 0.18728944667664393 0.03254468743963912
0.5143510188614044 0.3181016379816697 0.0017783546339273926
0.5238890361188879 0.24748197822768248 0.015155360409892182
0.498531151378387 0.21115988435280997 -0.05286352330909949
0.40288161220466634 0.1931172354011892 -0.03979826457464242
0.5055440266439746 0.3710470245238895 0.07431042238124519
0.4635146155084726 0.18785378535575603 -0.03196406141293551
0.45365996814494736 0.14795083789246632 -0.05161724520857547
0.44562404163673364 0.1843293034262814 -0.04153210962388698
0.4853635540831931 0.23411154841478776 -0.025499238435543248
0.4559922690598768 0.22832636215977686 -0.02459244935991478
0.4694317896589695 0.2121581457222277 -0.037219210836084926
0.4621088460195182 0.17977204498976107 -0.03625602943803585
0.45434607004808925 0.22364364529845204 -0.060511227192137085
0.4274203344307921 0.20453963473468662 -0.13696572597081058
0.519580874115789 0.20876458848695734 -0.05332612304593454
0.39795917255713675 0.20735620764224905 0.022412307538346
0.6758150469522519 0.29932702159706537 0.029508805708076125
0.35003272229856464 0.13338203572963891 -0.06530153685665141
0.4678142353294845 0.2520034335177286 0.004280447220338601
0.3922647167114235 0.12434174502389794 0.038713487382324274
0.49631627358996866 0.22159382679163286 -0.04376750743250568
0.37429467116835724 0.17527456204771852 -0.06441529691574033
0.4160989411776086 0.19047938383823748 0.01360426637924661
0.49476102587695436 0.10552154149119986 -0.08383281662327136
0.45808167220427265 0.19344827092800188 -0.06592097789814488
0.45734903443590724 0.19706472984415768 -0.02272269065262833
0.41554778786208146 0.23590604498156154 0.04285361848953073
0.45522107773901155 0.20328410411909204 -0.009445582597805924
0.5894755914212197 0.11529760637941422 -0.07719858880528818
0.4222034391161884 0.19155954384697793 -0.03213081173328192
0.4139385052749276 0.18041090744699773 0.00827566784741407
0.37158657517871063 0.2611072603758089 0.041406498765326205
0.5321714434675897 0.1989342425929692 -0.10985296915964682
0.5127814447457695 0.1773732354951676 -0.1036943221288027
0.4206202899304827 0.16340383979968465 -0.06386938022760091
0.4480381061518699 0.10165506655906142 -0.07212084880426062
0.4573652881462351 0.18922084038054265 0.025754446602064718
0.392001930712226 0.17126122484722828 -0.04877257438647575
0.3402955707817341 0.036818577431077415 -0.09041739573905261
0.4812076482371168 0.20320092484180918 -0.01102848544590529
0.4288543706444017 0.21102642966903318 -0.016426456392537148
0.43150719681555927 0.1987686748961579 -0.030255207624136915
0.47409401901380477 0.25466484709377823 0.013606695599207796
0.4394287039264668 0.19110178280527634 -0.03619138470543248
0.4556120778696595 0.20281692911933646 -0.03931323425214828
0.5357777473314087 0.23833342621564668 0.02603350306601726
0.44093304085441787 0.21755451470600917 -0.0037782479484462783
0.4072460420696018 0.18763912463154497 -0.048468808662107676
0.4801254401246524 0.21118249273985157 -0.02480453722998277
0.39034041860405466 0.16432502675039018 -0.005906185092783289
0.4270519590136672 0.2489095354422659 0.09775644540199835
0.4582512350909127 0.2020041089484721 -0.026425877361816674
0.5032748160897 0.17849670896544012 0.031474543433205326
0.39362792328566343 0.15010671938256337 0.045737215611666215
0.4751119231872849 0.2739885924749643 0.0497354562141652
0.3705866828987041 0.1740919966401151 0.008920889511557561
0.4610273527857487 0.1642622424419642 0.008422284898514931
0.5581223752997175 0.21312198723032338 -0.11278122686373138
0.46067168926775537 0.22412385450355998 -0.08151987512991354
0.4535839854960102 0.18282668909337474 -0.023130633398778855
0.439012826686195 0.19008092323585402 -0.014365365492182036
0.48114325433311933 0.06737848502433508 -0.4922685523989685
0.4425449184283963 0.19535540522846873 0.0013123275024327086
0.49304189094681306 0.26215389919715903 0.007438556934374674
0.4021734123197547 0.20015044178595076 -0.030864560249014517
0.497842322881624 0.2296092975673929 -0.003295722039368343
0.4667467122328759 0.20673966405115607 -0.01790432451791446
0.45384262617906757 0.21521313852770163 -0.03144598275542876
0.5329827184732352 0.23225896843712235 -0.046768115011616374
0.43780493541243004 0.20582562533641635 -0.019600100605217108
0.4644253719006741 0.20057969186422042 -0.05718819915554718
0.47364554467296216 0.21091613661988617 -0.05891602375655225
0.4616227656050711 0.19562996302163072 -0.03625621061490847
0.4774760354384284 0.22135099595827512 0.0930410710819558
0.45898611421134206 0.1831927014881387 0.00347901539261386
0.5056145402833891 0.1413972292440917 -0.08706783609335389
0.4581295574586477 0.20393813203294542 -0.06563038166463286
0.44826968909308107 0.23315203938024354 0.013571721012979765
0.45783607864127873 0.2006722077460097 -0.028156182133415086
0.5109087032165576 0.2460201458255682 0.03236362593662534
0.4162832074888456 0.17964234663546108 -0.05202333298115036
0.4122281424016876 0.15929878364100603 -0.06012920195118454
0.4750743147046421 0.17262259373438837 -0.04668083335818096
0.44618080158642215 0.1863281815696496 -0.024158134553658783
0.42984401526206284 0.19386470322405103 0.0028474211424907026
0.38112449766008183 0.15923592556602273 -0.07461122752772553
0.44426820767105824 0.18402397727697917 -0.023980676570516835
0.37663100766957314 0.17147715397003083 0.043843381319163655
0.473701278695529 0.1789842135064248 -0.098454285450714
0.49371622995766984 0.3489375251238016 -0.2745663361851882
0.42280396855943536 0.17882073139102772 0.014414640019566605
0.4117676045659806 0.20410929732040017 0.013726152214857734
0.483537922442963 0.2125990042527377 -0.05595066987740438
0.5554794669300094 0.21689596582436366 -0.11184920622116579
0.4332904335408614 0.2217640570556796 -0.05445030577277521
0.3888097442905831 0.185475925044301 -0.015712515362466206
0.4639882420597985 0.19910299065504944 -0.02274682312494747
0.3492286390723507 0.14204356806146734 -0.09235986910903193
0.41016002530410844 0.17827367216474954 0.0408272986494751
0.5430176366863861 0.1622875720649546 -0.10108462880643287
0.28682542261040567 0.20325026622151654 0.02593780697682746
0.5107363106113212 0.23386359153252556 -0.0120895076441343
0.5450138364345634 0.20763779930288706 0.03955621900146866
0.45454832002418755 0.2268279285452195 -0.022546782286752887
0.417971408077662 0.16796204089840217 0.009570920632398838
0.20732919967062458 0.13040585199004795 -0.08176444810284522
0.4156620287999857 0.20021728550204898 0.027998277981254205
0.47540506337537636 0.24209234981717032 -0.010951673969614717
0.4864085117411605 0.2202505712540841 -0.08101056922569683
0.4002124959635722 0.17988075278472593 -0.0003398075150897739
0.41820520693835306 0.14646122674828632 -0.042246356928941964
0.506734087891914 0.20573885880902765 -0.10228159467256148
0.4407678312113461 0.24721115673636973 0.0424669385079568
0.35827044910284656 0.19813239795098525 -0.03131649857193963
0.420852992833602 0.15585386267432 -0.07719815456468382
0.501529988979911 0.19237590539808025 -0.08082648254386982
0.4404098639815288 0.1901947471098424 -0.03492617681214938
0.35683437418879294 0.19540867684170848 0.039652001540616766
0.4782313729737808 0.21416301745765054 -0.0516167954552742
0.5819011981838571 0.26269042052447844 -0.0702298427106598
0.48627262236006175 0.2387189509376526 0.04281174714736835
0.4596241944624637 0.21643254396119005 -0.014571015776482454
0.5228491810553493 0.20216151838658902 -0.03538246510900933
0.4360283016033293 0.16599081016840955 -0.013499153408901066
0.49563222229099324 0.20025451599875055 0.09897814374630798
0.4565815409674059 0.20170640566989562 -0.008881141499600176
0.4012319510423623 0.15733880034002823 -0.089165889819526
0.503941133395017 0.22053110628365857 -0.0561143756917204
0.1542807674256892 0.24089173938533293 0.14998050699674081
0.5280941235851344 0.19313864938231973 -0.04806469628715604
0.33813680024070436 0.19820028605664675 0.03931434009771806
0.42053300685371653 0.2059549019938487 -0.05111761007448479
0.3202284029379143 0.16521865335218422 -0.02530647223898086
0.5611605057973605 0.27744420218661503 -0.005913726833682631
0.5002216838587685 0.23222329383099805 -0.027596249690390096
0.3688772985229747 0.17318636233282803 0.04407969235228393
0.5440736997924347 0.2600389325131971 -0.006539251691137338
0.771843842527332 -0.30187650228188545 0.29743444237894323
0.46086734223736414 0.19412777050965246 -0.04301852696706021
0.5161594026213265 0.2010260397221657 -0.0642319561514455
0.498805216353162 0.2056688424411277 0.007192805708896799
0.4964389260415629 0.2248809033337693 -0.08981588206066249
0.4577120106362713 0.20399069760657085 -0.033129627980741816
0.5075353176318487 0.2278097675238655 -0.04797557604624103
0.4095423161791558 0.1931988664216533 -0.01182355906823318
0.4632212373649338 0.218628986818743 -0.03127326223216187
0.2715536799657059 0.28564056107779834 0.1623962172135407
0.4245504811815124 0.19155115979653203 0.02794671136796012
0.4753466638885868 0.19729355598012432 -0.03218051075717199
0.4724181236865519 0.1905729325702339 -0.04829249978483574
0.4199024934219011 0.21865877565113578 0.00284847588169157
0.4532929652685169 0.19968883221113742 -0.026957761707592454
0.4594532211729927 0.18404720690813292 -0.03934437745630248
0.46865395226345186 0.2100116902281144 -0.014955736646726336
0.3860445298893467 -0.08124357237198865 -0.04551131911830453
0.3544994618826536 0.1283996606216533 -0.061203280746468636
0.48220510829860075 0.2253868819263687 0.06670540179284501
0.39539858720387144 0.16313288664710512 -0.028290182791238294
0.4091652237045764 0.2069565049865929 0.0038250865918314503
0.46511595410994744 0.19149332749688597 -0.023040937896510627
0.24307665982995275 0.15146059487270236 0.001851528740147046
0.4759158439857316 0.2502054466893071 0.029912643390360927
0.41212044958463423 0.21174271948086698 0.011526399680107602
0.49756969902476555 0.22140223121567715 0.0037039715724631606
0.38563799191574333 0.15553139440345376 0.05224056877219141
0.29481800161102 0.089476599822234 -0.0016157021006932837
0.5165571253239278 0.23469695846965521 0.004044090896513808
0.5143410842611758 0.31773801172928984 -0.012119561060728756
0.48269569427498027 0.2405758473261983 -0.03601872560039965
0.34249093084115145 0.45052320934304646 -0.1427412358477227
0.3568456083993965 0.17176311389897592 -0.06841446469385914
0.49741082149252236 0.21897091298303906 -0.04887990638945894
0.39017163633974405 0.1351423229642421 -0.08544016027414614
0.45347818216910696 0.22734076012034166 0.01378020300666094
0.4877077895687165 0.24757043134641776 0.048132348969375016
0.3688248528542175 0.1739608084286033 -0.021428601319740892
0.39220532993998347 0.1781132251391 -0.04132326780811013
0.45155338156860125 0.2318983843373843 -0.11293501907898928
0.46277687832700565 0.2195944095658433 -0.014434220676861287
0.43018816620137557 0.1704485191268077 -0.032848946101935894
0.46169447859089985 0.21571358594421497 -0.043843016823984726
0.29405968753680156 0.04830548849562888 -0.06706587783133955
0.4850603166743497 0.23820813208135405 -0.0257965460530869
0.44103300558946046 0.18492526962344868 -0.05314245588272115
0.5162273516139066 0.25540462321059465 -0.11822582230269063
0.38578509220968726 0.2059580888661401 0.09019177362807795
0.4509693368119372 0.22522778882893135 -0.007125900767164239
0.48233050533721666 0.22651586611488028 -0.016523678854909463
0.4527712227479981 0.1528277337536963 -0.10151782745560922
0.5020597376024085 0.2841597719279463 -0.08332698462061217
0.5013409410539111 0.19223155289600413 -0.08932095681078067
0.4549191679282245 0.23207016638423283 0.011428826806877623
0.4879754201133011 0.23748821825805067 -0.009039176036054641
0.4656767116978102 0.20210362532455406 -0.06994273033897969
0.4204792670743558 0.16084414956461046 0.019736380403628573
0.36438241749701206 0.16133694215366745 -0.02035103849541997
0.4644590075045869 0.2429041188451464 -0.018805937778211046
0.4484901357738096 0.2066326406543908 -0.03848498973664505
0.4054317492676347 0.16836265946599838 -0.02676687383878118
0.20039375478620514 0.10423629720517624 0.3182727315311098
0.4630263187758743 0.15578714040609043 -0.054395885123625476
0.504177504615825 0.2873121761656563 0.07563405533764467
0.4518174831953843 0.27174135371707564 0.009820401089967845
0.5772573256344629 0.244168336370592 -0.017548197890135953
0.48352537193061096 0.26871252891507424 -0.002694050949571647
0.6873738451644158 0.19384933498589874 -0.10633710276849229
0.45907039094615243 0.22213752616698912 -0.005653713310181274
0.38703862762776 0.15222341142717255 0.01058062207613375
0.39653810276351464 0.3109543748450676 0.0163821808096003
0.547902860877258 0.2780595753816755 0.05258671978857876
0.45463864629716966 0.21075946935823708 -0.03539467181053624
0.4651241149892513 0.19014204969735715 0.05839699523795616
0.45813833840419704 0.19611607536384668 -0.03119883944057733
0.4630475606147968 0.19960364158333732 -0.046992761394847093
0.4618848618248421 0.18480544020499678 -0.020749602189908956
0.4664183313948911 0.14024672622410606 -0.09754045256019594
0.44471279157255594 0.20152741389742346 -0.019091369045384
0.4493914423441083 0.21564121235212497 -0.07321203124843123
0.4430204161540843 0.197154586319499 -0.024265706975796775
0.45401393437454374 0.19271504257021377 -0.015375855765583424
0.4435624991210858 0.22155932202045392 -0.03237768129724827
0.46620257826351974 0.18117474190543703 -0.02699383515182774
0.5435746340024821 0.4553546991577946 0.00820378205642669
0.47287597639211754 0.18048449098212416 -0.0713853401825304
0.5201180375103007 0.21327100768603202 -0.062259290608480455
0.23606507088047124 0.14297602074694282 0.025608296311631307
0.4446832912887686 0.199963749840407 0.027108190590453773
0.4957132701030105 0.21029785412417823 -0.07185932259616834
0.45370351201729875 0.1981494495594518 -0.045455955634864154
0.3771310967746615 0.15904854887992315 -0.02555591069858565
0.4625797610223543 0.20437932248132995 -0.03329752945285236
0.4833090182471409 0.2251612727896486 -0.02558580063082161
0.4243273244736798 0.23065895778569256 -0.03946113747093705
0.497164098650714 0.17805629619178376 -0.03990119692656435
0.39982795822038497 0.25126541905527233 0.023601122002460784
0.48252807708949774 0.1648051205973502 -0.15645713852754284
0.5699647747998426 0.2690502564268087 -0.012697561971819482
0.4987640071355628 0.2728058358082137 0.007044143716086637
0.4591416468937126 0.20565425602202936 -0.032484209483072846
0.5007101010489521 0.2165543537736312 0.08113239703794761
0.37380129527615225 0.1655901582778938 -0.06334871567025857
0.47001365091254854 0.20670512948046849 0.00983931691393991
0.5165472345674544 0.22159216611271404 -0.11893411941545651
0.44265313180373766 0.20133990663273948 -0.022716926023008455
0.3248451475654974 0.1185016665623948 -0.06673920786676035
0.3814003104384085 0.18380103304087925 -0.02057810391730186
0.4316896406781865 0.1892060965899418 -0.029696450586641276
0.42164041550877585 0.18499339989260477 -0.021554351813861672
0.5067754767391932 0.18915337310724567 -0.11298888239262794
0.3711839949852447 0.18563174098119362 -0.0397354304755595
0.4688149727699624 0.23324113895998266 -0.00949158813006079
0.5063221048307156 0.18519200380404754 -0.09553922126511338
0.3859277811559565 0.1546813213457625 -0.05026661372366448
0.4471104972940907 0.3006168412772183 0.09283437826003649
0.40271998434613465 0.19539808071849052 -0.03941335462664597
0.4045270664535394 0.2054058491849844 0.024017674470229622
0.3451513481454498 0.18571570645599422 0.0068093532442219384
0.43642636143000857 0.184967879324077 -0.037126773397886836
0.41966429846351616 0.20511722850986303 -0.014386805168129513
0.4543258936371046 0.1843694857604561 0.034299889498683456
0.3815108110632508 0.14848016528981134 -0.04327974099334142
0.7958753295035024 -0.0021183296933600104 -0.7164842751948584
0.4614595303066693 0.2081524397661383 -0.013871345151457604
0.46721249005243237 0.226459125103176 -0.02646332895828607
0.49102667265331945 0.24349551384085544 0.006315802058466602
0.44676388284113955 0.17779517673480427 -0.06249031173859976
0.43786154844903535 0.17777554269551388 -0.03725385511225454
0.4308381809914721 0.18108028839925794 -0.0023649251740778254
0.47072725273949345 0.1775400999186445 -0.1032345790389968
0.5057874810820664 0.24949737622623047 -0.04246859633778399
0.5463306625276374 0.25812155165648676 -0.03802916022453928
0.46688750660207745 0.21147545497940712 -0.0030287168018787725
0.4598262512373452 0.19672949144106155 -0.024327419658021654
0.47116907977309097 0.18451808410716808 -0.04942081599799053
0.4875484781965582 0.22566964273906365 -0.006719307465999691
0.49863068613032624 0.1644984885897003 -0.06313333451400638
0.4740266887914686 0.21608681486938508 -0.0019871943401028602
0.5029931361349327 0.22690479361409643 -0.07866275606691886
0.39450172382845494 0.16742928510124955 0.0040112334039577036
0.4828078905070896 0.16252619829603532 -0.151385524049104
0.47265261444638895 0.08030274620594469 0.06278154338832564
0.4296087559598618 0.20974926369281377 -0.028333786085369184
0.33857169262792297 0.14930315792037163 -0.1455434200506147
0.404992609621047 0.12104766241827747 -0.05897230943685372
0.4467255085874626 0.2393743832525672 0.05402608198274095
0.5305618690668013 0.22756025589538353 -0.04076340936808265
0.3529074074989609 0.13276569864783028 -0.07087783708617224
0.5151678804594155 0.3120618031233704 0.04824470016892235
0.3912679955604972 0.201487949202118 0.012910838923488654
0.4805153401065496 0.23005002490845072 -0.021365822893940845
0.5010339145419067 0.19106687375939657 -0.06492773968248855
0.47201971287832123 0.20985828927994987 -0.028258598255092693
0.4503098287566871 0.19981646504822947 -0.04130148471784878
0.3715323366928942 0.21579496398061337 -0.08136207024176656
0.421632258834407 0.20543976718091983 -0.030523409024013404
0.4395610561804659 0.18679631689380471 -0.031391499461918215
0.5204230999619313 0.2214657096415067 -0.12211305773075765
0.4031098102670114 0.17358922094800278 -0.019238379762043678
0.5241187068620405 0.25874681635617947 0.006019744631956314
0.5037368547492633 0.21009306717144227 0.017551377690480763
0.5047823052588569 0.2040940369103197 -0.007747049510840043
0.44252978336339766 0.21243452401313334 -0.009528742812364044
0.32653785450416706 0.1406151056016114 0.03978617553667618
0.401325393523166 0.2877896189329192 -0.017345173288987326
0.40248190175874754 0.20032105857619342 -0.22862733446245898
0.47980444412804957 0.19330161264369394 -0.012455730022679745
0.3966400026695993 0.13096080121619025 -0.044962347671031466
0.5036449463157027 0.18256313761216347 -0.12634615779037972
0.5086355353396641 0.2237147062183169 0.010053854191056644
0.486087561110395 0.2272490629102748 -0.01072779545208391
0.4802678155036375 0.18722812630994667 -0.05955962573196416
0.42953368082552856 0.1969840891773913 -0.012179526303071952
0.44567788092686556 0.212215443523462 -0.0076568473090077305
0.4710326574815582 0.1791337622508138 -0.07964246820708354
0.40435584661643986 0.1649374398912471 -0.046870553507034174
0.4373274797634963 0.20336393405281683 -0.022502712464884667
0.3335587346831943 0.1116146852059785 -0.09576462654956686
0.5232922054702129 0.25649816073546106 0.02973868884404851
0.48021038868675703 0.22005259930290322 -0.034527856305018645
0.44262727250402634 0.15768646243927265 0.03433355513865877
0.4864774670119374 0.20197449967547243 -0.0456178720735636
0.5043797750893333 0.2014315577007011 -0.14744160124899963
0.41317317013646004 0.14035041019376138 -0.0077400375228648954
0.4088608796702431 0.12342005198988204 0.017321038398961264
0.3882442311524983 0.17652495247247657 -0.0467355831559928
0.344920490773319 0.21046735814471162 -0.06623583655218113
0.42577533670790046 0.1542836488735304 -0.07739847901936514
0.4238182717348167 0.19563489257313904 -0.026904711938470882
0.43994200737478195 0.19100723016653376 -0.003705109091256986
0.4546624640357635 0.20155506016575941 -0.021713637806200836
0.4124758850531265 0.174821903795646 -0.06071864005070893
0.4589197681330148 0.20057685771720912 -0.02825678470875914
0.5327502247274225 0.15286382442886293 -0.10686325873885494
0.4052239748186963 0.20347461397064137 -0.03928406378017257
0.4375811294677163 0.18891526137120707 -0.03322248231836511
0.6080097733678116 0.06100768950933855 -0.08657799101379737
0.44820119523492963 0.22536946867089114 0.0006055137603482308
0.3887435655740745 0.18167977113233746 -0.01860089573500545
0.40893728725517065 0.15902340947786797 -0.05990848059340692
0.4559766310699729 0.2188217521267859 -0.05737507718126267
0.3203063169991651 0.20639618173666463 -0.01015086636579099
0.46464483667712386 0.1818918640909004 -0.01950195815921063
0.46709794128729243 0.20735312951075002 -0.03642857467386307
0.45630159839828366 0.2124851644239527 -0.023032743866906458
0.3243394983720833 0.1726505948268482 0.004783925264078448
0.45935798495916913 0.10387398887007748 -0.10661528736019932
0.4601075043864711 0.2699927340564443 -0.07232874717259108
0.47787036755789813 0.17170349800517215 -0.005249779561182777
0.48425382188911215 0.17062233812153238 -0.06259216146601432
0.467875163014142 0.22802201838712222 0.03337384902800977
0.48534004255984087 0.18589897797670574 -0.0778152102992351
0.4873877666564681 0.18236695311163942 -0.07216732641987278
0.5224671627980655 0.2380745027360831 -0.03758147674980705
0.3957105130913021 0.18255417883553093 0.04565162074383977
0.48555883635654595 0.1987203356231646 -0.045726513048151674
0.43081790417929255 0.20773077930718387 -0.08644872615371924
0.4775072149675026 0.17384595871519082 -0.0819658576212845
0.5449823243187382 0.26521744291434857 -0.1165461023703358
0.5207243842551463 0.22970684658378104 0.00022975255762958113
0.47173749673213194 0.21235345522789828 -0.021725965972379413
0.418438929552579 0.15093865770249693 0.03575340667219962
0.3922003080217138 0.18459303679804862 -0.11523384598967823
0.3882492341248849 0.21626697429690012 0.11440215563818867
0.34947864570310117 0.16300719766735483 0.03271326434804678
0.5099591357336664 0.18216911263388624 -0.09628469427484276
0.47647043721524085 0.23310410361870026 -0.033234832726520835
0.2603461192885703 0.2388138713713488 -0.007165979137425893
0.4772916601805264 0.30967825623301337 0.06565153401513157
0.52604380477554 0.16822396796089834 -0.09926393649658394
1.2273084811778432 0.6084501331314129 0.32981615411536325
0.41804047314484194 0.14228617568490165 -0.04374693142372621
0.4191250679868972 0.17254201756284715 -0.03435894709852505
0.4324611131839333 0.18505152807279046 -0.004829853623959934
0.5107804661659401 0.1905265796431479 -0.04944677452209589
0.4434579219438888 0.1843963608932313 -0.012203045861127748
0.4243974050571353 0.2820210656415725 -0.18559183632422105
0.5036720368328247 0.18027509204469538 -0.15752454034952734
0.35008646091414164 0.2006721376496614 0.06014822931840058
0.43152823179120503 0.11907452134190066 -0.07335496688179433
0.45986688517859875 0.19214978562243346 -0.04128374111483879
0.34630254972003627 0.12302622870319624 -0.0275205990795655
0.5254993295306178 0.2421253583777343 -0.00019482572167817125
0.6747191878006618 0.06438749078890282 2.247495709186012
0.4391798965083211 0.19984615165449782 -0.11107245934263688
0.44859920125014696 0.18914357109213142 -0.04690186886435299
0.4591470788444667 0.1669320106958594 0.001871931755815126
0.4590989785299513 0.17870800262362252 -0.07045564897308054
0.4624611189470471 0.18808638914872233 -0.04762471305579652
0.4749519297928799 0.2174395747160105 -0.03649909759454317
0.3730845880990188 0.21993930903887815 0.035213674520178984
0.40110634454590866 0.14711039259589143 -0.042295384807900405
0.3872240033167458 0.1728780315949905 0.010508261253946216
0.4884788140424092 0.20834063985046214 -0.025470399930554777
0.4261462546100887 0.19271353573260797 -0.023488080484469265
0.42534979588560873 0.22309883985393242 0.014997472910550869
0.3762592899503119 0.1756592263058252 -0.0035747646685422296
0.27428923658565907 0.29050555655675225 0.12501242787672595
0.4338414667029582 0.19431959140334243 -0.05137031363024391
0.41026118488525753 0.15861268186583288 -0.040571071061179964
0.4873500920111695 0.17864721673714712 -0.07391646254404804
0.4522399499779226 0.16912386540465718 -0.00956137022654957
0.5359768248251982 0.23497942317149523 -0.06447817801239353
0.41868140872006165 0.12898377486965273 0.053164112533067964
0.40231067458596215 0.1679913601901717 -0.04263688520407527
0.5191378632246284 0.1588751668483468 -0.11512559924830157
0.4124447261283706 0.1287368271295577 -0.030077170440776513
0.4079610176259365 0.16472500760525577 -0.1769367614158739
0.43804824168127254 0.1875535379445381 -0.036425621644411876
0.46741341783828716 0.14150960951806724 -0.09434718303586465
0.38376017154914166 0.2215418354357439 0.07027499520013691
0.3739958234518497 0.20526271865054468 0.05950580070427236
0.4586311083267134 0.18829737499211774 0.023290667947634347
0.512098223576757 0.223201582417758 -0.04820853238712175
0.5464871350898051 0.2634120376279441 -0.01926361679275601
0.4621314961211027 0.1737124743366394 -0.05518898293848906
0.4812978432695161 0.20626625413082422 -0.007080510457456057
0.39757564395769407 0.11745235178813118 -0.07759714925373373
0.3432640131301241 0.17560904369136665 -0.08348736911938204
0.7849260802401403 -0.21185335502759983 0.16120881916870644
0.22474388390411093 0.09347337156124524 -0.035063345744674734
0.4164670818803984 0.14893139478431294 -0.020671778083794834
0.5596094133701683 0.29441448481439636 -0.11411599674562467
0.5127126165987335 0.27910278801419963 0.0009600470811648165
0.43746593320902605 0.2097592443589349 -0.05012663615698898
0.34101263670088144 0.2520426846196102 -0.0830483237915729
0.4371645941767355 0.16492462679850917 0.06095962693180468
0.49935354475097427 0.28344574470099815 0.01870706291708757
0.4368523956656958 0.1941341370108347 -0.03417245000304092
0.3526037918455671 0.1569060989395723 -0.016006692711584947
0.44854073894805424 0.16847352529173065 -0.0732895439106187
0.4665322714467095 0.17048357568361894 -0.1514413599357738
0.4085936210463359 0.2338656593021966 0.08650749508694844
0.4424646958514984 0.24261253621928347 -0.05447387234843859
0.44552302969096047 0.19973390020108184 -0.026980504352792423
0.4043020502133885 0.20959603997197007 0.11865325047349984
0.5145439718641001 0.2505990166764178 -0.0051253576029637316
0.49283100017254355 0.19948559112809505 -0.04820786176779279
0.47229723453030203 0.20862622007372522 0.00822399868542334
0.4207807142166615 0.19681992100285584 0.009830418877612601
0.44745183711805225 0.21208824539175453 -0.024928182813113153
0.468376518948304 0.18625560719914347 -0.08314621954565382
0.44665646475722554 0.22204476607323897 0.04776773093951192
0.4230166288061099 0.20411696603734697 0.004076327023454951
0.443587671155953 0.177325638468659 -0.0050516041648904775
0.40432404642753283 0.1707200674548517 -0.0712882117018836
0.3503627064190198 0.19405895346335456 -0.09404780789370193
0.4603012956925454 0.17831478043521543 -0.046613833346455635
0.4037250552804039 0.21559417356311883 0.03544517937160663
0.40144860964046813 0.17134195831025067 -0.048173041115376236
0.40660896977838945 0.17677785309423655 -0.01567072102280065
0.37743003957757537 0.15846047155795873 -0.029000620160275048
0.5021214579037832 0.2363138873568431 -0.03481292316834583
0.3933420544879027 0.18343933426214676 0.007891076451201684
0.47045497423255256 0.21894362331941863 -0.03351302746833085
0.47830989190759965 0.19387303091956198 -0.06394464596348826
0.5264743305367858 0.17587462311307434 -0.10434325542814804
0.4838969745131436 0.19918010213609705 -0.06012537338500579
0.4661633033818049 0.21160915038439043 0.011402671980391688
0.43235211628351067 0.13806397258900915 -0.08262180031928779
0.4249117391972277 0.23601125652277233 0.07464629526204192
0.39653914787280087 0.16390246299604883 -0.0030782887296538775
0.4193532882317328 0.40155933107885744 0.00455690413582488
0.37844639757415166 0.14764050843702137 -0.059107110820917796
0.45961569014934867 0.18427682305377857 -0.03042991839991771
0.4548818081481585 0.2560696947756611 -0.008212536717280727
0.4036676987186212 0.1608737711496815 -0.07718766194787463
0.47460453536302794 0.17572815806209974 -0.04404647113869942
0.4952720818699845 0.22617454551811988 -0.03997308571572944
0.4818637783595676 0.20839890958893648 -0.07719084644891439
0.4626955545080307 0.1934155759116436 0.00021865724087888339
0.35625042419319186 0.1199112953981114 0.0012051121946257126
0.4380772739554857 0.26656836960147245 -0.04822058557149944
0.3785149605426881 0.24130376979402968 0.0076253259779406335
0.45819640798531225 0.1799798063197784 -0.08834976408851958
0.2604151420195251 0.0986585761266241 0.04205606931270722
0.484898381515535 0.22355907209419001 -0.0779667055844584
0.47368445831999395 0.2209192485653091 -0.03923248394774248
0.4290638084560925 0.14583607366063234 -0.05863811286351961
0.513288174649503 0.1865668190505403 -0.03478286949754761
0.4431809491332075 0.16704969592409213 -0.05782374308579108
0.49288678747839754 0.2282595696820806 0.04461683425765273
0.4521051534316314 0.19412103359148603 -0.04843431713098312
0.42463656717691833 0.20174961015226245 -0.00776109827432947
0.4035768594767717 0.21166591350049657 -0.013333249722734308
0.38020891347763097 0.19341949361788124 -0.02690425102596805
0.4004685591383179 0.21189162298009023 -0.028811657890358333
0.7220078002272885 0.2898186937406848 -0.06456044155910945
0.30182463997934406 0.21371483318844753 0.13065098155703936
0.3962149094131604 0.22156516454694497 0.045211828743475735
0.4552689447225049 0.21029406026438835 -0.020776367155036723
0.3778085911390292 0.19264026786675004 0.07029892183538777
0.4535244421417133 0.2333970146915476 0.04226507572388982
-0.3037659508421342 -0.1804585628747759 -0.23096322344770215
0.4000268001592673 0.21427115446684297 0.04775133988684388
0.44526289912366224 0.19497926169958646 -0.06717582998989258
0.4584444439936277 0.21963501872274094 0.050944644707357156
0.41980600899725573 0.16744443653198005 -0.07146494186585528
0.47077740216758457 0.15109474223044117 -0.07325021399667264
0.5203790713596703 0.2696342425695377 -0.060401582758686345
0.44505356216288305 0.1798610066336721 -0.03494121354874835
0.5367698374060268 0.17194768256152315 -0.11949101183918742
0.42189283938401445 0.23194775857481886 0.028516023955063474
0.4837402607255541 0.22637665067696844 -0.05247651551808019
0.4577456189787483 0.21425163339549158 0.014214542123994534
0.3926055525298864 0.2367391988245231 0.08840513970021391
0.5467008143414773 0.36437165251007286 0.17697922638785712
0.4794640883946357 0.20358655314976204 -0.013653019786374898
0.4916213752331515 0.3011737746775651 0.05815013619391607
0.4893449246215198 0.11719629485767769 -0.08894175186132713
0.4268912701629688 0.19816273900133297 -0.01766055569760283
0.591741938144466 0.174279727323011 -0.12010873501378683
0.44338956166041044 0.21524303620728347 -0.03463650583861977
0.4606434267130055 0.17666781215230287 -0.051676285528600374
0.3313898817593497 0.10932344039194675 -0.024959903831756947
0.3592897512118185 0.16746970778248738 0.00673549979217114
0.525430358266405 0.22457748175192194 -0.13256017186846236
0.4987624502471135 0.235095110450672 0.009642226075555982
0.4343265457714409 0.18275965321254262 -0.027004510437564022
0.38271684611737555 0.20610628815580867 0.10367826027139415
0.43275296224459225 0.27988532569801805 0.031007855568446985
0.479157121325656 0.187683933615034 -0.04624993957550316
0.41898296231313736 0.18801938128439133 -0.07899327123485023
0.41452650839090666 0.20909851597912166 -0.06287206068245155
0.495251363766954 0.22179524950050222 -0.05431833335319425
0.4039103769944603 0.16229713751528152 -0.02789580703316119
0.4679525777521576 0.21698750344040718 -0.010179856252449326
0.4434016696270646 0.23551226269344738 -0.004414800255190698
0.3695809308674285 0.162157194377329 -0.006764792693473964
0.4422890359915215 0.26487567583637883 -0.005349034742550884
0.3542637707148799 0.226364479532009 0.03655034080472319
0.48628934841262605 0.22545148277225735 0.0010159892337497922
0.4348881193962342 0.18243339777122003 -0.01679022784958306
0.5268613833098925 0.21988369007772235 -0.037354676027547384
0.4766600477464493 0.24131593112998928 -0.03613652102396259
0.4280630166098689 0.18815810626435336 -0.04289032432625106
0.4170397190454054 0.20515567588374495 0.00808251791104908
0.446799898004798 0.21601313816361767 -0.0018488018411062512
0.43911218801662244 0.27064138347373046 0.06450812512386506
0.45664023296683354 0.22717588654725773 0.0005024174093790634
0.4478228878759438 0.1903494183681147 -0.011435660610786158
0.3924221723795114 0.20577489775689628 -0.019348339845393525
0.5468052299493564 0.18250726217408442 -0.1066668978054679
0.497437467277166 0.19114362612238267 -0.051863980433381585
0.5082798185263186 0.20105727608390112 -0.08495949041257234
0.4885586421367947 0.2315562560774822 -0.007875151877072994
0.500819467504968 0.20505903459513775 -0.04595001681113331
0.46669475827445694 0.254993373519639 0.032527010856171046
0.47823078447726175 0.1927058545238367 -0.0762504592291009
0.5413207322236957 0.2593214726940545 0.008918960319221014
0.5079490036819294 0.1369086295835018 -0.10030562423972356
0.42136118240644294 0.18669102364864898 -0.03087649655802238
0.5291041739049689 0.2592110351478141 0.04749682385332221
0.44031173442331806 0.1800186411706477 -0.09946195383204781
0.5068333076835074 0.17860038985821802 -0.10324604976578655
0.40588026749927053 0.2231144799343383 0.048788205699850096
0.461740578637702 0.25569366876547406 0.04325174629084927
0.4674337489099827 0.20569809591930266 -0.05845140104140967
0.4829135215602065 0.23530976051550567 0.017523066892067618
0.3971806045631041 0.18964745269951777 -0.04314391050876054
0.3741218544519427 0.17127277374365235 -0.0013846481171952973
0.4711058589210495 0.23862903034715544 -0.026315879235170314
0.3341952257331542 0.14869730708092277 0.04284660386167616
0.5040454970211385 0.22395007478513662 -0.06217599314818756
0.41345989835895125 0.17752063636962134 -0.05814621115369789
0.37027355739347456 0.16259112924389285 -0.12229621635928822
0.3470402605610019 0.13076198081100188 -0.01047927668111015
0.45979939046617346 0.15784049537532496 0.07893207528886137
0.4721941345175793 0.22788820712423785 -0.0077889767631518225
0.40498182392738613 0.1623867540279207 -0.09020443937851041
0.4391174665607167 0.19482713484796932 -0.07098621969821295
0.43770418632799135 0.16381802471393314 -0.03535221423892665
0.7275333275451459 -0.4000099399913637 -0.10838491538885364
0.5492508479374152 0.11079011329879052 -0.09332170135826345
0.4522794835474855 0.18239140962089095 -0.01187157462277355
0.42921245084185955 0.16737155078010346 -0.03373574294205639
0.45301042347561804 0.2027162645783278 -0.01859428636689131
0.43919174526104143 0.2499378067225706 -0.01338502906256167
0.6086056096848012 0.19379736782190093 -0.13434682156147915
0.5111380739779747 0.15730641942319323 -0.04621342771466175
0.35766497485015236 0.12484962725388016 -0.09079885833348555
2.633449533001837 -1.3280644729370294 0.7234332480968391
0.4614849024640648 0.22790409530890088 -0.08435701016162511
0.4418048556668026 0.21218146048761355 -0.037717651799567875
0.43097448731482757 0.2377948286403182 0.004341746807767777
0.3886818869373059 0.17351886378351367 -0.03070411480118196
0.44525823052504165 0.18365610740214322 -0.03608306979269571
0.4073199712332496 0.1450126481018401 0.013366272257158585
1.6483423468129672 0.515281301020579 0.37384343922161634
0.49648571359921334 0.2162472363408483 -0.07769760779135026
0.5378858414026269 0.24348917336271825 0.01782265902556901
0.4722384977835077 0.21015714556025955 0.033786342610909514
0.34999607729339743 0.17452902254322566 -0.020339369512470284
0.3828272612629178 0.20359292675202312 0.08077914597438962
0.5020399190742495 0.22857295247303 -0.013469594795068929
1.431026840595635 2.567836279793113 0.7801168091023385
0.5412096155137505 0.31665742783629014 -0.016733293662326787
0.3923789340955466 0.2152942823728381 0.05891751078286234
0.4324594901763703 0.2175220349061675 0.06385753068738609
0.5736133919105413 0.25468618176614655 0.018164670109740655
0.45981147784245024 0.171108951943296 -0.09657960394224574
0.5790467825283656 0.21564315389812805 -0.00161015456976088
0.5194017460659381 0.3101907251421494 0.07043638298597443
0.44488137610402134 0.2101707115985363 -0.004498178244574547
0.4635061304983594 0.2116942571910272 0.0035664170299298803
0.8336746193381259 0.20999293011166742 0.3564715830990792
0.4347041803615497 0.21446390778586988 -0.01794526489837267
0.4156218431996166 0.21544867536277934 0.005399979595935633
0.5022570543293341 0.20730362961631954 -0.04089740134244835
0.45883925643153134 0.2038036672112753 -0.008561435176034138
0.4120206223347367 0.1992070932320189 -0.052048691841321215
0.4021530795234298 0.2300147724695023 -0.029446276158012097
0.500724050405907 0.2553824344306861 -0.03475226733058889
0.5253383174827064 0.12500993267619265 -0.19238831610607576
0.4265400229442662 0.1976430380459533 -0.019319173367307485
0.45203156576090464 0.20911899880105977 -0.04051522964749665
0.31824267803820305 0.1677056619034829 -0.03627391712252859
0.5246389378877581 0.2291125655837618 -0.008852319810969789
0.484386134670558 0.17192408617259503 -0.06153851652685205
0.46462295458405833 0.22307487013883076 -0.017033195342364138
0.40031142578128254 0.17678551861044411 0.013126515423792284
0.44692213491742905 0.205759996008112 -0.012737772613093057
0.46662455228300814 0.2015075878004211 -0.03524312861716794
0.4408969908928526 0.1605521153282723 -0.11281702817919381
0.48086024814298867 0.1847361832599006 -0.006666652964739228
0.466773149342842 0.22435700358462896 -0.033352089152799635
0.4122308734750817 0.21068934870032763 -0.16619143435767114
0.4128347259404137 0.2020005741345301 0.016011928656823216
0.4956075852377211 0.20092221235600505 -0.10544437936451345
0.4867954112717001 0.20333687252389154 -0.07873706820814164
0.43855335721109157 0.1804116590885485 -0.0888078546670954
0.21007803233587197 0.09857157720053067 -0.23353866192630335
0.42672265322580927 0.20449214582140485 -0.061079015554028615
0.4670814357649391 0.19240607256480757 -0.07366313479548126
0.47272349409256265 0.21602290948410996 -0.014882380895244296
0.4951896644019911 0.23093231821175664 -0.05263796280385691
0.4278066071553326 0.23080211519435068 0.003307745636305981
0.4391610087551072 0.20709030142594997 -0.03240291652204519
0.4695663063862838 0.18005949741562688 -0.023379290700262345
0.5864391770258806 0.21311873821187532 -0.08632334657234253
0.4123372241702583 0.1623064714741389 -0.0042364634892351205
0.3871318044112968 0.30378417420527626 -0.046319816750880705
0.4485628766898344 0.22103004481257926 -0.07758512152581432
0.354978586546153 0.1632559216330236 0.09306047981331744
0.567845708756181 0.41615270822956063 -0.2304826154016979
0.3767060928041843 0.23346554003691722 0.0297490988794209
0.4851882320853065 0.20477955346642318 0.004691153510520962
0.5370409575119766 0.31264512653605436 -0.02179736455329362
0.476440873944469 0.2952194710490801 0.08708200675464184
0.42486336680188685 0.22859083256344093 -0.0042110317574781675
0.4288541306340363 0.22898280110990754 0.018945128649377807
0.8456796323892917 0.19609545885441548 -0.08388544287680588
0.5661273829445292 0.1766126209127492 -0.04807412472798944
0.5134040626041667 0.19375568873044813 -0.10782195101731418
0.4058441583188568 0.15883333080104478 0.015424995201669844
0.631801734187917 0.9904987486606274 -0.08955190706691951
0.3647321751858641 0.15683962301336862 0.03209909745046957
0.44965704829236586 0.1839616656820624 -0.04387805330937056
0.1842700772706536 0.06029835678438644 0.058095916132401726
0.4816202613410354 0.20869569287322065 -0.036242341090968466
0.4203414656811475 0.1789874984673503 -0.033155014721529596
0.5037881781717033 0.15130813274728894 -0.1003959163995205
0.4819183771945603 0.19730223181336726 -0.013332019254846728
0.37917626160439966 0.1738944278343979 0.013521198499134357
0.44106769184440964 0.1914012067812223 -0.1019530400410531
0.5086428580703739 0.16342858353016254 -0.1377638728104671
0.40184146877153637 0.10761686396020309 -0.0805523847895131
0.49235696137158413 0.19013936329814385 -0.06553704715045683
0.4255822110724239 0.1514772044280619 -0.11776094632811862
0.43939262581251626 0.20325883511782195 -0.0073672807199045565
0.46159433586372245 0.19991138201005754 -0.037824342555651924
0.4316546496420983 0.21173558784876434 0.042344738472081644
0.4450129367404685 0.1730908030755245 -0.059370966092330946
0.40527901558046153 0.19879739077924796 -0.026545933438058
0.5106211030203696 0.21744721548999735 -0.10534367085088547
0.496965228779672 0.2404224908735273 -0.00459486978905943
0.4601710112961115 0.2547737374005692 -0.04210609117791364
0.474951052607949 0.22079795649710832 -0.008720236442968599
0.4738236044717752 0.2101809508949657 -0.03911926586035008
0.4469764702276393 0.22832858541771373 0.02230152755990389
0.4413486725139677 0.16499698896834047 -0.02098570802093036
0.4997742232278739 0.17691388999955393 -0.06564581155650728
0.6415431944643615 0.06034751266713556 -0.09004889122903137
0.4602359686281403 0.19535165646453834 -0.0002057054513500134
0.4657294693017775 0.2093415446671827 -0.01425856176841478
0.4693617391007905 0.23649206680372004 -0.026986345824866476
0.4729881023222191 0.2087058524740968 -0.026835185911892268
0.40357246313651274 0.1973737408974756 -0.012715735727113042
0.6291883441111992 0.20520002496454026 0.004313614271254096
0.45552137119250347 0.22678651292382312 0.0165722292112207
0.46710471525635455 0.1888864535247876 -0.05191170545060686
0.4566162962273239 0.21478312801548327 0.07065922702813054
0.43335570225200115 0.1845150073587689 -0.013916984665641507
0.47680032520477766 0.17388605616829977 -0.09029896162101636
0.38498135216693186 0.16053085818663249 -0.03459913575639462
0.46089869595070354 0.13757372995667083 0.02577011546534891
0.39571052767938397 0.19105778786817496 -0.034087954628915895
0.3629756309000527 0.1106781359812885 -0.09991458312462953
0.46344952083059354 0.231997618456532 -0.034132867034088576
0.517501869385498 0.18421855276167776 -0.09075751378969699
0.4759344167078865 0.1877716540796115 -0.04226617512901498
0.4125456425530416 0.2662813292234887 -0.015425302394064033
0.445703530232052 0.2737647167608088 -0.004993506227947364
0.33823136368653195 0.18114724997685983 0.12863248737248512
0.6333540756384224 0.2942993500518014 -0.08934955708714654
0.43372625825578837 0.15264654973476866 -0.11178684374304737
0.4401073729865743 0.20079806289041358 -0.03357830538332962
0.43944188756491087 0.2563588006658932 0.07163756692344236
0.42574208121125423 0.15798988566095318 -0.042679299770242096
0.35506430803791034 0.18308158725332646 -0.0014130669547967045
0.3975193714310308 0.21216829346505506 0.03242406889150118
0.41801667569934864 0.15685928142011107 -0.06817901259019266
0.04462867007273985 0.021592297976610553 0.06762204124896698
0.42143129751987374 0.1941279252993411 0.01757811384200636
0.4966260439404806 0.23773576404215646 -0.04587784473932288
0.4068598419625715 0.1940577287971479 0.02021038610368464
0.44291201083625253 0.2034405253548215 0.001724819901284036
0.45510264094556874 0.20217396830747703 -0.021839564268674394
0.42439953976466427 0.1805961003821892 -0.028634275602016146
0.4391419994950496 0.2035268888468238 -0.019306750911823656
0.4658367407090509 0.08792274320985882 0.16530969429635434
0.4661273285373255 0.18942083979084146 -0.08814996591844704
0.34688683885471505 0.20019774654926437 0.02676566833829952
0.41332659448778486 0.16093964500772984 -0.034350457528205425
0.44951680309468145 0.225494511535004 0.008535943599341067
0.46383834559705406 0.2024142454969251 -0.032610143884170384
0.501079386259903 0.24653780971175365 0.02104797959464122
0.4401348933977687 0.18229766419227644 -0.027626366541966263
0.4226734480040051 0.14836307215796296 0.0037234776622199206
0.2354295610286954 0.07222426975538099 0.053881435538400524
0.39811573381768994 0.160502560723927 -0.044542639793490935
0.5478726835661263 0.001883030550317244 0.0006432735204953133
0.5727375924100357 0.2635551983181301 0.03343791971649068
0.45036322188238387 0.21958097845541147 0.0038099917161247276
0.45592506494979546 0.22128398869197952 -0.006733146728549855
0.45794351493860574 0.20472786302963186 -0.019005754171018907
0.46273708693576054 0.19309198051574583 -0.026795137639140876
0.5197668850808554 0.23354520608836538 -0.048407973519346115
0.39378525091778727 0.17550141007920672 -0.05571717493984352
0.4554304155460329 0.24813224536825373 0.02443419012394088
0.3783285821735092 0.1350795233869917 -0.08060794769822621
0.36988680743100133 0.21086055464823517 0.020121674845341886
0.5294916744215783 0.1599011360684699 -0.05101695743529433
0.45359609562397907 0.1701824587682239 -0.009979915815250706
0.39279225241001825 0.23892222375440042 0.031027770686279155
0.5083770156508649 0.21001450756180873 -0.001390529520790551
0.4485174857017 0.18971925514698285 -0.031564818747824575
0.4507357591190555 0.20533923490619088 -0.00012035293886469844
0.33211937744198394 0.14565265998602683 -0.01017097886337126
0.45771507320272065 0.22526510634565966 -0.010731599411400339
0.48946586728972363 0.1870137239191081 -0.12806372262605237
0.3792921542134451 0.16760145668087034 -0.14053426565095606
0.5152032882888022 0.1790301025168617 -0.08714886916294518
0.48012285276328726 0.20087033346565875 0.019299349296801438
0.44073691491621503 0.16595831109847836 -0.08105637797947907
0.7334639340091798 0.24256608093676846 0.012964363150857139
0.5651855600675049 0.23146080722575846 0.08001256363048981
0.5693718369492871 0.21441758466420424 -0.04848064917462125
0.4538421228061793 0.21407616340978564 -0.023061540072845332
0.5062198155151805 0.20095892203138987 -0.04632921547985802
0.44200824088765955 0.18628105450267185 -0.022755680057045424
0.47370060279769177 0.0791357723158086 -0.0329296030077586
0.5169606717061299 0.24776205406568863 0.05053435998729583
0.4205937424787294 0.157248139426855 -0.07957632734076014
0.5578806687276625 0.29032890013445467 0.023291379900399534
0.4992014941107641 0.219342647523888 0.0270583487001943
0.4255068771495729 0.17291460268836545 -0.04740103715556643
0.4283040243359011 0.2034616724727698 0.03003917193616701
0.40874724326646117 0.17918034612256406 0.010191054017042234
0.5272837576687692 0.1946605188000916 -0.09546771615174521
0.4373883670626242 0.24637107653914825 0.0611876700576488
0.5228156381827205 0.24563118513128757 -0.011359590764115524
0.5086213675930793 0.22144175038084768 0.004565111102834862
0.45791941623109267 0.22084632934857495 -0.009223496296016265
0.452584686379069 0.1926917898833551 -0.049840807818100075
0.3929139698870756 0.19435072784466456 -0.030260856765210065
0.5201106792984973 0.17394779696581963 -0.08445081944591948
0.46454058805318255 0.20841143505955984 -0.016778133113405147
