# .PCD v0.7 - Point Cloud Data file format
VERSION .7
FIELDS x y z
SIZE 4 4 4 
TYPE F F F 
COUNT 1 1 1 
WIDTH 795
HEIGHT 1 
VIEWPOINT 0 0 0 1 0 0 0 
POINTS 795
DATA ascii 
0.3554808249116661 0.15001005884826668 -0.037543847191741975
0.4527207570379943 0.17074609230562032 -0.017400203662987224
0.5576144288546914 0.2024857955717323 0.09080065312267038
0.0009487817276010446 -0.9416504463036546 0.06127734955697406
0.43357981245104327 0.20714035413897136 -0.01956542235205916
0.45595708866849805 0.15180471047779065 -0.05296721721452968
0.48787873200900833 0.19425705144973904 -0.08777712456998188
0.43560779622838197 0.18732151724128698 -0.033706933808900885
0.44138225937865627 0.16584086664829556 0.008336990558348134
0.4900319988651347 0.2051171157167886 -0.05101483150360764
0.4254373964932796 0.1619981789906717 -0.0676814437593265
0.4773892881370614 0.22884223295704942 -0.03611172891623937
0.4176265099000034 0.18953526083254246 -0.027807251408205502
0.38791796144332125 0.17209784584761678 0.011312007648996314
0.542822165871172 0.18692186922233134 -0.10360091699376994
0.44449302349205766 0.16601424825793742 -0.07064966021877694
0.4615208662142436 0.22608906413580598 -0.2079527406681052
0.46185654429784506 0.15899772203063378 0.01334626821233087
0.5738154455191733 0.32068555828041667 -0.08083051406839559
0.42724453563354814 0.15124917821889028 -0.07166964397657694
0.41784141787024964 0.17647786977208568 -0.05069707090653708
0.38731298129816594 0.22709917845219252 0.10222404252907324
0.4959858735895324 0.1880909855157995 -0.06441133858811554
0.5041441872639325 0.18158791767314142 -0.0745413551937304
0.48971478378138045 0.21901974217891507 -0.02326388066155971
0.5275573241803642 0.16386568610874974 -0.13239555150319404
0.4553899689484808 0.21601661884920986 0.020181590013223172
0.4752603250249763 0.21571491319727443 -0.028474859162315624
0.3397566875622431 0.19585705727814684 0.09454692879769766
0.4122353530825933 0.1521755370010709 -0.05505537858718412
0.498113473410541 0.21623565869234085 -0.027719030311487813
0.4202564942544029 0.2188238484040994 0.0340623409931311
0.44398733443664185 0.18638851793632227 -0.053639920509255035
0.40052221217291617 0.1605038222948565 0.0036854182742729336
0.49316662862423755 0.23552691034643658 -0.0244162944989057
0.4656487382540604 0.18162972861100002 -0.03331673051744133
0.4755111688417486 0.1851779199276251 -0.060813239880957326
0.4516078136303179 0.16755339478622489 -0.05849453305773977
0.3002479799941682 0.20355671133688702 0.06793749832074525
0.5929288267501676 0.23390483799906292 0.060576758165382216
0.4764688168863529 0.15033198963742223 -0.0053861693159120705
0.5034128971337708 0.2218667445594349 0.07370335425534336
0.4672334048251514 0.20469180112490903 -0.04543508605038937
0.44822784231436685 0.21251558925541758 -0.02496067980663952
0.40349505131813146 0.1520152960711414 -0.1065888397456547
0.42051596818467374 0.19930887575560519 -0.02258363021942955
0.41508492230920524 0.20521985237964202 0.003043534829117789
0.5437458745988835 0.15123253955123062 0.020479585636863362
0.4416979081787673 0.21454794625540785 0.01556335743154591
0.378930625725971 0.13291290363369512 -0.05263040917594708
0.4085393285416359 0.16371068885405293 -0.036641561944634304
0.44221435150036825 0.20156749503239269 -0.011178107321413222
0.45375171524847246 0.16793008282400024 -0.020116635502319014
0.454472854049925 0.21043340228715124 -0.03351356839846176
0.44785511635434716 0.19905868688329065 -0.006776356979145248
0.3875545728179617 0.1943096133736617 0.03891225630567874
0.4717265206662802 0.19568363022814594 -0.13085435993258443
0.46353256031201795 0.16282542076916684 -0.10444848022152087
0.4011425601150762 0.2400691322447841 -0.009273209023206164
0.402586439536762 0.22642123024347427 0.029745917336398975
0.48254756660071507 0.24280179357107556 -0.018854910687537085
0.41398060170708106 0.16489888642274764 -0.0745229306355526
0.6903471825218332 0.3277100627975642 -0.05115488395959744
0.4504515128126343 0.2214533519447457 0.061808160028931525
0.4636577148546621 0.21456610533397225 -0.04563664458258643
0.47178382127724205 0.19149305301759512 -0.009218339317342839
0.6537397390382864 0.2483613421144355 -0.09001437509246557
0.4782069764291492 0.22110240426839312 -0.02518514983458431
0.4205139912909175 0.1870928047803062 -0.036663883178249534
0.47638621338344933 0.13936379944126998 -0.09100317092692478
0.2547381399363786 -4.754700641168085 -0.8711352443604596
0.4794645682883214 0.2010888341629169 -0.07031495380014974
0.592875344571695 0.22029101892960057 -0.02144777403059095
0.4438476187609126 0.26610017814320486 0.0575387063717443
0.4940495348408689 0.20314507556207673 -0.01130266184478046
0.5033061033483506 0.20456792103766475 -0.05435323692979921
0.4084114739622038 0.18462189349568803 -0.004310589723417024
0.34883716473289894 0.11461990067452632 -0.003438820982694324
0.35657056717084856 0.15538348573811334 -0.11799381658315156
0.41576515007783144 0.1823646846646625 -0.03090147050500036
0.49206964527520825 0.21188973435482694 -0.017799021175903817
0.45258408029299346 0.17889468772858663 -0.028210688771721948
0.4727113429001548 0.20754365303584166 -0.03862410251817039
0.5371258348866945 0.19680234133480212 -0.028105566530854276
0.43394689765317196 0.22320309359068347 -0.03275290157394295
0.43591351564592173 0.16426676670019447 -0.032571245052480435
0.4423823253794552 0.1895592308370908 -0.07630539740065956
1.400020417349566 -0.09356623463591518 0.7023066514829281
0.4197259293768667 0.1700061069587946 -0.017311763646887357
0.4945080366200614 0.14062218318005648 -0.02544223236125731
0.42895615879366744 0.15074984167316074 -0.033622977582666635
0.4411193462638465 0.18052889761361257 -0.038746617672984485
0.45054477842249696 0.2022165912324283 -0.03372989326706488
0.4865363611400966 0.21424484695305068 -0.0019024688803881418
0.4242667767891106 0.1978838069572646 -0.04550788575097897
0.538132338632991 0.30070730374077925 -0.0877501908008469
0.4727653563901555 0.2043617728657665 -0.04359002520811828
0.4212784135693397 0.18575210811874854 -0.00993334687478864
0.4066517842057351 0.20188297094571794 -0.0096086875189485
0.3587941015466072 0.17593568728239006 -0.10037526863240487
0.5198932540816088 0.18343099281614172 -0.08547280497967336
0.47901758723334353 0.21281992397834415 -0.04528291020427844
0.3887377545318742 0.1442118878648131 -0.004602240023416471
0.4858339195834702 0.2118773084362573 0.009816089047006926
0.4447281103502121 0.19551701209655903 -0.040202972732458875
0.44911242778535154 0.19259129511274864 -0.028135806973480726
0.38403212583124 0.18587026283867658 -0.05026341680134294
0.648340850415309 -0.07372214091694218 0.0075344110401545095
0.43626636657567985 0.20228155577051155 -0.008328910623376373
0.5742372026462874 0.2372545834977018 -0.16878133739629675
0.48392396985209984 0.20317433564301268 -0.07081744521602218
0.5463208153553012 0.23923434009307698 0.538110629413211
0.45708860919572203 0.19835185691914603 -0.0325649373017427
0.470847384137258 0.21342481515256395 -0.020570750964395756
0.4651046069031963 0.19467584931328474 -0.00480650098555202
0.3254463943617196 0.10250145487130169 -0.01223892570277485
0.5484864240541469 0.20127929135480827 -0.02634286471300129
0.4368774514495328 0.23286749052785183 -0.04982783259499968
0.4068661789468706 0.19576775952458547 0.015939345074713174
0.403282784064686 0.15972630942351884 -0.04904134438467622
0.4999562939567994 0.20135580605614223 0.0006797613600895147
0.4346284024639431 0.22690986137573077 -0.09954104047569956
0.4122160478010386 0.2222125162394093 0.018777337543312456
0.42186867564011266 0.19766391492950675 0.026899527046481353
0.2775713792222234 0.019813278775103527 -0.3654394743371654
0.41807152094698097 0.18516454421845197 -0.0015480497392843517
0.4197302161584986 0.13454118705743667 -0.04147347495316467
0.45015510996748276 0.1977777182992071 -0.004309693743849152
0.5937132612545923 0.18978293525555046 -0.20262447004157025
0.4361965555456493 0.19289730792563375 0.020298857918419344
0.4419634145365592 0.2078901069184269 -0.004133138819568671
0.4899982972014243 0.2471987420562698 0.04299897223174298
0.5293727724366306 0.2422815606002473 -0.015064918121083792
0.14596653396662873 0.03437274450944017 -0.7169440836595982
0.4198949826796081 0.20519680428010645 0.024303278468124745
0.37419592070304475 0.17486938333438218 0.00799270082254111
0.548799233208328 0.18258358773267958 -0.0914341063622146
0.5514561459264229 0.24167220296436653 -0.142338347822772
0.39168868255970324 0.1699003585397918 -0.023111710039643185
0.30892132102690084 0.18369392281275054 0.07138463805338802
0.46257360430178096 0.23150505643808117 -0.020147571315874302
0.44998104260028526 0.20748967480636793 -0.0005813816309512276
0.46623872121961085 -0.2782715121338981 0.12873840020355942
0.47920217011417776 0.21283196862327713 -0.018110084116074177
0.3673173213948644 0.18418200887145986 0.017407962634365504
0.4718703917525602 0.23769882493851924 0.03933786792384808
0.39386238900604553 0.15011210388993845 -0.08947132768375354
0.4867405007426555 0.21489632645756274 -0.017034802981399366
0.48714162665687866 0.17721545827856744 -0.007292109980042483
0.38632367653026733 0.17661119765807598 0.03408417366230765
0.42551285760011126 0.19154279874393865 -0.011897131437507369
0.2661721612397798 0.14467806097508173 -0.0003502919662992099
0.5748808997072814 0.26413414365231347 -0.06877087653937508
0.5504550500503598 0.30283033723259223 -0.04907349122350979
0.40706610119806896 0.26208288524134105 0.1065738386917019
0.515563574401952 0.22748695844596512 -0.026213342635372783
0.4576818207044653 0.30095884698791053 0.03298559341978091
0.4900443095384901 0.1711581159048876 -0.1021947238091343
0.46683038007185473 0.2614858542761169 0.0025021883797649025
0.479084455632659 0.2145828032857935 -0.055019263148722075
0.41383959817116533 0.15967496618374355 -0.01626571896032658
0.5575513455221284 0.2300797207137748 -0.03226446533034277
0.37856497447798176 0.20063510403244322 0.043653823233412936
0.5091288062719883 0.21773666461086805 -0.028041624038195323
0.4847120882377425 0.15419358498881763 -0.1503603407094829
0.4744990223249488 0.2123142400873519 -0.026622745326022823
0.4641525363456225 0.21769469834373467 0.029034852835962965
-0.028544601611997678 0.3100326025578539 -0.0650145662161492
0.44690982729719053 0.2031897160705114 -0.08507547115689817
0.32606765368107915 0.13541673452965597 0.12317408204117442
0.4865981105451027 0.2094613912773866 0.007331378598024685
0.40772409877267535 0.15508882239491584 -0.04284891908903887
0.504807399503747 0.19554372488943272 0.0022485480128437985
0.472488514599263 0.19406194754867556 -0.0615573283754145
0.4553018176508914 0.1967756454923375 0.03446031756234902
0.4383146996544127 0.21006098368812332 0.02179646581811312
0.4759860516727912 0.2288836074208831 -0.010127229325178178
0.5155223474077246 0.15368143943180712 -0.06275484677932752
0.40939866400751157 0.11847742285242191 -0.0744452682507557
0.48773735218810543 0.16388249369356345 0.034897901198235104
0.5427562105009685 0.18534561232931424 -0.008434078948653223
0.4297400432864009 0.11028692416817876 -0.02365068218615818
0.5130166674964727 0.3655105963809433 0.061138924095700986
0.4376684991421058 0.18133517757121353 -0.014123051706633305
0.463554982379776 0.20938608725904828 -0.026393616848821466
0.45464433041378527 0.21104985712105417 -0.020109559924861742
0.4332547546840999 0.18673462580915157 -0.022095443547243576
0.46394322105442143 0.15540253016435202 -0.08603791273650074
0.49677898171893276 0.131480095440196 0.03996435728423364
0.4550192496922989 0.20892867668710835 -0.0213108101674635
0.4033639214863882 0.25255194888934795 -0.01874194333441892
0.5249263928274246 0.19454086678352667 -0.11031689852308091
0.40811379119091384 0.1415943654435381 -0.08795347348504379
0.3896593526851717 0.1693538857255419 0.014429554368177833
0.5269816721547045 0.19769930596787333 -0.08266399328174145
0.42974882776948675 0.180567983786176 -0.0649345646446875
0.4176855828391126 0.16217246227185456 -0.05716325321840543
0.3462618572742855 0.207791443175239 0.07066653225663799
0.3981864940014077 0.13363090463919036 -0.14409887811004296
0.517781478001524 0.22310359425151205 -0.03134498096898142
0.510719998696473 0.1983385234826187 -0.062347447665075606
0.4502151183855574 0.18869353724890914 -0.044395995940277544
0.4222605996955622 0.20848804245144947 0.0012730939247518336
0.38143322218707 0.22052396609620928 0.025155227216771436
0.44407116714687334 0.19069788950201882 -0.04119634311217624
0.3958053411424771 0.16494241923541608 -0.038802819991872184
0.47038914226148165 0.2110604012677726 -0.06081277461503021
0.4959649806073543 0.21781269365303046 -0.06516014115260305
0.5182369854687607 0.19674752406393736 -0.06642684314920189
0.4662351956758215 0.20564692647650418 -0.03111691001430472
0.37713258163358887 0.18027544485343583 -0.0028449675977810784
0.44791944021474706 0.18013562860670618 -0.04638715366755264
0.37586598814496597 0.1560268032642682 -0.08499745617216092
0.4358259888225291 0.18429618083362698 -0.06986629019642976
0.3566208760848326 0.20224656718949063 0.02956012177966727
0.5224396936303037 0.25216699588892766 -0.12481255225176824
0.4917223598828713 0.20029174227346402 0.028411034094631304
0.40093710170151553 0.24372893312732913 0.03939832984173108
0.46945655255117913 0.21008672706021514 -0.03364009293262882
0.5393867013723934 0.21260270074094478 -0.07750755302080847
0.43023738147076074 0.17361217330284262 0.01989377591095831
0.5131268630960051 0.26597415257870693 -0.013296265233577742
0.4399416353498964 0.1886901879773717 -0.04084509301947037
0.5967266652940282 0.06665120699929616 0.03868037932042512
0.4307676221107499 0.14739626286024077 -0.034021860172330776
0.45309426447416 0.17884369183673243 0.01116525834514448
0.371504429452429 0.1676120080132648 -0.07359562319714996
0.47219662322353884 0.2605664279941351 0.06991061337176063
0.4068742071221436 -0.0522018161335609 -0.028365002678498286
0.5025867648765541 0.20554512758693022 -0.11858977049152486
0.45094630441539607 0.14030904515132647 -0.037148666873761726
0.4851152511638901 0.18547229383040076 -0.07058191803706393
0.4984642740569427 0.2113739239581065 -0.06918228186538045
0.44016844344717754 0.2170084920067552 -0.017663754288349764
0.4020653795161877 0.17525966646007873 -0.013614834638104867
0.43677853895395913 0.13392904920432613 -0.04711686660115788
0.4682804955590001 0.14576987939364017 -0.08888736410148113
0.40924640707090987 0.20255203286936307 -0.06334768086104248
0.5353546502826703 0.22598794331042882 -0.033817232062745006
0.475043266719851 0.23376301752399797 -0.06697785715590499
0.4374888151204033 0.1266838524734908 -0.09268450777406656
0.4686250828447669 0.18956186274579068 -0.06251232579805333
0.3594170643595902 0.1618889983964209 -0.04283548580991692
0.5171749441613827 0.22032649459535492 -0.06387092185215693
0.3483458230945473 0.011914923202169803 -0.07771664147742285
0.4251460236583995 0.19785854589835594 -0.009343060371691081
0.510367405794085 0.2818934297154385 0.034598082895087146
0.44529105632977917 0.22715234784234895 -0.01018475361266269
0.49771346543154493 0.17011100856947792 -0.09771945314928132
0.43156599392131056 0.16040767502602193 0.01013414951495406
0.5492662401591701 0.24691549471961594 -0.07176952703025563
0.4740833223440859 0.23205924690404345 -0.020139329766649894
0.37341416894948054 0.21324727886729988 0.028766664307752876
0.45195196068142707 0.16524474674633893 -0.10334982480414112
0.5252648024313231 0.205091021704078 -0.09989396715201337
0.43467503345974023 0.1878603939253196 -0.02194258981302255
0.32354109874036396 0.011173938498743041 0.029776282904933282
0.43638875674487565 0.17918253458597633 0.006648727866945592
0.5649399012238376 0.2035037130699493 -0.04192495921310524
0.4820630141821738 0.1829947301599475 -0.11671521134883278
0.5626287256098408 0.2353774326529674 -0.044158733385813775
0.3795915458991601 0.10697310557677042 -0.09320839403011405
0.5243007118755969 0.19693891951641262 -0.0514623756049275
0.37091888312239973 0.22224568605565764 0.0215372270877765
0.4721297754691136 0.1954578733349308 0.014182844347487844
0.4583818208719066 0.20197087180768847 -0.027811949317992912
0.4581036514775576 0.23441031210705887 -0.0023500262496156665
0.5216832921729946 0.23897490544490552 -0.02151105758775884
0.4081308632845264 0.15207021003959653 -0.049337045553954795
0.47138760861137996 0.1706858658324677 -0.06855850035802291
0.3770329822186511 0.16471490808746125 0.028188486794434198
0.44134259278916943 0.213772732817489 0.004215204004836437
0.4062906014888483 0.22357564241988825 0.01375145208999129
0.40739382159109994 0.19476146101712288 -0.05647266913389615
0.49065185177569504 0.22695114924235327 -0.014570560542466637
0.5774539941911172 0.42474107901060165 -0.004424484166392517
0.4775025501313195 0.22010243932555795 0.01819289322055795
0.4244863868522515 0.16237308979651743 -0.02416914457221253
0.3709285801468525 -0.003051605608192176 0.1915844095520498
0.4387832828470408 0.11877407492056591 -0.09817935751857476
0.5587200685400546 0.2754029328312697 0.020291152828804115
0.3670234711035363 0.18863520483014895 -0.05796285221568098
0.5475361759954893 0.21156317223406518 -0.05780079477824529
0.374564772792084 0.1699513494702387 -0.10439998975152776
0.4344717646827547 0.1897524689024408 -0.044517840426948396
0.19347943212872565 -0.18328928367417063 -0.18026102396875388
0.5098638150300161 0.181924935740426 -0.07594392292202201
0.43407780473792457 0.12020477665154772 -0.10915371863272583
0.4242735763242962 0.20483924999226133 -0.06282264608327637
0.42686814654274485 0.18398422421677196 -0.044068312387622655
0.5112443569253458 0.22092802914218623 -0.14983780077403708
0.39938411417084296 0.172385879776499 -0.013211283860854905
0.4808650199489932 0.23213161514695457 -0.026674985885534852
0.4616063939230344 0.18213900770868463 -0.008593220414354619
0.4228523780023892 0.13951651446168967 -0.05720708253448947
0.5221371831566302 0.21851979401361632 -0.08281058090341276
0.4401421023527945 0.16980456664148846 -0.06654460648447014
0.43298921141443714 0.17612413887654554 0.12185582246027593
0.6357901964451287 0.31015746184493764 -0.11027899934470042
0.5117455973675931 0.21231857759102013 -0.006769071867026355
0.6156136540943749 0.1860625718182689 0.12574714034096246
0.37907813388918044 0.20625984163103794 0.013816880804284892
0.5527699338988299 0.22407492154616193 -0.01900543715959202
0.41873858625355354 0.2305822876086836 0.07140516831549348
0.5562503803051584 0.18791285012972025 -0.17328572842461654
0.4425753753974391 0.2164855212676997 -0.031162995020636686
0.4986362404149247 0.21220564916720264 -0.04661325096307678
0.5047458940291136 0.23611616062403584 -0.02190738692740979
0.4246587339174539 0.21541238923296646 -0.004171096583732492
0.47811616069689933 0.22977617480123058 -0.035451461618492885
0.42257641522989786 0.07480792403090675 0.07617748161582938
0.474508342180215 0.2229700991159973 -0.054175812742101925
0.4467086009681225 0.1780847833680923 0.025738618902252597
0.46941587774409754 0.1708390657518919 -0.051441748039195545
0.4684113096028284 0.10847142689870282 -0.07917774064650018
0.4695543430100031 0.21675992355608287 -0.05044159895538769
0.4813770867183109 0.11815457320543032 -0.08047878027832667
0.39336978756095675 0.19206031008769742 0.04852976771984174
0.7411267801877415 0.2539300426654165 -0.060965172932810674
0.4800463430040196 0.04895317664178833 -0.13940652357086947
0.4591199809940463 0.11763046485374673 -0.003109105789746991
0.5487707693159365 0.21002208776818065 -0.04979165879561265
0.5699730026310732 0.17668740316103992 -0.12853337195598158
0.40209901715559226 0.16962137014269274 0.06800542447599867
0.43527458512910755 0.2174100208714833 -0.010546416127340308
0.44079181510154797 0.15430983713702062 -0.06412710014893719
0.5071792599136415 0.20274900851950406 -0.03928804081618864
0.3795451902154099 0.20108821705179025 0.021978020714414015
0.3556560163457618 0.09254388929690549 0.010048884147067838
0.43563909398086764 0.1749737064818362 -0.008504143568075051
0.4695540769668014 0.1547826465684352 -0.08768544906999409
0.5661199325545709 0.12042218441398234 -0.11594758877114941
0.4745656823330222 0.18233201731290194 -0.06774208144773297
0.44445251317789314 0.16803419843921574 -0.08306542699837394
0.44557634599868834 0.13382400751429202 -0.06344423813463607
0.44542590337296417 0.10468820542399726 -0.11232212647681195
0.5078162409042051 0.1961312538847153 -0.06341821691742666
0.5053968744602457 0.2295376064672041 -0.06384377088549797
0.611956561851585 0.18108031670888636 -0.12274839713884944
0.40738077996944355 0.1549721486659621 -0.09854831199133685
0.4735846480142243 0.20853856726550646 -0.04188365896411028
0.44737680141516023 0.1949702202487913 0.04977945734931666
0.42393553174193244 0.21026272047809869 -0.012268268274965521
0.3482548892821029 0.15222571314126299 -0.0885748571512579
0.4594264124961285 0.19349804137019078 -0.022588536527777592
0.2949930748019085 0.1659607465709314 -0.030444444438401774
0.45187103920720517 0.1976156021411839 -0.023185004818202515
0.4324563514212372 0.1850574845664852 -0.017404885878761434
0.41937077588140426 0.18072119361556815 0.05753777413855232
0.4795107378658656 0.19797017941567674 -0.033880751792651154
0.3576309523648149 0.1654293570152845 -0.012709214373884947
0.4183196425626079 0.24565450137569655 0.06684659530137083
0.43463893890331917 0.15446906182521047 -0.03427161870969542
0.4417640791694595 0.22386095459219746 0.022777418419366313
0.4677055818656157 0.19883780085216074 -0.01895932965643965
0.45000843529416557 0.21390892866597255 -0.026438162211746885
0.25398127664726644 0.10240916667864042 0.10125907935841383
0.5429365268995241 0.1910865473779353 -0.022484223375698775
0.42069082678838754 0.18414718448751444 -0.01735191050221374
0.22836028195214908 0.019431663528138188 -0.053654179837423044
0.4476501518523719 0.17118991536233352 -0.07803188135008554
0.5309246679825463 0.2621734050545115 -0.026999936458679485
0.45065435824801625 0.2030864047461023 0.00590203844895143
0.5312057427598376 0.26607903707383684 -0.016689011581092927
0.4788252153593504 0.2179045631444012 -0.023602835287846347
0.44498863077713224 0.20379582936335794 -0.025169194914056447
0.4517673497690424 0.18950590580992355 -0.023840843229521624
0.3353640809430942 0.12874594691197672 0.004310269365262798
0.42733022528074116 0.20889435346887808 -0.01087835800586845
0.4560661010854119 0.20150928496340725 -0.02960758041345457
0.30416105298657214 0.21328342568477865 0.07788992810478135
0.5621997249262023 0.24259870404787875 -0.055786097349567854
0.4815727578997695 0.16773580686697187 -0.0806826905748892
0.48698946473585636 0.2918672742738124 -0.05419505825639703
0.5086424097674893 0.2439870235438235 0.00935110917598081
0.4529231509245193 0.19541496698258243 -0.00654427155680537
0.7824502046934612 0.19179093109541157 -0.11208599162559096
0.47371708318331684 0.21542044069074961 0.028605262473917037
0.44376054632314776 0.21179558652964658 -0.025375243786243118
0.41724221545277373 0.1988121330023347 0.013734035646464804
0.5153737768986844 0.1831023595107979 0.04412750498852347
0.3492283177414919 0.14268671689680446 0.044824777027642426
0.44298893135504613 0.21249288234743346 -0.016265822446740685
0.5343862588262738 0.2512592889289209 -0.02083508278602153
0.4164211896216301 0.21421941684613444 -0.014626384012245808
0.5343859841226788 0.14736234807612902 -0.21203331115454205
0.4917878980248105 0.18418976040783264 -0.14650049848307845
0.46020143860010876 0.21501725708461095 -0.07903274433337515
0.3551914439111812 0.1382617398834327 -0.03147530593142278
0.4380871321884712 0.22857843118882215 0.029311653880114363
0.40353772446302116 0.14704360380906678 0.03960158478169262
0.39892314621316416 0.18422265684409922 0.0011501450573518923
0.5463666360476225 0.17448624148295266 -0.1657059143292372
0.47102860694423043 0.21548463167644627 -0.035345164341293867
0.41826711084742385 0.21092087649336122 0.01350034988811899
0.4827437025746093 0.191554364174209 -0.06436004372211812
0.6259406545541424 0.22862756055130262 -0.07188287999463228
0.4733184591672881 0.14874424479933168 -0.10542815491265856
0.4989666245113966 0.2438600242124096 0.03416284998903052
0.40798674416070924 0.18144296507399815 -0.009231637560333184
0.41276163679755484 0.15294979094494465 -0.06294640367042348
0.443885036364307 0.19113829820079786 -0.01153348584436742
0.48947905633649214 0.22408049051242074 -0.05199293058120702
0.4863101048733256 0.2602725075482226 0.03143180280218871
0.4826654224576856 0.2113297044164284 -0.04379628726046292
0.5187574858939712 0.18258803288810554 -0.0035228564025686637
0.35534927052081855 0.1760339578735568 -0.07193688969940126
0.39920635606060273 0.22486262168561666 0.05780104281369347
0.45420378271951733 0.1950411403971657 -0.02325744226342863
0.44534434614337215 0.16850806810040808 -0.01678738183093742
0.4690207035375664 0.2251456030056147 -0.04235848127535746
0.47829058193720186 0.19294949015790053 -0.09968346904182113
0.46048868088567474 0.21777437933458543 0.025849133345261066
0.4755464822471822 0.21522639192127713 0.027015030206257507
0.4825388650510263 0.2211403066338562 -0.043826333467706036
0.4176845086952312 0.2456752965740634 -0.008995606288948466
0.32257560889404147 0.19259371652788104 0.031042985392076616
0.48812646936295323 0.1488081042450915 -0.10038437618447915
0.5950596827763235 0.26262183414165463 -0.1455786653251323
0.4207927901425421 0.25458328031201916 0.03360230210127213
0.4092736034625375 0.19905204443139723 0.0050107023385379534
0.38320270843775006 0.14347644759811828 0.02130809985564497
0.46544509675877066 0.20993096131620348 -0.046573670902233744
0.4441180077888305 0.18353811273397014 -0.016610473854484553
0.5018046533314333 0.23379629093066967 -0.0293137393265539
0.4757942644266677 0.16103651548999665 -0.06518383540259265
0.3934890024680584 0.18685753915892178 -0.04660106638465322
0.41786305275942937 0.23235615140654886 -0.01596178726316566
0.4397914219828465 0.15096683675437816 -0.06040412853212729
0.46780517512625863 0.16813364262205255 -0.09065198664086438
0.9019994325831249 0.2004700874341978 -0.04973535826852071
0.4628755935504216 0.16971836817737085 0.008592520862464426
0.4736738648460346 0.13575757316604609 0.0096060504112927
0.48676423136153346 0.16847314506301814 -0.11084378910285864
0.5039669147443391 0.20660746420693954 -0.0314869227641168
0.5528965619854631 0.19926093824477675 -0.08624275127482406
0.421891028809398 0.16464394653345948 -0.03227125575699574
0.4283365618196342 0.057198494432157077 -0.08465626340988308
0.33025182895244143 0.06286355781375619 -0.0025998541670162467
0.5618312894486195 0.1596413268637491 -0.05168161795457138
0.36800318221743566 0.13858612800027004 0.004281149436408782
0.4464593659348992 0.17146631654298972 0.031522155689600595
0.46303303876743485 0.21092078198419983 -0.01744854712073618
0.45844705744957537 0.23494304172176328 0.02230537858352477
0.4780197262620902 0.23649874920653247 -0.021396199868917165
0.5316594004947461 0.21476049082798454 -0.03769143529672192
0.38208236261112916 0.15684274464783243 -0.05573370224030327
0.548582224203173 0.009076712243725638 -0.3719330145546138
0.46871680491709355 0.21781520791427056 -0.0278765080459209
0.47613557436916665 0.19976237149482756 -0.00291520812729118
0.4504676588367147 0.19461616462024267 -0.0527991668744221
0.42022425297564325 0.1902605340326602 0.061686635087170316
0.4377301723150566 0.15611331967289743 0.10118737162568436
0.42131977074373594 0.20440900722329047 0.011910169655124037
0.44803867117374807 0.19333932502149764 -0.021402075824852318
0.43394070431808984 0.1646503786824951 -0.02935270158356218
0.3776411470374228 0.21088061471232322 0.043201165876382674
0.4464733738002593 0.2428229203663932 -0.0042611802791725495
0.41802063463970285 0.14752430613623346 -0.08660075661576627
0.456126804873179 0.20277807943350012 -0.0322953859679842
0.4426470099116244 0.21336374210041242 -0.06629753021782392
0.46316394219678614 0.1726360744773956 -0.050750603760704394
0.45339975313892467 0.1669484156409169 -0.03636672542172903
0.4375964421283953 0.19315002213329535 -0.03191929436420082
0.5043815544212435 0.18112512101477307 -0.0782418815880419
0.516320178951986 0.21881775691761618 -0.07839471400876619
0.4794230098542869 0.19410723015008102 -0.07605094008914648
0.49200359921810843 0.22996941736494136 -0.09391686510588215
0.48448511847303166 0.23109821697241273 -0.025859372070613063
0.4612497706227998 0.1941803121463579 -0.027915871284619698
0.48983912949900343 0.23805332520802835 -0.03285196659032863
0.4290823620290496 0.17970762517978756 -0.03605397454185777
0.4638551750317248 0.20200123279602167 -0.052974594628366845
0.43407039140871007 0.185094322081909 -0.10496441478514384
0.4292803073164464 0.16747886530322376 -0.07957385907886305
0.4660030532213568 0.24212280183596135 -0.02173751018102621
0.46059506506668413 0.206889487850205 0.0010766549746392684
0.39621308190423576 0.2429559761129525 -0.059199360215089314
0.45068864739222647 0.2155365370461766 -0.03527001113197059
0.4119570199751763 0.2004997484108486 -0.008658842902775632
0.4494885146445853 0.18925558336235326 -0.01738058013528132
0.4271503283095228 0.22449035224745728 -0.018706399602990587
0.39742752022010563 0.20581433893622147 0.051453360725631114
0.4137012450299409 0.19362988051059915 -0.030182911122153655
0.43164183626741703 0.19845654517583 -0.0032252414464721824
0.4578905346097599 0.23405560711381668 -0.027532101641341455
0.44438006886720416 0.18707480173003432 -0.009797084017392876
0.44574171808527296 0.17129005311383594 -0.025231713632962283
0.5196639867657069 0.23095463738610533 0.04461644929222075
0.4809341875451594 0.2315724302792148 -0.02348340965886564
0.4519284605832894 0.2046127733814842 -0.046558603031883194
0.475572511699923 0.2350470453421849 -0.00946567148662325
0.4460153152664077 0.19599732210829757 -0.0314266057398811
0.2737552106583365 0.18368451314753997 -0.14475636494651667
0.47545586320136124 0.25244699719652886 0.05389458114188983
0.4401825154269261 0.185631390059541 -0.029433735078114864
0.5650139776812466 0.21466522456972825 -0.04717958712515724
0.3169008832944229 0.18120176737789961 -0.018603663443698792
0.49154351446617284 0.2597180614340857 -0.11272328073414428
0.42122166931440574 0.1760336158038598 -0.057703845899453654
0.38710660126128005 0.13383708466494681 -0.08950631437983247
0.3913008677528751 0.18323732084311928 -0.0014434268840943787
0.4835155636303341 0.15182607327307096 -0.12116105156924561
0.5063343919879202 0.2349658545737583 0.025294596183783824
0.3958675675889509 0.13346287100928578 -0.07839982851865557
0.44524723996643445 0.19090832836604932 0.03908613538925465
0.39761037813848077 0.11144507554655547 -0.036053581272739166
0.4655344217560753 0.24632693295978925 -0.043550440785054434
0.43135311338875226 0.3561148933788587 -0.15343459755743538
0.49867940590746684 0.17031936586380425 -0.10546927937377859
0.37166591221904355 0.0945597177708919 -0.1003788969090067
0.446886163005658 0.19156952054666476 -0.1267360076835189
0.633097772212551 0.03380408433919513 0.5840252560736587
0.45121102441392225 0.19182013719247948 -0.023366105644015533
0.4141036859952152 0.15017433041418826 -0.06204236944935815
0.4472714093109289 0.22253092791726203 0.022522660594262334
0.4923426979093932 0.19826336487552965 -0.025932956309262067
0.25171721479330245 0.2560086532032244 -0.6355227730993249
0.36745982683997624 0.24539428248451145 0.05727189802585997
0.35429315047200305 0.2595153859315076 0.13703353898435466
0.5686090850159218 0.23392256671485256 0.02702143254404632
0.3837116186711427 0.171703369830027 -0.09565070887585136
0.5239795976446402 0.1960026666255743 -0.015504176757787036
0.38827802368290065 0.14600984203173084 0.05869548308021422
0.4462025380163226 0.2131884480410804 -0.013585416509997117
0.3848817325698377 0.19807598583078345 0.04705052853992697
0.49486640396537496 0.1931684247656733 -0.10272460674087824
0.421981438282117 0.2141138612961555 -0.006422599502968751
0.4648929502198911 0.19133272529433043 -0.029774184734577602
0.4824088937292572 0.14723702959216212 -0.11917882646301337
0.48888748437462937 0.2293383061633847 -0.023674678284237416
0.4409970525395437 0.21609233790773885 -0.009711250022547802
0.2749946707315729 0.16340833410153266 -0.04453968738677361
0.4708393899396697 0.07720835328196074 0.08946682341448309
0.40819160805668275 0.1694032169520625 -0.03497878009447675
0.4357762589689429 0.2368096915574256 0.040336653996959626
0.42442816115837445 0.16414927644046884 0.027498525111354866
0.40802887130554666 0.1725962860331265 -0.07221144241850652
0.4167397845320835 0.1592205121904442 -0.06753187081123713
0.47039677134199565 0.2274561974531224 -0.024475080603821198
0.49500778499881903 0.20247188828672336 -0.060311703259074534
0.4191535658683563 0.16913395588332492 -0.044608735478277595
0.4356177338716236 0.24430724898775225 0.004891451904825317
0.30601888723526827 0.14452435046895573 0.014220483060228162
0.42248161554591945 0.16647744825542077 -0.01785856819586229
0.44359076568417777 0.1644427920742828 -0.059016903688188904
0.41955398528649823 0.22062947236136665 0.046692735631694404
0.3816759074319691 0.1459258448860794 -0.036496305571944276
0.4928960757955565 0.20493265704152464 -0.02595661843099606
0.2834704129329424 0.8233019177955896 -0.06902977703387592
0.49078770091621493 0.18604925047498 -0.05009171606471341
0.4981170218611197 0.19138095594041715 -0.07424744532360705
0.4929587400431785 0.17718217935311031 -0.06419284559824234
0.44774344067306515 0.19828146489837195 -0.027103679260918057
0.4363387693929326 0.2228889764928681 -0.014773221527775604
0.49967648974003964 0.18426775834217324 -0.12501754050023806
0.45027848828686956 0.1735103727822036 -0.009192571740641142
0.49514131597619837 0.24923878614086448 -0.014161603216194862
0.46361470940892957 0.20637066872559728 -0.06540491126668257
0.4996808502316554 0.1673993832605447 -0.12372436570909429
0.5042122853682116 0.17812915749476588 -0.05808540820919461
0.3581618383584839 0.1703212751737624 -0.000612276347368379
0.4349165252846632 0.17203557992723972 -0.024328016822167342
0.4048152273401229 0.14845577988874936 -0.013910455540980138
0.46140676424889193 0.23744188620511864 -0.0950825290920676
0.4885147479913172 0.19026176461262878 -0.07477141354524974
0.45520138630863016 0.18840747966993376 -0.014291784939842955
0.5636520616784821 0.31395296757708024 0.06638176559914655
0.4919784891255148 0.22263636848671808 -0.01911265974402454
0.5103262186307376 0.20808258547127423 0.019741035834613285
0.41748839047073716 0.20185953814367963 -0.09553819845885414
0.4574631567774219 0.18040955024937944 -0.027979127967881823
0.5060332136911967 0.23262123387601719 -0.04971720690036818
0.3913957888632922 0.19513850168256397 0.0025390076510234394
0.44081273058380077 0.19109941530589936 -0.04367613185948471
0.41721437758992863 0.18383702215132303 0.01665560927406773
0.45670919208637883 0.12143239887356572 -0.03726042635909721
0.3648821295807494 0.11200060828659275 0.11856872059752277
0.5387065249635441 0.21668018904188102 -0.09432594859860899
0.468914067208857 0.1430443457825561 -0.0748368190708959
0.4011833133203453 0.16302603362538548 -0.05362302622728521
0.43870306039424634 0.24075217707157037 0.05247155950331717
0.3506623122808463 0.23158618445344814 -0.15743310838598745
0.430946995408064 0.1946630170163388 -0.0467190015524892
0.48940674017821095 0.22310350084347874 -0.06130400603557007
0.47511127364955996 0.19399671110204508 -0.05937014791300044
0.4253284589471775 0.17841950837919285 -0.05078915073369217
0.46584356211403133 0.20549464453108612 -0.01338026923997404
0.45128323801755243 0.16143278011436735 -0.03342561970785596
0.4793051572288647 0.21733816432188746 -0.012010278955216336
0.4142721721941598 0.15226710005077848 -0.019835232412845016
0.48077719413086584 0.21272173976596775 -0.018881403725373502
0.3918273052515815 0.11409075840686 0.002296576184477317
0.45166634200784017 0.22362269497517673 -0.021874922769967498
0.44344156363233367 0.1627004994612946 -0.0841701496890721
0.4123537271200206 0.26849168326231165 0.0571431671446021
0.4255137359976118 0.15499849428421442 -0.03831646609299355
0.44781223056367025 0.230123250133218 -0.005427016343048763
0.46533485842437017 0.1995120781658386 -0.09772023825689757
0.46954463745646535 0.20816140688654627 -0.015766421084123294
0.45812935763736107 0.1844126242706352 -0.03603340073797767
0.46004328995337573 0.32984619076354704 -0.16327560188835832
0.4350478287913262 0.17263799341175456 -0.049719630162996964
0.42317279176106126 0.13121363652535933 -0.14231580579232173
0.41657560499673707 0.16661033930688518 -0.022020903017107685
0.46134476768814636 0.17859848836786796 -0.0585274571125467
0.40645955699766034 0.2131088083094852 -0.045832986027249945
0.5468107092222994 0.17112979407013995 0.029559980206286696
0.351114337329534 0.0340731989251708 0.10461235135559832
0.46296233768251227 0.19513839232294572 -0.0469121218685018
0.3967901795696349 0.18503442146240445 0.030874216273517163
0.45851496147376736 0.20193737492364505 -0.04813079846505275
0.44344388747870767 0.19975548349836458 -0.05383784473498565
0.4650031561222079 0.22140814802747855 -0.0038526191688390554
0.4076195030554004 0.19383323882789227 0.0723430834470804
0.44739680431537465 0.17381031120929435 -0.018600696312333298
0.4568121146588453 0.2136325487366264 -0.022110824154907505
0.4612967344900767 0.2264813773701917 -0.06601373565237623
0.499779438700898 0.20931918500669155 -0.0738936984327836
0.4302308294371784 0.20755131137104854 -0.001679810324446862
0.48064365856626523 0.2129015056372907 -0.027892915863418466
0.5030918396916491 0.2273601728153949 -0.010546454004071393
0.4439452867921432 0.22633186220269863 -0.08387077166764811
0.5019658220052179 0.17745053072727046 0.0050976264126347814
0.473695106861328 0.21985478440669226 -0.08491540777293949
0.430259337393025 0.1857765412111405 -0.008869180149289946
0.4147486745290081 0.2538842746434682 -0.07842579510474934
0.39509483495010045 0.14853146346385415 -0.03393790984334544
0.44783361727201054 0.2109849012572056 -0.02496288470020147
0.5416193665315632 0.1567096785675517 -0.13372464317035337
0.47233772794076856 0.15962488007907893 -0.09407313110679638
0.6307745384222727 0.3158869187825246 0.010097821717522493
0.4668312569576756 0.19117560992668814 0.013959352796291569
0.40887695796462253 0.2184062045149915 0.007991853698797513
0.3869917596373824 0.2706812459829564 0.06420645946367642
0.5217887294906092 0.14588283717178285 -0.10154938208557951
0.4217422480608235 0.26311772441138714 0.04359444182567529
0.4788989252017899 0.19151789611161973 -0.12722005190306618
0.5088575981700814 0.17516365707297155 -0.10614375923407238
0.4462874552181688 0.20059776762309411 0.060946810752625424
0.3957625178944397 0.16523952022239996 0.0030500971505205143
0.473957549859918 0.18164731266907097 -0.05121724432837027
0.4599726290210242 0.21314659328582763 -0.061895238085853066
0.5293778622514935 0.16860153412200418 -0.12054020963071821
0.49870958177997693 0.2409608591006247 -0.009887518383209226
0.46136574593558066 0.2036747636539218 -0.020283613161439007
0.40580951667466536 0.17575645863924194 -0.012228151645729213
0.4934459465646057 0.20697400909392627 -0.05462934157135635
0.5975587926410242 0.26436079427179493 -0.026362589560193328
0.4477335396327078 0.1963678340126478 0.0009656795214851854
0.4514737674104907 0.15318518958298455 -0.09454767364169925
0.44687962609782517 0.20200445326875638 -0.12101328207506867
0.4594713226732807 0.18688526902556646 -0.021670558535475948
0.517095700675398 0.19971592019200557 -0.041757758863667505
0.44794202800841276 0.16774106720053794 -0.021758207359937387
0.45433498287734153 0.2131194762352493 -0.026796237193082106
0.4497785500759761 0.1813844139267644 0.006792793743187531
0.3874961066352398 0.23294756983992215 0.04677398991383086
0.48037684866604025 0.14074415736780566 -0.015755122283934497
0.3812429552361607 0.12188460655804079 -0.008380076730958308
0.5132149653334892 0.2307188945268308 0.02648238883611498
0.3926385034343127 0.17399047392363798 -0.05530406711065439
0.48859398491354966 0.20622707863934409 -0.0512610679852088
0.491511952416829 0.19447032621106075 -0.1334526690471023
0.40689181646831685 0.1725613138579547 -0.0007830333520644217
0.45013105132692033 0.21808605759491684 -0.015742921751524364
0.4333026369970554 0.20359366005531854 0.020870332608552644
0.5256280747275923 0.23173654316263992 0.06587648169630711
0.45832405869521153 0.20481581873879406 -0.02997772733655779
0.4458900777531767 0.24512891607824372 -0.06993117304992325
0.39386189984843156 0.1416518212009521 -0.09343788956627463
0.5168597519368632 0.15848485730080597 0.00036093393978831045
0.45489063170801103 0.16929934320673112 -0.0797437335270672
0.4434285350084082 0.18950298983932612 -0.04987722125952132
0.476921427582667 0.170698258035884 -0.029794623803738318
0.4175483268237201 0.23163702800249553 0.016515501566360058
0.5438218648386481 0.23959282309094476 -0.1632201267623543
0.4591009336726728 0.22360415140570922 -0.013181429143315881
0.46203578273747326 0.21243271097129934 -0.0338621043711953
0.4913446016850429 0.1945526900546497 -0.01825580395183124
0.36848657261904805 0.14755758932327012 0.018327886369263524
0.1333138875798454 0.1322152992156873 0.017549914193750737
0.3887642653895256 0.17610449624649505 -0.064077237984705
0.44141887859112217 0.16238704291669137 -0.06443354978266314
0.4869321628215175 0.21856631010649608 -0.005666377658599231
0.3969640790640625 0.2317045073436077 0.055413010325622736
0.4825425548525999 0.18895547029788418 -0.028250453035525425
0.4700042077768245 0.19211890709212298 -0.04563857891236012
0.4317366681020758 0.17607574175426066 -0.00604578687995172
0.4395283254741855 0.1917588911944108 -0.07600051359355575
0.49258953171957387 0.16198551572054498 -0.18349612856195563
0.4390441005780019 0.18547770851532164 -0.04480078361660844
0.4466854801048612 0.18957491574479945 -0.08178341351717222
0.4875413694776398 0.11837108546785657 -0.03760550471395163
0.5282100935405651 0.253869667931923 0.005450060317457428
0.497984458501179 0.28819942661357345 0.009755380528247315
0.4327547451820237 0.21486108171211526 -0.018186143979988856
0.4040604566836521 0.1834524461433773 0.06497359905009148
0.005747102034817431 0.5998954883445151 -0.1194669309624743
0.42639358971865704 0.18889267429742063 -0.007982162057658115
0.3564701718280503 0.13698906900866348 0.020382001623261203
0.46547527569045144 0.1901867155681316 -0.058510420013647035
0.4907138512536591 0.2274388440008721 -0.07632866163312713
0.4417024141505266 0.19473718075195734 -0.01592020512276804
0.4882678539832028 0.24124271600589964 -0.06949299034117473
0.4541095996494846 0.18723626615781086 -0.07189371083808282
0.4639752533517765 0.2112206707965072 -0.04385050908456378
0.3566610696755106 0.15179102057683735 -0.04799326594621789
0.42251401870349525 0.2027472916456361 0.000838293409714197
0.4173893619257427 0.15327086669455525 -0.07026804342902437
0.4371349633851196 0.18739708474063832 -0.04583072678117617
0.30628107032677576 0.18790895626526094 0.04791054446263843
0.4175040907467462 0.2390368055502563 -0.055847235222699965
0.46955812030527966 0.1404035763112006 -0.10040870341764219
0.4567317316533348 0.16658868772502444 -0.05434920732781734
0.5622577409405807 0.1756411522431307 -0.12865865121361253
0.5341387844253376 0.2619423493632098 -0.021775792468275768
0.479327751579973 0.2055998045052263 -0.03806462770629082
0.4639275788572661 0.196065162841478 -0.0026552839253355387
0.6833757401510212 0.2693251298231587 -0.1422795969914148
0.4677516812701725 0.1920541114430705 -0.05195829780628003
0.3736778119232298 0.1816262257482606 -0.08520551299466206
0.4332279414206823 0.1629855302665817 -0.013747249212727297
0.4765460326787547 0.35454576442720054 -0.09499875065154129
0.36637250319003556 0.05281202225529569 -0.11894391396128867
0.4176311358328917 0.1888220986762832 -0.0028828028777354575
0.5155643143635729 0.16696313541936547 -0.0429120860082719
0.31305714168922805 0.20003026734178775 -0.19713009392569347
0.39659523230680804 0.0578997916701951 0.006593594785698542
0.48902231294569276 0.21139542499810204 -0.06309008959956941
0.41853125189625473 0.17694664828727014 -0.050238706400961064
0.4659870601722531 0.21565254492004726 -0.07601076129417095
0.5270469693144975 0.20723728327439517 -0.11632004793423789
0.45379269256865484 0.20355534797579367 0.08750528496968002
0.40959935846149165 0.17834389198922906 0.009337204688108613
0.5042620145203358 0.20688141882010314 -0.04274357797979178
0.4612640113107318 0.19801621672171166 -0.03976003436150677
0.4589791914675203 0.26025524962400937 0.054855641181404735
0.3992623475584196 0.23387777548134636 0.013349923935095376
0.43675339358672716 0.18876384667476032 -0.02097903851873184
0.42754982943728237 0.1711243412327974 0.03305552617058538
0.43789186208893227 0.18415884333541044 -0.03159598635539851
0.4288037569886569 0.16624509512737973 -0.04498584910044201
0.39687445397575516 0.18210928487962974 -0.06813343509918468
0.37318765091160344 0.1872732862946691 -0.0236086595022158
0.48202452939521834 0.21135820305713082 -0.057107157688093935
0.4583392973897702 0.21946687262263254 -0.17836645303077603
0.4447950635633475 0.18990813546244567 0.010838649334772299
0.46911295251099716 0.1697603942228625 -0.0017616904511896792
0.4431784069284106 0.1784777767701371 -0.0013834094613969228
0.44425965082113805 0.2563753081029745 0.064857280385894
0.457945893333374 0.1471775113696765 -0.22913840116453343
0.43673838825759503 0.21951143643315163 0.030194859266799767
0.4278936759403962 0.16067156127652993 -0.03679961310069757
0.39350267619694534 0.15050367894983196 0.010291826640070667
0.5007196088935046 0.24276237577447546 5.572305776979647e-05
0.4832733890984997 0.2316952285347469 0.0022645104403409277
0.5192707123891722 0.19584245077058426 -0.09136330829429085
0.5560918419588887 0.27325135087784247 -0.036627410148852846
0.5237797063764305 0.23750727251561443 -0.08290870506806414
0.4441305859406839 0.22878030415856188 -0.013962694376772333
0.5395644953510015 0.15076581853359983 -0.12784869063892756
0.48914985943501677 0.28036219606215695 -0.006790748465022034
0.4175767580731531 0.1841550969302972 -0.048298402263270646
0.4023518862506421 0.1571837058865242 0.017988064355989763
0.4229308607052644 0.24898664877862586 0.03761855653164048
0.46123900351695113 0.20233257117445191 -0.010606465218856442
0.47431330549839856 0.19816584553977634 0.016854906481000853
0.5094086592337703 0.2076140965383786 -0.052220643107176556
0.46227495907054106 0.2337312643615661 -0.00877436751221694
0.3892103865863419 0.23240480211647707 0.005638049762438868
0.3246461212241343 0.15342492556221998 0.0018423093705735027
0.5564507426583987 0.25764987781029447 -0.05949477622634447
0.4905811722750286 0.13002372976379206 -0.05140513891547016
0.39590832556771716 0.2107575033731166 -0.03839162397824225
0.36991436343892303 0.1380417222072623 -0.04278522628516157
0.4387914077446169 0.17631320790322036 -0.026802356185868348
0.5636481172233374 0.15235058882345243 -0.04915630125019277
0.4333276599269027 0.1566379579773809 -0.03459880222965239
0.4682315199669631 0.2577405937961288 0.023327168997482772
0.4869318926493662 0.22897676502554987 0.03273301498320791
0.47878606711711313 0.22508923886414323 -0.008771147822017156
0.5142392501558817 0.2526102746408867 -0.012784364477539611
0.4410477010410432 0.018217984439303336 0.1243771222717811
0.4418409317641334 0.17420896579869805 -0.014075160780549822
0.39419307636526923 0.15762162273300362 -0.0613207140507086
0.5187357131371471 0.20402566843795 -0.0833042764024583
0.4633912011192649 0.21193020434427012 -0.026765890182218754
0.45887634217884 0.15814414281813072 -0.04890969126283551
0.4676980447117671 0.18873031879968494 -0.04248451184614055
0.4948967295500353 0.17020003068856226 -0.06169408387476949
0.47901228176948507 0.15238359326104955 -0.07085633325910123
0.4312917617658485 0.15536169715065284 -0.0963834034688773
0.42647730449812116 0.16729469981581246 -0.04286598772253569
0.4747371192617038 0.15403167856317168 -0.07985177186523629
