# .PCD v0.7 - Point Cloud Data file format
VERSION .7
FIELDS x y z
SIZE 4 4 4 
TYPE F F F 
COUNT 1 1 1 
WIDTH 797
HEIGHT 1 
VIEWPOINT 0 0 0 1 0 0 0 
POINTS 797
DATA ascii 
0.4212412718858616 0.19597780978793367 0.039215529294395424
0.41827932147927527 0.2018211881667753 0.021865515530492985
0.4183210133272013 0.2066650167458164 -0.00663868927821909
0.5717238231949011 0.2843965407361395 -0.020816308685311924
0.45309468670429 0.20047404938155466 -0.01822293296004318
0.40172882389998676 0.18498941021707083 -0.04559504084639343
0.5082763678080511 0.21746228135901902 -0.027035776478527396
0.3338554042003352 0.22900886039727197 -0.09496186919324145
0.5138539607088717 0.25919310586139943 -0.01654847233520229
0.48831692675838667 0.1738251697518507 -0.08518537495183409
0.46564148103269076 0.20485189750279176 0.0061787628478242596
0.4764611701768473 0.08378096467268392 -0.2203669495222016
0.39013945546668083 0.22700617856585836 0.07820573855391899
0.4132986028306931 0.21323503048630243 -0.030818383112531933
0.5014215046774098 0.19342914827963398 0.019832334521055373
0.47572376154224116 0.24665487932999497 0.002983849560067142
0.3364665725752758 0.3358527795923578 -0.0040284337946303594
0.4411082084131408 0.2167948566175255 -0.02391094586373299
0.44772966185132645 0.20018954450266335 -0.02625978367910875
0.5405440015275218 0.2587522658071748 -0.0212172868839815
0.4834660043156589 0.24138294130183624 -0.015763809387436822
0.45474832063395354 0.23040872463337791 -0.036588336075837447
0.401541649057819 0.22301722403500435 0.03625895404721291
0.47050362288912595 0.17279983287050982 -0.06289849084404864
0.42666811352064826 0.22494820052736486 -0.01773965922720322
0.48791286223828934 0.188301234944106 -0.002396091013821433
0.45824789533520516 0.1936221585478961 -0.02604974671896798
0.36367962186851344 0.16750416509378852 0.01895687096026677
0.5191883983076195 0.2138608701633018 -0.060031848725998316
0.5491672284510543 0.17118712356744936 -0.05658241755804738
0.460134923443718 0.20044098080049366 -0.013855651494040444
0.42397286328294115 0.179653842087248 -0.024552935895059136
0.5183698113810209 0.2175916556957418 -0.054612691214629194
0.3032804509802105 0.1479754678078109 0.03734237184968947
0.26736500475637115 0.18989386630357785 0.014855903034003859
0.52879671715624 0.17150773527538377 -0.10642048371639135
0.453901096680454 0.17961123956456504 -0.06994359453845789
0.5216216960867683 0.23771551866005325 -0.03775015185573238
0.5306415645498532 0.32344118228667185 -0.028170274061778855
0.42539410027849556 0.16689362239930006 -0.03720283384657819
0.44985304227631673 0.11176778456291458 -0.0889108079397829
0.583403444472836 0.27501425616327424 -0.1716744771046308
0.5374432184758717 0.23565676861110774 -0.08990807308035187
0.3950317589020216 0.18525271596757875 0.01606262155186755
0.4430787706328516 0.19081461032087077 -0.04285152436551698
0.4765768129760346 0.20607035040114852 -0.050879265386200245
0.49361985736889835 0.2715065939363228 0.04888022720362528
0.5729430673532079 0.27983423294750764 0.015017128215873754
0.42341505110441346 0.2478937082137378 0.04847392336091616
0.4382464559287058 0.1304202780109165 -0.1478728351011398
0.5071221727193063 0.2784057505204771 0.004926774097370412
0.46277245833231007 0.2002271255797865 -0.00963943283231572
0.3934445329402081 0.10588699569842674 -0.04188097984507522
0.4617065282212849 0.1955444289693844 -0.04582055480086922
0.42859949819346355 0.21090899446269873 -0.013267059704787698
0.3805470003521805 0.150186348259723 -0.08351849522286159
0.4724288033862365 0.18653747799491782 -0.036869439720319974
0.4735173045965695 0.22101968336426125 -0.03651604148531362
0.47134340784135986 0.22005622638786804 -0.02594532239044156
0.41196635800282877 0.19352423520791717 -0.04652069896070543
0.40178358516607204 0.10532781004893366 -0.08192574766054861
0.6077456806082182 0.11438441523517895 -0.017280820942971786
0.5101602847632449 0.2618911492960194 0.07202550468471713
0.4775537784649373 0.16283856887201864 -0.014488657861704723
0.5039474707268425 0.21918413155876237 -0.019914154970791742
0.4783132978247835 0.18988565724419004 -0.10401577950057117
0.4201692808195929 0.22786462803452423 0.0004826729017395337
0.44170998807283013 0.2516436734430272 -0.07850338700519899
0.4402598656439807 0.20979703580962905 -0.03127405064263655
0.4370738921581676 0.24495426876052306 0.0005298960471122882
0.4453393990531396 0.20479903644880437 0.061547634763584824
0.4685152705290392 0.20779117045088924 -0.045473246557008906
0.47135013164417217 0.2027451160657563 -0.09760058615212586
0.5355180902340066 0.24558994725398975 0.05304943765513315
0.5397138597838023 0.2680506976738286 -0.0847694142095321
0.45228523722312275 0.20146722172358977 -0.03029005310909838
0.42591941903936004 0.12968508039210747 -0.03402969300603331
0.4430123715722658 0.2039886644265323 0.02272352026479041
0.4587723215670252 0.1907916138801511 -0.04473909148954647
0.2915353075752165 0.2781658250037111 0.400680760847024
0.39753365548355646 0.15104869460317616 -0.04658996631999912
0.4062240672771793 0.18296470987145597 0.0016162152473242486
0.4901102693582118 0.24541240325572744 0.06714301110218912
0.4721823979720625 0.16210390242639505 -0.06162322271660514
0.4336920317990405 0.19565469829001358 0.00900157204287666
0.4011129453497517 0.19237878652647566 -0.019757321064759026
0.4557672719571002 0.21155155396057523 -0.016386102222554655
0.4551137289175813 0.2031709540267741 -0.03473752990976209
0.45654052570820625 0.17656492266277724 -0.010618427678977582
0.44109020538556365 0.20654723598968872 0.03473520755130721
0.4332271396352496 0.2207681880768746 0.0436366461788964
0.5880851656583275 0.21448784777757623 0.0051786292984843385
0.4554241262963643 0.18056720381437685 -0.05258314221541127
0.44294776665849156 0.19012417579912722 -0.02755749676424557
0.6590412884657155 0.26151607322944415 -0.07939631428109806
0.39327895060020523 0.1687831616788742 -0.06204392709898343
0.5777861021382904 0.2681169143957476 -0.04808305267809487
0.44459514019879975 0.20099720284991918 -0.014245097300488396
0.46147881497236654 0.23380724714320422 0.07287526751305506
0.5242627145514689 0.22158301118922452 -0.023820926903624695
0.42471841609408045 0.1964005279788239 0.05406285467579153
0.42018038401664626 0.15968996110285616 -0.027098071387300138
0.4132991371996013 0.14540164647567622 -0.02629174490974151
0.4627860781576203 0.17670301359268592 -0.06437974102757948
0.49530678305956144 0.220995197696368 -0.03254842595319474
0.43643097953591337 0.26161282851266776 0.008189984467094291
0.22152343639972116 0.3116722100547804 -0.19291943231522168
0.30123290640243283 0.18900015690635996 -0.08662602039140666
0.4877153357173256 0.21217636852568944 -0.05285127902759257
0.37513300250653003 0.28159318156238555 -0.15123017751866996
0.43412530423560725 0.1833664667454542 -0.01315788014707664
0.49562938779928345 0.2687343369936457 0.01805301088336364
0.5867914621818073 0.18860627555341125 -0.05812801504254139
0.4845984803013863 0.18130145362533767 -0.05191216173993496
0.5084002464466266 0.24965714728790545 -0.04879285379365683
0.44277461061221857 0.19507122694301415 -0.05387653036454765
0.4933213150608964 0.24793067553554238 -0.022899258533755074
0.46043934275050447 0.1870082434142546 -0.029848692763494
0.3442392123814102 0.09368407152817326 0.10964698179583365
0.5114751153711126 0.19134035860443532 -0.028495806489459596
-0.08808650149212838 1.4171037035722094 0.3099313067435787
0.3332658565717992 0.10436233275299855 -0.06017456302097912
0.40115311177889623 0.1475763014437632 -0.03846280431197613
0.4428550222675085 0.21226223399565924 -0.02082237474829185
0.4614837893891348 0.20193127801124433 -0.05008544711860452
0.5257947229460598 0.19021646045652574 -0.05625487557119868
0.4639880681218784 0.20828224425434883 -0.014326821007713875
0.4282156739073031 0.11494709621965171 0.04522371224868493
0.4795103605467972 0.1735969704533602 -0.11019082846576111
0.34853375818283894 0.17919056290435265 -0.5820276721925666
0.4830351044122949 0.20263010202020837 -0.04600977327007172
0.4307763065323513 0.15472719809230284 -0.014971687639899756
0.4221621007235541 0.2529497249065571 0.07871179664664396
0.4342996220959634 0.23147218263733293 -0.1333930398998575
0.43960672692470837 0.21170427837940053 0.008789931711191912
0.4496237431531114 0.4240889244302508 -0.13604567744405927
0.4282918840087291 0.1812475894960528 -0.04019321956492661
0.45921873293372073 0.20124287298173726 -0.026180281415179252
0.45593579318577326 0.22614102626008048 0.006450108484870043
0.3757675912462446 0.20826951125710025 0.0346650191418405
0.5171955866161113 0.21214034102489165 -0.06720979319955234
0.4353242037738312 0.17272582947154547 -0.024714985275096524
0.4611438168339106 0.11438281882450951 -0.09461751114733374
0.5344644405460173 0.25417211555878794 -0.05849771716491148
0.39880064812369653 0.20897116595267562 0.07303720755936638
0.4344914414858323 0.2050657403757441 0.0026765006811331205
0.41314344120172564 0.23836478096382052 0.07662311567500524
0.8298963690019292 0.13239745291545546 0.0473573038950974
0.47046267192169466 0.1722171956780869 0.005525769513837986
0.4939218739945659 0.23404013075614216 0.0026773181020303127
0.4673757227546247 0.20798336328370226 -0.13324973048284505
0.500719282584356 0.2558188947962208 -0.055519907751119035
0.4317337223176736 0.24710777819190355 0.057949948048744204
0.445756093995783 0.11921964617916103 -0.03548925240204426
0.6978152827065998 0.3022490721350408 0.0605437404760778
0.40950233445217066 0.24101872476636288 0.06025674073789844
0.4072412811208892 0.1878117791709144 -0.05362571396659632
0.49679914629602706 0.19125142660232086 -0.05025402405658497
0.5255260438555922 0.23918696848943455 -0.004494350955710047
0.4431134653382003 0.19843622863544397 -0.0013709857588253271
0.4561615238849299 0.17019849059627745 -0.024860978989551086
0.40533399554526284 0.24394298199970876 0.016671291306266767
0.477588701839494 0.20614145482764457 -0.10971375776409786
0.5198709453758568 0.21699435474843654 -0.05727576460978412
0.4994337249249412 0.25472600642085297 0.00287067469795943
0.4572823943883435 0.21247049100969662 -0.006123590937136214
0.4529156020733893 0.20757309098391374 -0.021454156194636198
0.4821876171695294 0.18608288958213848 -0.04127592966433724
0.4649016229180347 0.19958377803587268 -0.012429130727667825
0.4833846648184874 0.1706471032033079 -0.09588645379716354
0.5947361295553577 0.22170262307062671 -0.07202458322137772
0.39890107490120386 0.1517995828113783 -0.025752773375415927
0.390617420171111 0.11605390352681866 -0.09960005348406753
0.4765432788139492 0.22330462783695282 -0.02990963770159283
0.4169693761387947 0.2196313779092236 0.03596012279342631
0.46974385024738297 0.19969786518061028 -0.04713397062299407
0.5005292203554603 0.22324160214444078 -0.033847687144799465
0.5497721369235933 0.21713849678272368 -0.11279483455962236
0.4244574948619544 0.21369313974028614 0.01917096694317877
0.43827417674211233 0.22967015820083247 -0.03846626916887885
0.4714461951187303 0.19132899289709826 0.003300219785757008
0.32732261293152476 0.23328320160442217 -0.5648376365159749
0.4495278825778968 0.20248259732240115 0.05050143612064062
0.4728373800110859 0.20774262371554642 -0.019565787470554596
0.5512511041694381 0.10345349370140866 -0.021799422459508833
0.5025375427518242 0.23326034821042185 0.009416626678444118
0.44890066171180365 0.21519209268390682 0.04966158083522032
0.6078291900367958 0.22576343033613 -0.13973001762846593
0.5455861188651738 0.19060009137169232 -0.016634059540237445
0.43285187030029704 0.20401124746277333 -0.000447791841736489
0.4464537264127699 0.20419141421439235 -0.04139970934363646
0.5065724899927488 0.2394770898426657 -0.012192030891071681
0.4623188649714649 0.18467588871988028 -0.0494634861470189
0.5170286902581438 0.14472956266658343 -0.1142241425634154
0.5056290845158458 0.2130015896873232 -0.06588712627403481
0.39334876493262527 0.18743007913511178 -0.049796828101790425
0.5407020508455105 0.29198585809425026 -0.006896214109673338
0.6007194343104061 0.3113770855422331 0.04406476663424996
0.41520743529314075 0.23663848516487462 0.059998943261604154
0.4822003409642406 0.24682096586579405 0.040693794681786244
0.5029085765267354 0.1995177006255915 -0.044450856424049334
0.3569618520218114 0.21186543793919554 0.1118506984410601
0.5054977993569594 0.25255490362872024 -0.008624725011628698
0.4842044528318752 0.20673308218397324 0.014021406602296338
0.446506001052569 0.19412278784290038 -0.02711493646272345
0.45541988825111446 0.22872177618125988 0.002323924296547375
0.4893400651377249 0.23884104212274337 -0.02443340219900847
0.6819540097231993 -0.7061861299636973 -0.6931043062946571
0.4180609536478528 0.156741063538945 -0.03824727942198081
0.4473266759173242 0.1990390402014981 -0.034129522831989334
0.4520074469616162 0.14804790951393443 -0.030071550922315282
0.4533919246532463 0.17837969628314454 -0.06550855157004776
0.5825264689689078 0.12840924096931872 -0.1184617535319461
0.4984333554666023 0.21770217866941266 -0.03464412309104148
0.4611645409003984 0.18894698927263676 -0.0015312035352508246
0.46611280314569115 0.2002369567741198 -0.029928070432433174
0.47877124636487167 0.20765042240475395 -0.03815419547308352
0.454079194925356 0.17368231085879415 -0.04259667859695071
0.5035990474601846 0.1592067993348394 -0.09617549398592473
0.5020549525625313 0.24630580065993968 0.00036503990769176653
0.385865095958124 0.1338735776861597 -0.06070720200708024
0.4522958867616893 0.20531505207807754 -0.030288369871925624
0.4261133838195832 0.22616781109933015 0.0057399982058541354
0.5045628021445623 0.2048367242629041 -0.11602672884524168
0.5223672259947136 0.19966644783811205 -0.050215973232639044
0.5392593178668932 0.2660803775803231 -0.11629460630133792
0.4215005182361864 0.1930262560815379 -0.027759102023338755
0.4995301545879869 0.26881896178701936 0.04169422313736959
0.5298330162945888 0.22789646957735954 -0.02860292734467862
0.3887565657675367 0.2795646297744696 -0.044031696297025746
0.45478397480120236 0.19629738879109482 -0.030596226167105556
0.5274686161346409 0.08161169601467577 -0.047897265001552114
0.4799537479760403 0.19320884299308716 0.0023344833768845774
0.481192027688337 0.18273392078467054 -0.02494009559575261
0.5145292832035153 0.21890947120530768 -0.059887826907257136
0.5573111093343073 0.2635341670598308 -0.008420559853504983
0.457312430466402 0.20608065016645583 0.008146527951112148
0.49882932166129024 0.1577730383347813 -0.17359909367317528
0.4672861381174158 0.22014859525143038 -0.012311886848067388
0.38559396093963016 0.20618189822084787 0.047488716085467786
0.47276807458894154 0.186730979389381 -0.049613894176786744
0.549705569122878 0.2777167509664764 -0.022729006468694024
0.4217085422026372 0.22516601118152835 0.06495153610183024
0.4730141651910742 0.12840233469634654 -0.03980703899540572
0.42792004354640767 0.1361193862105523 -0.15316583944812123
0.46142019717146354 0.1947184413383951 -0.03700879597053586
0.3956560295508922 0.19163768772651224 0.05466363240810779
0.5002426696416507 -0.0034717682356983914 -0.13389535780491713
0.5397933126931065 0.2376875295014429 -0.0329351742529127
0.45369249525715816 0.24770610538288906 0.048905376525809174
0.46135631493147855 0.19458987437214148 -0.05908857345599472
0.4219496496240396 0.1739821416014138 -0.07224556414007566
0.4316328779655123 0.19834831583202117 -0.00902687762510368
0.49324494868302793 0.2623852999851124 -0.031012132981913965
0.4768911370005071 0.22632308213951546 0.05749215251654505
0.4785546051109151 0.20069782078098797 -0.035104663647345546
0.4709646213978971 0.16843713519583048 -0.016822969124575593
0.4713764843523478 0.16969973114521508 -0.08802062530838839
0.4331200498078829 0.17425825015904195 -0.01851499643598231
0.4517190825366981 0.17806556676346474 -0.0789117422137906
0.4939478870152385 0.2338722045652588 -7.965296310885606e-05
0.4950409091200356 0.27898032822454866 0.04535362304476109
0.29616131527829737 0.16264173806226268 0.003946622804306799
0.47288638224608803 0.17525360501716136 -0.0485698996943853
0.4632785644851509 0.20226994597132375 -0.03014515127951256
0.4571412523874443 0.19281273726249992 -0.03044704421468225
0.48264481135130666 0.20574566318454401 -0.032064060571627806
0.3734210222456511 0.20200017190397546 -0.061396063105775056
0.4454417069738952 0.193578268009162 0.033786933287785814
0.3863288741323032 0.05435864513140132 0.13411421011633706
0.46268257730081075 0.22998189538344604 -0.017576501253131482
0.47326097987455285 0.18819859437908804 -0.03776497958227765
0.4293432699895732 0.19355208645498578 -0.013681538481250755
0.4915513040896826 0.19724378067681414 -0.0820911981973893
0.41285903972585913 0.10594272640392433 -0.008883143760158418
0.4475903610363474 0.17209101695910078 -0.0737376524348008
0.4437471023680075 0.18511377550699137 -0.00030985490546697747
0.46139849053741955 0.19354990410263895 -0.05380358518993944
0.351186087453101 0.1264408452129686 -0.02482060703039224
0.4720518482530309 0.2100270860646276 -0.027862526933404297
0.45083645736130507 0.18008540885013247 -0.07183617668434295
0.4774309351293482 0.1742210603944443 -0.08146367261019805
0.5313166157431084 0.18405309195034647 -0.04446970509887649
0.4390072284492419 0.19109911819188596 0.012373506446635929
0.39747021136189176 0.18816078717127027 0.007410943203282727
0.3660902421609791 0.18042886055245333 -0.0039534227209117034
0.5130958551195448 0.2485655367762689 -0.003984065152081939
0.5198922568123692 0.17561712714322653 -0.08630935969004838
0.6242340230901817 0.17303827157122953 -0.08314908065135285
0.574941847028839 0.2189633557910753 -0.1028492981576079
0.44388246381159036 0.2528419489363216 0.012522196034638
0.43835874416866716 0.17284688320707176 -0.06980614136486452
0.4456852394598343 0.20923191505534078 -0.030816741045555318
0.39561237767735236 0.2543847467477178 0.17118008550966124
0.5235903256677403 0.1655280749005783 -0.11765022863806962
0.4743996606252239 0.173850242445738 -0.10809624703109932
0.4742572037516197 0.19005702202700547 -0.07873498387129985
0.44656850802824977 0.20949324971934402 0.038451444942481317
0.5166312377203326 0.2052225795000595 0.01035367424077549
0.45014080891026254 0.21099893283086146 -0.020123658116432352
0.4896912583160429 0.23952021443926697 -0.0572421673448531
0.4675822429365155 0.1889486850410549 -0.0963333128979258
0.40439808416249434 0.12305721684700188 0.062203133396238286
0.36636463484650506 0.25106744267654335 -0.1886756641676044
0.4587931031101675 0.18304132594948896 -0.024925751000878904
0.4689100754182647 0.15976442597349205 -0.10798582254477651
0.5149403791233169 0.20459756035432974 -0.026715684467149003
0.4381547687757461 0.2572426048827765 0.04887764221533075
0.3013403850384293 0.3861479245566386 -0.15004448593467146
0.4889042608906635 0.1919558352336992 -0.09462724198633055
0.41137556474916437 0.2361023204478414 0.05241841518045476
0.5339727400211558 0.23730684172451788 -0.09388563433120112
0.4518203070845459 0.2574039462289335 0.06220745885767087
0.42138270294977076 0.2003271874000916 -0.08601177439578578
0.4377917944827203 0.175066373370953 -0.03133523117941195
0.5080317452435708 0.17849271794051447 -0.10024668914901724
0.26941917907396373 0.187446733471603 0.08635199861701892
0.454773726294448 0.2153414106238074 0.005882749436523227
0.4979973681178649 0.21164662093454467 0.05191235185691312
0.40556264748325077 0.23462443401733424 0.05093900553035269
0.4566528533034244 0.22453211229600356 0.008618751662595514
0.48868359720921717 0.20884870850389348 -0.04372877131046948
0.5014788236033922 0.25352191035619853 0.007440423760044723
0.4292160875248925 0.14785607091226893 -0.07782681392845348
0.4080970671935802 0.13246413327181017 -0.034358034730388454
0.4603865824118998 0.17738300189554934 -0.06189262639256299
0.43417007790351647 0.19605666800251242 -0.11249579606811722
0.4090890702860861 0.2188152314958245 0.049554103363675495
0.4643152015069205 0.17074365740680264 -0.02304810028266502
0.4744785219258745 0.2178940735129089 -0.01755922879627292
0.49044431585789994 0.20647756582465604 -0.046285731643109784
0.39919649544032154 0.2234714365193895 0.0523430758271104
0.49425286179477723 0.1703839286688691 -0.1135456336515972
0.4924985973003686 0.14923258560186525 -0.12619433000948277
0.4376735844443971 0.18171834282293275 -0.04854818725365817
0.46283626930748767 0.201520144720007 -0.03863252871062173
0.30309668972719805 0.1789720470283953 -0.040402405210201664
0.4908840434934376 0.2209223365926647 -0.01812568751188337
0.49830255159197634 0.1401936328890514 -0.1020510067967848
0.47872096418338117 0.22408086813793204 -0.018827952923089697
0.3533467043033056 0.051439688653971416 -0.06597540654652789
0.32048282143549045 0.1300404752429074 -0.025562351229808655
0.5237179163424059 0.191397031246467 -0.09606557452633524
0.5174560228243763 0.19322768033089233 0.06045431143562041
0.41396653881537304 0.16835925290152431 0.0518938146568928
0.4364457182164898 0.2118750310707469 -0.026382738725629906
0.41926543468274247 0.18541783793781974 -0.0028593610182952034
0.4782199078996001 0.15846543111652522 -0.11797917531717417
0.3972100356320425 0.16926556218919586 -0.046772886401043934
0.5970221851445956 0.2107627174277411 -0.09475844506799547
0.48728547018792767 0.16806141572386935 -0.10611581220820199
0.4707266345998562 0.20572098916467496 -0.028112664927832043
0.4504162318449403 0.17818947385870842 -0.03899862210265326
0.4777038190576519 0.1709733751308704 -0.015292198964147019
0.4987928563384827 0.22520713076892207 0.052756102409588834
0.4078347360552357 0.19265162088906607 -0.06604719739758025
0.45802602502189416 0.19759664982598224 -0.046322777484661515
0.5138812495162455 0.22744876337870323 0.004667941693725197
0.5290937460243441 0.25270406253291355 -0.03158842309375132
0.5447014001535422 0.17413578701837196 -0.05785283442321543
0.521921368335299 0.24414711320014248 -0.006350549377771131
0.4518370350203327 0.20593613951092493 -0.018215624167709166
0.45966487404719203 0.19211582287769602 -0.03866326716362778
0.5501025022555837 0.2574923668896645 -0.016376944691970152
0.38371290258814383 0.22018422542551264 0.02916498441433646
0.5336014085003171 0.20690613200545727 -0.0980184694715831
0.4378556898474528 0.22572582673379316 0.0676629649973961
0.4862528737608187 0.21424034933188807 -0.06280661273655141
0.48901555119073237 0.2559594620992698 -0.038801214166937825
0.48685745214251597 0.16854385345007472 -0.006384435901964025
0.5553159359107127 0.21614044386518572 -0.07821232721344984
0.49610541745117587 0.2086620735219924 -0.059810212145904984
0.4777375171120326 0.2152270492167645 0.018594903783096584
0.4813958637297162 0.19706970556936199 -0.02946140560240451
0.49672163263042535 0.23782326313045132 -0.01053061250064502
0.43343956234899395 0.3146767815361784 0.3872273076087822
0.44495035564193586 0.16718198986359312 -0.1144894539239516
0.2604299876448124 0.20173498299575954 0.14452998967664143
0.5066912455914121 0.20495793530182027 -0.11369597770742246
0.4043905658425473 0.159367455477323 0.049523754499603
0.40116786541179295 0.21090684018147954 0.05770323058631277
0.44236515356821826 0.21141067877192654 0.0027659603453855652
0.5196629424578845 0.19932293901092635 -0.1194964735807389
0.3989539764680927 0.1372362235434963 -0.013222591581723009
0.5358925113363284 0.17796798447889728 -0.04928125925047766
0.4955419764939677 0.25415404465715596 -0.00307044972521453
0.4890648178485577 0.21081140788544417 -0.048961348070676536
0.3921286892165199 0.17108486134151235 -0.04946972457054244
0.5231857612450455 0.18904066733558977 -0.03219840348262437
0.3904883992617272 0.19581814255276697 0.03534010007288657
0.46076270106686934 0.1708496859233719 0.056317284654625155
0.4074050995031939 0.17836990566067357 -0.03093164034481788
0.4609981453725993 0.17449267710955496 0.019777068729581515
0.4579782439101052 0.17990101742719844 -0.027715319544952877
0.4375758771343641 0.19110766367022336 -0.03283818562758256
0.5236008949268154 0.2265032712580819 -0.07063747707869084
0.49293034519988055 0.2483311537316979 -0.014462022298062038
0.44348099595195833 0.1929144913208063 -0.031009542239360144
0.5533414064284727 0.12379333947905025 -0.08842600613814966
0.4006257927830603 0.1534939456482789 -0.06034202972443836
0.4907676753609991 0.1952409902003751 -0.06653959044611213
0.5088767786098884 0.19929820330537495 -0.05191562907873504
0.3906449866279189 0.1276289869390439 0.010674439360698784
0.41568553726588675 0.22620405256135712 0.12722845548681505
0.5211458329338114 0.2504707295607318 0.03763206830402055
0.4686392125180703 0.21799775260171828 -0.05956339369348029
0.4830677712184439 0.20492978097824732 -0.06896095349765119
0.48574637305323165 0.18884530322790738 -0.12973734987177465
0.5247915274764807 0.18574207513384522 -0.09324132434122134
0.5237390833578104 0.21115649873513576 -0.057937688305401025
0.4644078984490676 0.2005649009728785 -0.04326449057037962
0.4822400886577043 0.3779632445951222 -0.2595006247078544
0.4936019488295216 0.24395286641444613 -0.018186986087130208
0.466597496190559 0.05375477836838627 0.029092883042508788
0.4554226678833544 0.19783523278985626 -0.009269010774943354
0.49665346050105086 0.22906800000134808 -0.06339044702177432
0.4629952593829074 0.18388374429434862 -0.07001255420468055
0.4451417109950313 0.18412205160686312 -0.1165204360203802
0.39397854312339575 0.29807356496061743 0.024371931335693375
0.4409088470032998 0.1696615712497902 -0.07929059246970382
0.5399229590369004 0.22801631260281852 -0.05214796279994971
0.5302899278225084 0.2422591574559192 -0.09816273770427131
0.4613767770795363 0.21415999507442507 -0.039192089218715864
0.3923228124574649 0.21839958431220907 0.026127092813311492
0.39530157177586034 0.16430564415786364 -0.0717770441227259
0.4895336731705555 0.20541083133971938 -0.020555194654036768
0.6655567168128442 0.2460127627993529 -0.1190057194273777
0.4565033560204199 0.24634809418736836 0.044385721625687324
0.8848726809480212 -0.08747983121321568 -0.4525204270965446
0.4610677652391928 0.1743915334747328 0.007428018092824118
0.5075730266313201 0.21840747242637804 -0.08082270411543391
0.392369058546052 0.17590006657850665 0.05146952973819907
0.4866855544472486 0.18980132962687435 -0.049999016022511
0.47641091354431353 0.172375050918248 -0.08257166496414925
0.5128782997898043 0.220921566145023 -0.054484015924728624
0.4752445552838225 0.12685064993880246 -0.2082578220993554
0.49153886380001666 0.2090171832743124 -0.06567354674719184
0.4937551226400956 0.28268813457052033 0.03896842877001916
0.3616727247890026 0.17439374215356906 -0.016616410711137064
0.42884014010101623 0.17357970120289679 -0.002889550866726154
0.4663716051695559 0.231321191277857 0.005891984692610208
0.40730063997747834 0.1571353074463957 -0.03573968252011639
0.3519521443784157 0.23743898686663556 0.04329658767730393
0.5569031532112518 0.1319258286623466 -0.09101541634248633
0.5809308959849915 0.16166663782775004 -0.031661629878954045
0.47343015810133693 0.16082328178623584 -0.12260457344846998
0.38004524790824235 0.14207507538382913 -0.03140280883395974
0.9418685277921242 0.7194140484308775 0.17331977006253396
0.4554068718923219 0.20960182119854665 0.003511102369799346
0.513939521556324 0.2237325092725655 -0.023192470696017153
0.48597093449569684 0.19321147845899134 -0.010600952348767123
0.4947399096214582 0.2069640155623631 -0.06362562545294281
0.41124377251844635 0.22337937951377285 0.03784078905688659
0.4381916532535257 0.1822762573953014 -0.06161022306721975
0.4671974436381561 0.1884473886504452 -0.00896999748610483
0.4345779442919451 0.17432598511965125 -0.08037513931125773
0.3805877979893211 0.15417252723993613 -0.023669265059083955
0.43471701737963997 0.24778196804842878 0.005058608897812178
0.4471737559133402 0.13968593243296823 -0.11882720307104933
0.5358539481978539 0.23594383306497946 -0.10020749375692617
0.4814514852905347 0.25486185376712456 0.07173194732189359
0.3451462590309262 0.1750188774732635 0.01666683559560056
0.46226834936925343 0.19327548201559352 -0.02419745286923103
0.46514434982087494 0.22551595610789832 0.01355811138473939
0.45583421935565127 0.14633518926090971 -0.015156574991493699
0.5234992478758755 0.20454419135950275 -0.0187439119447248
0.47092087927813964 0.1990244168212314 -0.08742842599082223
0.404379932667581 0.1591838998393058 -0.0040992643097013115
0.3955677854046371 0.13917040830887117 -0.07529308451859151
0.38132501616534853 0.1825242208809783 0.01263769167073292
0.4349738307735862 0.15652412048871156 -0.036926794241367134
0.5726114885517148 0.1985519604844228 -0.06006813103726927
0.4642091022836752 0.13246779236740736 -0.03861214138416358
0.45072930848618853 0.199612179542612 -0.03868873969847186
0.516191946959708 0.21951145244372583 -0.06988449763285587
0.4385228942738735 0.2030149430648862 -0.03464853341591834
0.44839056155932155 0.19967179859372663 -0.09268959969300283
0.5106038413737082 0.22617973138821412 -0.06537149119586161
0.37092399142322563 0.13139951209002732 -0.04545174007360231
0.30219467593819616 0.04449619922651493 -0.05656155504479443
0.500819227742312 0.18373421066419837 -0.09763453039505521
0.4635812906091843 0.34697261825108683 -0.06487815366044458
0.5201514749213771 0.23251860939265612 0.014229477525390166
0.6108105109248498 0.2896615787700796 0.018482124238516917
0.4612680491195533 0.1867291374926765 -0.03631553135538468
0.44923314256999447 0.1811593546630803 -0.04962918561309948
0.4544311191487509 0.20070830136624807 -0.02859249243168449
0.5367425884244454 0.24645019063578388 -0.004153050309710693
0.48935648530334674 0.21385843222182643 -0.01895493809229265
0.5802556830244754 0.23885041356163583 -0.0514809133321279
0.4607042993148127 0.20060109984846974 -0.010108588692759213
0.41672088641959704 0.17767755722125855 -0.056078158823368085
0.5283279537087822 0.18540867402546723 -0.029964915134513603
0.3853488135070364 0.1532595347904646 0.001058872644875919
0.4533716169140547 0.2121022498366898 -0.011546597525637026
0.5226616137756963 0.2691371876810251 0.01259161065780745
0.4656957761616951 0.16912895247111237 -0.039914402679073646
0.4033325280732214 0.2405655204531314 -0.009182915913839906
0.44047545607800487 0.1800699639947254 -0.021429626157953408
0.558227865647396 0.25258067355728997 -0.10492933698196794
0.46130779133854105 0.1566694923027967 -0.06812540252722954
0.475288318339409 0.14128653656825918 -0.09719153568761385
0.38333014555820455 0.13680944950033336 -0.1591809954377652
0.46548772016929263 0.18964458918202354 -0.048059898737705
0.4854800287306915 0.23879000701663244 -0.04315835682609759
0.44313561684279534 0.1751903407125326 -0.00743195673901198
0.4647385929085459 0.1817546359973221 -0.06965378852382287
0.41914310576198943 0.18565660302874676 -0.018104403762691845
0.4727187501661376 0.17916385488345554 -0.10919931032466934
0.4403813132597776 0.20139274879529978 -0.009692788597959634
0.4715412261803209 0.28668803189152925 0.06919323123358367
0.49600579420290103 0.20287107599119736 -0.027167144294082846
0.4335920762749197 0.17359775991610604 -0.051509719193717274
0.4533587227192726 0.17542686295644216 -0.03237209101845906
0.5055045010794998 0.22149458096311037 -0.06807350656953304
0.07554975141243858 0.4893022797553215 0.6749845336612168
0.47722270966546887 0.09818465177909275 -0.06174806984734005
0.4421495440904124 0.22963251307984933 0.009313340355291189
0.3408041866350402 0.1639517727462163 -0.024048286686536358
0.3936876908315696 0.19108224940370633 0.009422964952705115
0.4706987721344973 0.18917018024009735 -0.11021746821820955
0.41654751677849333 0.17783031512527714 -0.04286505893084325
0.39617088154362534 0.11876582287541737 -0.08780266522298064
0.41293738957708115 0.1815609092626289 -0.03962390104724989
0.5483602564384711 0.10634721453531881 -0.12405735713382171
0.42592919077618774 0.19067708068251932 0.021322328893944587
0.4298909622889795 0.1812706133451627 0.012713627746904876
0.47559888222343716 0.22998731436740627 -0.006072510682074039
0.4389015231170106 -0.016591709575507707 -0.06528780407958834
0.4344120768939632 0.20471462516479733 -0.006515689255024881
0.5634056380504973 0.24494859915532174 0.0332546286258264
0.47466192990090406 0.20767765358613133 -0.09054324075785303
0.4255900183141108 0.17117187095823283 -0.16057992936939058
0.43844545955813885 0.20379265212261544 -0.06596555230225931
0.4486992165902137 0.2539073780518919 0.04455633517855517
0.44084083388290196 0.25691053327895474 0.030378198113425015
0.4535102663275836 0.24401045731876536 -0.09515046598539811
0.46441292061328454 0.20015510011074866 -0.10015175193078107
0.4986784149801622 0.23347650279120558 -0.1578207835431158
0.48521044133360647 0.16545298578158452 -0.09986114828808468
0.43755047211605813 0.20744055807043082 -0.00801045610643314
0.42061126207508437 0.1148887337614326 -0.058794892466494275
0.6304174773215294 0.23077842144309102 -0.05417770557170343
0.26230429364548513 0.2193650733772472 -0.012381655121629365
0.3268396839262806 0.2531221265510055 -0.09944655008585812
0.43196068681780275 0.1740278400213242 -0.02721609087041088
0.4699723633968773 0.0871617264347293 -0.27322867781731475
0.5981737534222731 0.30292683998384007 -0.0723128649919147
0.4267121373329559 0.2213044610284669 0.025588632387751886
0.46048426124049513 0.1514715250465315 0.0468626446267848
0.8925303517298033 0.2180607551647853 -0.046056769371375594
0.4132280883189594 0.15516694592352565 -0.00823802887792624
0.4641045972305875 0.21908949871563266 -0.004383126632816925
0.4737798759215792 0.2505348514047654 0.032413934275211886
0.4743864420472903 0.21103596293976068 -0.04646408514548739
0.43762701090571454 0.2007881876126021 -0.04944842296055185
0.5701216714961674 0.23564006466318688 -0.06729821836498218
0.5200124785548184 0.1844000804556174 -0.08889198532739329
0.4342124769339506 0.19691479906678921 -0.04056023312467971
0.44984466409115953 0.21825803434082047 0.005156092506851451
0.41121745029865053 0.15211818684105083 -0.005330273472708313
0.37460578175688397 0.11102713219827365 -0.02611654884508141
0.4575619900317349 0.19095221256783645 -0.04627965210863749
0.5414844661388827 0.2245795776049988 0.06551588393935504
0.4621855697108117 0.18143457598242207 -0.04694719630737154
0.4660914220466452 0.20063789365809725 -0.02305565490004824
0.4746061975711484 0.14928862989742697 -0.09857072928144817
0.5301261311045522 0.24267283102985004 -0.054152358365371356
0.5008359301515952 0.09314090630138594 -0.051439464372705856
0.45866127330533857 0.17745266694427642 -0.025875607405865253
0.5102091066194845 0.21129038943020362 -0.21699851827243322
0.41269303990667083 0.19210032933727916 -0.018225000801351143
0.436542516651528 0.23844516319678632 -0.037228510662856706
0.6072322455198105 0.2182877086913777 -0.13702272661237203
0.4058013182628315 0.2038212207734631 0.025388647944367904
0.40936440562855125 0.20417881471411192 -0.026849264340796708
0.43170367379497065 0.16490754751782788 -0.028694249171877573
0.538947553170928 0.1953682700345496 0.03607251582239712
0.4891451345564093 0.24345266077219208 -0.04059862721476293
0.3986968466802381 0.12089069122080787 -0.03652968615131158
0.4362675679314236 0.17188784251044353 -0.03672782049829948
0.5192544307506637 0.2742992258628192 0.04202779297378356
0.4199535497125737 0.23499178283522326 0.06520724145525492
0.47797053131311884 0.2085389359365024 0.014803335706261578
0.49207218065861014 0.13900067789421655 -0.17084963486419724
0.43687024744301084 0.19101165735585823 -0.08497059810959229
0.39952398398813216 0.2544328088283123 -0.013959870902169769
0.4813470231698602 0.17853603585605526 -0.043732603909830914
0.4507090586349989 0.18088724934858647 -0.04117308248004292
0.46426005988554664 0.19875267651676154 -0.0215298802093713
0.4658494221127256 0.17626112980522635 -0.0975859064416511
0.450923825587509 0.19779780531254687 -0.054012580744171146
0.5018016930049498 0.221490855870627 -0.05711050792784533
0.5866252514699255 0.43984797253710894 0.08811630527516456
0.48312744344927694 0.3507330770886057 0.09971927976366146
0.44467825737525857 0.1678593990982904 -0.07600215190126391
0.5475215712924069 0.25672837158393236 0.013867834615780339
0.459851844347952 0.18715779009320954 -0.03464426608972815
0.49700533925688717 0.18272245668947562 -0.07897328502050982
0.4697867733564607 0.21970686292573305 -0.028835749415137002
0.43890240962369376 0.17661916444023973 -0.05550557628363606
0.5602414139336389 0.2760661681019769 -0.09795807034342374
0.40886974874048576 0.19759591518906916 -0.008533087463462152
0.4903632562516833 0.18452352066051958 -0.04021057164919739
0.6039593413770348 0.2822936703972232 0.04189809918355536
0.4041169253404604 0.20216860162565808 0.024344520280237703
0.40303339370680646 0.2323447433852408 0.009340624440170586
0.5446909085614067 0.2433440975102883 0.01309145669534928
0.44331195102097354 0.17634025930678376 -0.035498522851199255
0.46847806750292875 0.19929941075118052 -0.024397509858701483
0.5248392985373584 0.2226415938252586 -0.06676082321419585
0.3761591058574396 0.13401553937484323 -0.10046797126086915
0.4087359391323844 0.12935423084275044 -0.03672700570389509
0.4745453167226259 0.17614798331625536 -0.1228705575003346
0.5800375847233283 0.2350409399948319 -0.03593832690134491
0.40860022542631214 0.13223226362117657 -0.03308486255573939
0.4850876943183664 0.19087013337254177 -0.04426627413864992
0.483043966021242 0.29230532370560525 0.05606601573799708
0.4072631454480984 0.20088297146095613 0.04680280344172161
0.5341605601166464 0.29521757447280095 0.12921547892763385
0.41189178016354333 0.22859174098634583 -0.055289212506352214
0.46760909026517083 0.20461195660367082 -0.07543993456599196
0.45184626344220646 0.13069221869484693 -0.06520402331638309
0.4832517901150766 0.2483942286328613 0.02952524389806399
0.45431926040218684 0.18758639655858644 -0.12207478270862282
0.5305792582675934 0.25229284689694964 -0.03918369426790491
0.453556973750878 0.2033495466377815 -0.034217277995253426
0.48376429620900296 0.20961943170109976 -0.028167757156467133
0.477108264964869 0.20366301115211627 -0.011707980916582983
0.45461547173951544 0.2422318841058484 0.07003214919073741
0.576322665278866 -0.08082032970793307 0.5725249431643533
0.4820719792505628 0.21423761628889793 -0.03868125609733397
0.4558562968988298 0.21301823622309257 -0.04448443472938379
0.4339690152596205 0.21154425863309712 -0.6279790055653791
0.47751705337988426 0.1972763239255073 -0.032702652822152345
0.45389903370832485 0.1883110943357309 -0.035405887686792425
0.38833846302252084 0.1647060520678707 -0.04570525839062611
0.5070232741367704 0.14168794537859242 -0.09097240881720836
0.3848707856775917 0.18535743173855224 0.04077480232007247
0.6170131992344778 0.3289548882936657 0.04275143521053337
0.3903229713903187 0.13464748137729998 -0.08607907044044794
0.4310564171976097 0.2192829029491179 0.08459106498744973
0.4909991519365491 0.162557445916093 -0.11320186238717156
0.5000574553937582 0.2154615362050265 -0.06280994635436343
0.46074679462444124 0.17513935890198695 -0.09176443199226014
0.4574382345897874 0.20403543796828671 -0.02144202090309477
0.4411190710195285 0.21444446801686468 -0.04587461218974909
0.6458104170477554 0.2827435942666199 -0.1160005848514345
0.4451238268300557 0.394627997986305 -0.06081512160352531
0.47568905174911436 0.1736520617566839 -0.03669926658012912
0.336580391639572 0.1785940491568283 -0.06335886843373828
0.4825581519531852 0.17974304700177868 -0.0519301721102039
0.45556004484966195 0.18967357718869948 -0.02369285372620311
0.4398474939810626 0.21026773415675848 0.06113113760181932
0.43730754081026646 0.1942218035841421 0.009952067644292129
0.47211233234527583 0.19413365853202436 -0.02294432096633159
0.38159300942963625 0.20304467530780812 -0.028094229589754605
0.4587413167988643 0.16264973369973745 -0.031212101520893043
0.4293928377848175 0.19659681063373569 -0.013771802569095826
0.4430604057051397 0.208257685886565 0.04311997363876685
0.5689817326998536 0.23579715558321368 -0.034870447102704816
0.49632008190513943 0.14156871337442567 -0.02593571882005108
0.4634440255616852 0.19714278108855865 -0.018426548519812513
0.4525923874239055 0.2183317390527293 -0.03606533361440256
0.5124597856464703 0.21938533474522615 -0.028215977208049026
0.4032364128465531 0.2794909166362203 0.059619300846719625
0.4110925996159267 0.18962338275972002 -0.00011907641699338001
0.39184825325946804 0.1687258924231969 -0.019767360667174216
0.2906323084352067 0.14205972796017363 -0.0134515805709583
0.4803505499114351 0.19272250790734802 -0.031037864360257572
0.5019129372804088 0.15737258365653872 -0.028322835871080088
0.5061037159573942 0.16542318204652418 -0.05463827966919155
0.4225981508974854 0.17104675702275074 0.0014137402756801976
0.39734736639529444 0.2247768077624812 0.03946672868511314
0.45018319830988673 0.23708174493518186 -0.03358891252212004
0.4286410366837856 0.17951030298328874 0.0048185305715122695
0.46142395052278573 0.2043433752035071 -0.02638735891696342
0.5009353591522796 0.22100867323567286 -0.022423419778419884
0.44434102581784884 0.20275966697778358 -0.013227695896233627
0.38381407380828136 0.19229895244438922 0.03072175082476747
0.4652511957392278 0.18932817466426854 -0.030424270028930778
0.41310433933233526 0.18793402726601016 -0.07717353460230925
0.485078325812367 0.16174173152086269 -0.029843202670662095
0.45152343923467697 0.23835082337825497 -0.031867199450005046
0.4120657370251024 0.21830967954957714 0.026211374417442812
0.4267337852282651 0.20643913073109843 -0.030669656303686565
0.4071814025093232 0.1997296447320025 -0.01604988250268491
0.4608679969188074 0.20345654503248056 -0.06375769224771943
0.4830747657871939 0.21174221010628003 -0.06159623260136016
0.4439747792131783 0.1863816299003247 0.0062607952597772965
0.4776267520809796 0.20741634705100864 -0.030792353322055988
0.4370342282116155 0.24406964045488166 -0.01907592280323911
0.4744963579041155 0.17813650887227084 -0.020982998122036634
0.418101688671598 0.20812715614211186 -0.0023919012068347456
0.4731019535371672 0.19311612939034717 -0.05451412643596143
0.4807438634027221 0.1289094015463803 -0.10699383857959788
0.39537578984128174 0.26609681939160623 -0.2098469880893532
0.1506649147218866 0.37127325831437474 0.05943850662559669
0.4716909181582736 0.18417644827272284 -0.04833885738040067
0.5154191308608631 0.23924958157309106 -0.07063541333900503
0.4318202201551742 0.18684953096413892 -0.011933880238558459
0.4512928940070253 0.22225398594007117 -0.006845036674690164
0.4443322462525572 0.22812164651918465 -0.024112856058636112
0.5440857209204211 0.16863518320175785 -0.07146808618165323
0.46278186386328457 0.1827296386723134 -0.043905194205336784
0.5717605819742175 0.3742818953764413 -0.11990567547033493
0.48866874880829414 0.19764920817550546 -0.14618494142348482
0.4227749831309353 0.2006644232554322 0.004409648788822551
0.6274500427403353 0.24670613832182653 -0.17612663794864147
0.45194951573390085 0.21011838589913623 0.0009620533804195475
0.3718481152487527 0.14169881445474175 -0.011838155656477056
0.521380351038573 0.21339752815423196 -0.09093669004350602
0.5502186141544456 0.2553397515294762 -0.025538092469318485
0.4609477061979419 0.17235791692837665 -0.06094576729437051
0.34361902214617146 0.12703572215721692 -0.05005909969744948
0.5099738812819652 0.2124344467896293 -0.06364561044705397
0.38852359468295106 0.25188337736761923 0.06895436466317051
0.3472329314727318 0.13972909705950087 -0.06740396560363138
0.5029342495325722 0.31340224541625616 0.022416952457348316
0.5176175471930407 0.1983601572281941 -0.09223027755797375
0.40262128091310956 0.15639302595658933 0.10309355055710512
0.446164636265749 0.19445785644121827 -0.05175468553488827
0.4123312636038463 0.17166253570267997 -0.052855692840523716
0.5110607533277971 0.19639335267379465 -0.057662409359522826
0.5389252309979611 0.19080991147930604 -0.06527987017041426
0.4470692063648585 0.14127040328358476 -0.054284239844548665
0.45991170573306306 0.14674787431900427 -0.05826373971072485
0.40206565226391433 0.14607326570255452 -0.10199162014262697
0.4564167715603844 0.2316643397644782 0.04497510329642296
0.5724566467580985 0.18190759263092104 -0.09369999262452211
0.46120838965835276 0.19833406878109372 -0.012261222408412209
0.4775785156053587 0.1609175013730919 -0.07903936430014369
0.44514034276086534 0.25240458836239554 0.07167847097613844
0.5391087132263266 0.2484852037276255 0.002397327710369268
0.5570693704290193 0.2566765958805206 0.02579254077490134
0.4559746108432563 0.209332346619874 -0.0013975820468203892
0.4453975916168531 0.19373591573014437 -0.04291488492023632
0.5247570255911711 0.20258047124048062 -0.08541032256530912
0.377775544420615 0.17407405893388272 0.0227357791557381
0.4549748355721732 0.17671090786001287 -0.023357276565008078
0.4773520363830528 0.2153497609252213 -0.01538438492011096
0.3859958709459761 0.25018082599484615 0.06709794851522588
0.37203404671146245 0.19812876206370333 0.04130116252105154
0.46376346826946246 0.2199693027710623 -0.03242322264765107
0.5180584704997955 0.23371109499944964 0.050417332316243346
0.4660265111715205 0.16448033448654087 -0.08205637640612906
0.4828930198438428 0.1940823276945025 -0.05316184438115101
0.4955094447200139 0.17096583900035967 -0.1552117252091989
0.4567350613465919 0.2233140517214025 -0.05583492892162667
0.3535873713447444 0.11540487212315043 0.01343521075922638
0.4923515518094064 0.16126926808006203 -0.12495892257373953
0.3699580496081296 0.14620567506909765 0.07033049076051157
0.4726036823734887 0.23238603769505062 0.012503375132254746
0.5393428419188808 0.24075953809219186 0.011495614113499641
0.3781264766937227 0.14141768288641288 -0.15972323754961337
0.41575451350648507 0.27667742760054637 0.02755173778120934
0.36040414055987924 0.08265259063952612 -0.03939147745288096
0.42119366026069827 0.21060130947515177 0.007348938273139538
0.41085643607731015 0.18934366813641645 -0.003934493861208921
0.5095627785229055 0.1143141263603269 -0.29683685749090216
0.5335109408676288 0.17648442631988814 -0.0665335885173306
0.4309922738178784 0.15491053733740046 -0.013345155647940032
0.42157712863267705 0.19984389059172258 -0.049041891807462434
0.5342340272248407 0.2307467910834191 -0.031127136627944196
0.5431543516870221 0.20744202357437302 -0.09412215449398786
0.42696105837960374 0.15468440410541007 -0.050887142729209245
0.495183084034835 0.193755666258852 -0.07045127075286928
0.42595605200735065 0.22060314999727382 0.03654641319903362
0.45177038895836574 0.17994909387446967 -0.08816001853517719
0.4853418024124494 0.251975877952745 -0.007706837156987945
0.4017161524655535 0.20252420211249955 0.006310838713346811
0.42088359148361576 0.1748535301509122 0.04936318502208792
0.38510891013035575 0.1553616808658944 0.013666009669947243
0.36386655951726254 0.21478491678534795 -0.02369818233145793
0.4399291166405135 0.20145172573998593 0.004690046992138264
0.3776430387515717 0.2501573232760137 0.09993070661496972
0.47622923192540156 0.19420088144346437 -0.07883197212316873
0.5304187805933509 0.20444947370856426 -0.1015605586544126
0.3499240346008037 0.16269010742213652 -0.04189126504272167
0.5218543670504943 0.22874268883521154 -0.0427724012787678
0.4422580949437531 0.2045855440930353 -0.049387975425275954
0.4811989181831251 0.23453518846470445 -0.02840787924350252
0.5463667434014781 0.2290357929326774 -0.04612127495892082
0.5007458647768175 0.19073944244924235 -0.058075773596698355
0.4331707165731018 0.16471748551387577 0.012883376153496329
0.5429871244460998 0.19572700720758007 0.02940785458878281
0.4186511177791914 0.15761980948727228 -0.032108076220595194
0.45047813816272253 0.1797313221165382 -0.013344872914530015
0.38777317638395914 0.18524344669353354 0.0421399044106181
0.45882146806219737 0.20500610519623308 0.002442201983654968
0.4696578280766204 0.21350069602621602 0.004914883550554805
0.5662756489484906 0.35646728216057966 -0.2004073204973622
0.33001059481689765 0.17175125638900113 -0.004772244610549592
0.5133576131826771 0.25406080626103744 0.021231830004978747
0.4614347397604348 0.20343406365738304 -0.005196370610335066
0.4854537115254658 0.21687146740566732 -0.13574382771136584
0.46378423932348767 0.18846055298418207 -0.04322769269813875
