# .PCD v0.7 - Point Cloud Data file format
VERSION .7
FIELDS x y z
SIZE 4 4 4 
TYPE F F F 
COUNT 1 1 1 
WIDTH 814
HEIGHT 1 
VIEWPOINT 0 0 0 1 0 0 0 
POINTS 814
DATA ascii 
0.15828029088159212 0.2716893279018535 0.303590724874482
0.17027897877900955 0.3081606750295123 0.27297333853502437
0.17292038715486058 0.2670190475266736 0.3465356460111195
0.21643448757008343 0.2685993256475001 0.3519921752814241
0.05177132301902532 0.28672290983755033 -0.1201948309889076
0.26225175893917196 0.30977997409387115 0.33936510856833024
0.4076308407020406 0.2563419657373345 0.12577479554325066
0.3530205451712618 0.23863130999851023 0.2067940808518216
0.18307399631312649 0.310203442321324 0.33616128296016257
0.21386447603532588 0.26570841817408564 0.317358502056976
0.3808276734188496 0.2461215101959766 0.17521388725288034
0.3114651569076159 0.2860940335164628 0.39268233435007005
0.30072174927553874 0.11110667571364274 0.2538695113603495
0.3680603778960858 0.23878782622733752 0.18326197428783075
0.08157254454347651 0.31064892476638306 0.26301204014166046
0.16310134388884023 0.3029045861778741 0.2667967077957343
0.24005224109305345 0.25482764776573674 0.3041431208620793
-0.07133930076497563 -0.10340766929414258 -0.07084877756379626
0.16683846081524223 0.2657948942020312 0.3170008685278276
0.5805288452151558 0.24874597372715357 0.09817435731787327
0.23270575795348236 0.3343825945368053 0.35451429039810023
0.17017312135038765 0.2673451389637904 0.28176369109657173
0.20070486946923438 0.31317253517480026 0.3146150517605122
0.21311270368751423 0.11022396840152737 0.2554774149516419
0.1976446770325424 0.2665844751229258 0.31924636507952187
0.20742867497460793 0.321674113475126 0.33007865751537224
0.12446615226394897 0.18381132332292793 0.20321910824239353
0.36446402279531753 0.2427089058519698 0.17261792404563892
0.08447699976451872 0.34298755984934814 0.3105790674725597
0.2166803827835082 0.27717520710311305 0.30370957084119254
0.26124568050332186 0.2601195276441075 0.3021641595997835
0.21051301157993407 0.3204165004533621 0.2912251391005043
0.3107942262129484 0.23653357544229436 0.13503500498097765
0.2694678036256448 0.3277420653565457 0.3430998692185767
0.4247825877329774 0.25766623689119683 0.3393203022086482
0.38914678492687926 0.40041897186966935 0.21172921545908707
0.17715235765399484 0.2533987555471384 0.26066780821884095
0.37129758992226414 0.23312897226851703 0.21085493153358925
0.28145922968879233 0.25862097958213326 0.315020416459447
0.14999203579654363 0.1268229658636244 0.18915989234065478
0.29807620541221524 0.17794222819296124 0.3032717604665436
0.3553119121204702 0.24081082164165935 0.32984149955510134
0.0170374158866764 0.3298251949360207 0.24306318288404327
0.25987899428469063 0.2097484464757997 0.30314124437458645
0.1542828189244574 0.3324234421538961 0.3235811914470048
0.42087488739750256 0.21928861680231648 0.15495098721208933
0.3730964306569433 0.22257474505939 0.18567454417427598
0.2056353096993746 0.2304291003435992 0.27720366225403836
0.2214809077464679 0.3531861370261993 0.3461921477003784
0.2803331986980311 0.2635383073024542 0.3051832361057052
0.20948294056995564 0.3514208501344456 0.33780028256924766
0.24057115501551607 0.2698632447738447 0.35590828986860856
0.2161278014754089 0.2721099641676119 0.2968100133233804
0.16721190764417315 0.3068600354252595 0.3257538810370022
0.20942477746612553 0.2548582121697507 0.29498580465346436
0.3671600388463503 0.2695973288033571 0.14528074168781302
0.21049882424838984 0.31356317614135776 0.3963901727615138
0.37780783402550355 0.29821525747374267 0.38224682439741287
0.3229448226470879 0.23022427916833976 0.3530980638973915
0.1796134544108412 0.23752895432002674 0.28301970867394743
0.3333475310923575 0.28012595219905734 0.15106398804610421
0.2609950285228706 0.2767378512700418 0.33397035240463424
0.3887205646083345 0.21070798228018361 0.21326702365499273
0.3467638382550149 0.36364827721607185 0.4242563478410375
0.25043755750486696 0.2420026063385876 0.3032401293734921
0.3911627051097355 0.1801544581088308 0.34483735649320124
0.1996655789468207 0.27621964161721735 0.28248241319218437
0.1949528307488464 0.23209946874376897 0.37676268927998535
0.03725017891451898 0.33186567323137695 0.27853122763724514
0.3520281974417969 0.18595880498605766 0.17758512552970274
0.3417715403560919 0.3645443149791845 0.17834278352978572
0.16132360252809974 0.2956625291444084 0.291216724535758
0.2708552551740837 0.3179517291932257 0.34503160182003967
0.15709611760608766 0.4000397322166407 0.35712079016172993
0.451245473527365 0.2200719835344387 0.1399642336600948
0.8986166804658637 0.863526293558138 0.48641627054558967
0.1751066612185923 0.2975912470168396 0.3112207217322407
0.08201490833604907 0.06943486372692576 0.30343187797828364
0.29126704037102513 0.22354841902603084 0.2965868844358681
0.2882293991049494 0.18110744889592922 0.25290361667921957
0.233860004228589 0.24754634464008518 0.3119978724337784
0.22369992668929228 0.358395812271624 0.284699485815878
0.36185675948516405 0.2449093748659834 0.1747493162343119
0.10860712159315256 0.2912581557144307 0.2703004988296698
-0.24960452509182574 0.4862904054752448 0.2851969888058079
0.21951246164843496 0.2853338098682343 0.30674413111896115
0.1749270597648831 0.25613035027566866 0.26400944103752977
0.20687523091933713 0.26752137721931035 0.27354925420073073
0.13888099517382102 0.3594838975716641 0.3730404558670699
0.2289132857332845 0.25181865664819725 0.3015991011880601
0.38966265174255454 0.20829791528973374 0.16943829633468965
0.25590493964784855 0.2821537556098548 0.23959199768492567
0.37025238072024536 0.31310477445040874 0.20372152066187255
0.37649392820452476 0.2798770049279682 0.3786527045130441
0.3243482013952814 0.3260530125980523 0.38807679501594805
0.13371668095122402 0.28079811817332256 0.32195444933410045
0.39491837717378075 0.23512409352326813 0.14444394523958692
0.27538106424580633 0.7070754104671835 0.5834260437912633
0.2176609677793806 0.31330424258430867 0.3235292392822373
0.2322609661681554 0.23566505268918547 0.3042148602546746
0.24887369453524855 0.26291734107826414 0.3101295184309265
0.21913146526607363 0.29670084410588515 0.3263937844641305
0.4501960412386552 0.2986066275151984 0.4123454867608132
0.21709673777752414 0.3016050074525083 0.3109078158537386
0.21767617466488787 0.2509833195443605 0.3111855455006918
0.2358750967301262 0.05824455324352584 0.16542914021317756
0.24409616195140416 0.27892276914019476 0.3239538244324365
0.09090924314057247 0.2736827458134883 0.26704334338320734
0.32207900895906505 0.22318315169216874 0.19927630044978173
0.16480793899239643 0.35458529779911885 0.3419701697348074
-0.06074188965186522 -0.13074881838969077 -0.12407192899787844
0.23921290186480348 0.3681287388913006 0.3032383904617859
-0.06440926633453614 0.31375292881875794 0.2509043468187855
0.21433423902661275 0.26904215704507806 0.3055823169008107
0.20454084912393 0.28151748421578304 0.3248983653979991
0.12598774244830224 0.27215578325652245 0.3325779800848636
0.16538274501800743 0.07274806404493006 0.1567554291249138
0.44229985071342526 0.20502847514120504 0.1626550675303804
0.18284661151220405 0.279240929007571 0.3302417182249826
0.25026565796503064 0.11603329764442094 0.19782429901806609
0.19155673949634888 0.3108740078642711 0.27437839021095556
0.3704443360505678 0.2392288677910983 0.18199663695260426
0.1833650892552896 0.26309648099280025 0.34887378565711913
-0.0003158727164702668 -0.19252266363119475 -0.0005987367719342274
0.33242991951725287 0.14147355429014397 0.3339558949661807
0.20326734569533755 0.25693761698279616 0.30691158005278396
0.15845960474979393 0.3095305467955427 0.28415290733116194
0.19540065763862913 0.5037872193377098 0.44270497507804407
0.19608046844459182 0.29363293876778584 0.3024965849174919
0.2193102116659702 0.26508302791080496 0.3001505823945365
0.19839056634771168 0.2884234509863006 0.3008787355423408
0.35897306546746677 0.2503870369287142 0.17841930907702874
0.35216843250654506 0.21858491578483097 0.19652617513588666
0.27379544064133654 0.19855325596886075 0.29616001168909634
0.1820816551833957 0.26376788419500485 0.2831591661941957
0.29282710719134286 0.18615041948930866 0.27294085366176546
0.18757115362757304 0.2821219380635682 0.3063482664916961
0.3476684830359318 0.03496849850918693 0.33156886282606024
0.39090962798024975 0.254128623944581 0.12836691672313805
0.21650670913351178 0.29081722087829576 0.31042073568187334
0.2369560723421813 0.24070000102582867 0.2854860207956449
0.2643264887213661 0.2776090284983468 0.3203147735422931
0.1840794583109755 0.3734278290112343 0.3373837269893727
0.3631648089511401 0.24177991346354588 0.15799818316992287
0.14549502283969673 0.5513317223663421 0.4421854057601138
-0.09255390802269403 -0.14287598841829663 -0.02965835226480351
0.2181420307403812 0.2633348745690398 0.2981606952766356
0.35466843291914074 0.24054198117565306 0.18346961300618148
0.17050629005012752 0.3062750806230383 0.302157474438971
0.30576291594786653 0.2569391760406745 0.16975433382148708
0.2322448931862766 0.29650329412314136 0.3031526415345098
0.20767445252620576 0.24805190761284734 0.3002613778492105
0.22258573091724543 0.13071463847069253 0.22313528322939646
0.3326871235636588 0.3246674328442225 0.3575694080230676
0.27645360234926386 0.29512394308447654 0.18061238373957167
0.6534774444277218 0.17640423058358579 0.4191327622327776
0.17099198402087268 0.2941692862948315 0.24313625112196746
0.18978171778076103 0.3183717223024587 0.31111244720092657
0.11210961043369139 0.3543515511187678 0.3618424662608959
0.21515451673815278 0.27098705144089763 0.32168893330245396
-0.04810708037737754 -0.14733650766220308 -0.1165676672797531
0.17208736132438673 0.258629459413541 0.26337344580554145
0.26758921373618705 0.3379743176274559 0.3756899312287203
0.16372485023697436 0.3040551164151424 0.2787685838469258
0.21614363196768238 0.3229949353402901 0.5876192615877613
0.27459226981073925 0.2676039465290927 0.3229469837625629
0.18675109454866856 0.2434298299737918 0.20543483141118202
0.4211902910739411 0.2234677847019384 0.1442953186239322
0.12226722100828624 0.1655473481387446 0.3796274943089202
0.34340540460063096 0.21883676906452365 0.23621247243526966
0.06888747620348568 0.3776313426831166 0.36033222827158795
-0.058924366297617325 -0.1382134550442231 -0.12718496523453382
0.3214368026466161 0.21693787948663612 0.15459673331912427
0.32308806879942154 0.20701415152613833 0.1975874582433903
0.18936179720151358 0.2198224962658628 0.2638818400164382
0.20616223517885146 0.26686041232558466 0.28959389094393373
-0.24807424480334817 0.22523183045802853 0.8617085520193086
-0.08501090393730237 0.24165996279874946 -0.021623533928391225
0.2789938064962598 0.21673499759063475 0.3005491218158056
0.17337135825624728 0.2703791553256565 0.3311386707795094
0.29268654825742146 0.1857075380045643 0.2985377267484495
0.1765792024483943 0.2617998177353513 0.27757024141537556
0.3397139617318601 0.21304852781977957 0.16499295768124966
0.17250206101658705 0.33610851963379673 0.34600723633496955
0.10539461933018401 0.5555198230039196 0.45277402398500044
0.1672144287204702 0.2066051118225971 0.2538639205113782
0.17717647334580988 0.28298344344818815 0.2790356307207986
0.010701922574497758 0.644726348593764 0.2080581955987526
0.32272319536156147 0.45514229384693294 0.48127273506452184
0.1409344689480463 0.13741267375080213 0.2547766332629635
0.09902170861303716 0.2307281651604569 0.16412530535734504
0.13898795314415224 0.22651339929736025 0.22746375558938325
0.26321182105905905 0.23709319543556262 0.25222076114110337
0.1954400705112107 0.23553175183117503 0.2720792965310892
0.16830243117752275 0.42878787423586573 0.3759249068670272
0.20391507352002236 0.26460953420321687 0.34593551018795665
0.22398478186904924 0.25533940427000346 0.3414788364400465
0.17101497361797158 0.3329511357168684 0.3572789423597271
0.054898647666846045 0.3991107144703676 0.34574755387214395
0.3425821638317075 0.22261190930157682 0.3080162785460345
0.15962757791554338 0.25832046745378534 0.28097384179852725
0.23552074957399327 0.34461114241483415 0.39724941367157385
0.24407436010761785 0.19873255781810428 0.2902586706371011
0.2553923430835141 0.22646732914878953 0.24306300106525214
0.11127388966951912 0.37427786027863874 0.28605382039867777
0.21527891669617816 0.3106472730455323 0.3453612926834069
0.4285043889782685 0.23182111929996552 0.14101608637909635
0.4630755209230415 0.1911775754899736 0.11472421239638209
0.1395389551598356 0.24708377520099134 0.3036200475020223
0.18635232928745893 0.29214142287571576 0.2854982496159266
0.22441603177186664 0.2359765289746889 0.30380471913949236
0.42036636358695034 0.1706690105249038 0.1705337893668144
0.17595624605338855 0.25207805815698237 0.24058646754718893
0.18497987747826983 0.3216360155504958 0.3914540404870479
0.03610829302060381 0.1536588795812861 0.15925639735542063
0.1879359231065223 0.31262269486390437 0.26604315754380536
0.2360773869011723 0.26611205914691993 0.32790093045116464
0.21193092143219872 0.2861768105267686 0.29670780526905105
0.1867713967340876 0.36225542957342327 0.3571588852015708
0.11514191448765132 0.2938668261135149 0.30354372990953493
0.3628584600014051 0.27741944401307705 0.3946478956972612
0.39022942505606295 0.22998333119662107 0.19134622560304138
0.3723311640251552 0.23428503406069012 0.17068932188568908
0.2654301211132264 0.31072258911234485 0.2630894556199621
0.36874410301254557 0.23565567427075962 0.17218522169756056
0.1454942917429065 0.18653847303006899 0.22078628495867747
0.33386294088579405 0.21055732939151994 0.1955327403703393
0.37497835184123574 0.28478250480031875 0.18388501856392736
0.3588957371973436 0.2310376389852422 0.17587931915960553
0.24199425719990586 0.23246350558260076 0.3122053778359657
0.3002806535051832 0.29384108964877953 0.3219905662590321
0.18195115984286758 0.6964361005418027 0.527164560890327
0.2291242773247859 0.2913047963639741 0.3314206046251371
0.3867856190653498 0.2140821580505161 0.22192094538327467
0.24042573754260843 0.25225399516975244 0.31673853781003913
0.2038504806142214 0.3043074360598865 0.2790201796508569
0.360157233393565 0.3388080798418116 0.3203042272559742
-0.24331666869767332 0.4599542066998481 0.1737656837528334
-0.08432958494540799 -0.10604721226678748 -0.023981449118139153
0.09653621777214028 0.39390591777917905 0.3663693423393255
0.215443085743118 0.5139526704624018 0.45805737677889624
0.23553175272590465 0.27766684939302877 0.4829970617960271
0.22807287138870436 0.40317200147518406 0.22805789933373433
0.3431452674066122 -0.027756835756150622 0.13162046159656882
0.19491175768169455 0.2842148126227073 0.26038560551563705
-0.001695064355956788 0.3242119574518654 0.2788311744363341
0.22222825266806012 0.21925972029538343 0.22284462627764867
0.21608116734333294 0.2726268812092911 0.30630276945967694
0.2033994817566338 0.2801770039777125 0.30333050976400955
0.2240356786570885 0.2787984846193581 0.31962005823510253
0.20396313657107612 0.310342706543409 0.33575379612837253
0.1333399277171452 0.2462473044910496 0.23973949146571272
0.15675608983733014 0.3187591747688856 0.3305775358170706
0.18426897208718174 0.29398558152823284 0.2978052374627964
0.22782407589014042 0.2544364545264557 0.2818969119265091
0.3510321908273113 0.2791220607951317 0.2405048847094804
0.22927906682895127 0.3044565952050391 0.28868617493664317
0.30068460411541764 0.07440382967303094 0.18278850993924323
0.4025690735487899 0.20926050255636142 0.16391567825422726
0.18354603949262582 0.2341386120475022 0.21428569255063223
0.4815437459906349 0.2501667215727821 0.14996559622343852
0.21594258827417434 0.24636463516493734 0.25463801406070274
0.3232815914547018 0.22084696197588016 0.21020379698975944
0.1006788582612188 0.320525767417962 0.3135088684141607
0.1754420770106151 0.27646059434022163 0.288391671355015
0.36898765508033193 -0.041800579708962005 0.1959137103120554
0.17797396686523825 0.283721169137948 0.30401653407021456
0.1522143889825287 0.3014031359230387 0.3181815802855965
0.07632885081213203 0.36873022707486314 0.2703292484961821
0.8368145288154096 -0.028179671735500733 0.07300865421011338
0.17283528369928547 0.26784596342858435 0.26788520763768986
0.37294120861575664 0.2654454997859119 0.14598017649809947
0.17230653423266062 0.33031966819575587 0.3278710789420529
0.20614409731211936 0.27599655515052746 0.31158675690240045
0.34805984598310147 0.22029841308125242 0.23433363283284336
0.22834564765874177 0.22587847546591888 0.2503995643517669
0.21498678821311046 0.2203223863620849 0.28828053486299154
0.11041298966073043 0.27418993261363767 0.3889550692072419
0.1783392441703313 0.16607486559212248 0.29014824591314436
0.24701406184451002 0.32055058793692126 0.30858559871353464
0.18708507275768227 0.3587524010647911 0.2978956893096836
0.45403168312870434 0.05142866348273856 0.22441686800021898
0.41127144384012126 0.23167827885920644 0.13727420625048126
0.33496462084718814 0.17090245788719471 0.20099026556749777
0.19292951376800715 0.3082842855186243 0.32082642100638736
0.21107209595589893 0.23862488958721428 0.2865261568524886
0.3877484989388904 0.1700015547628908 0.1816575893817003
0.29602546872665414 0.4361453423521482 0.4409304326192398
0.21151066403335506 0.26848500730767455 0.30147558959126286
0.2318439730517241 0.33036759653668923 0.2896093930826851
0.1339069603729115 0.2554388699211927 0.2607321863016807
0.05677143882226687 0.2779390305090601 0.21385383837748861
0.19230975671277406 0.2965578105221027 0.2909864664985662
0.19451251884635212 0.23926307347059605 0.2926369201778982
0.18978697694723223 0.28688745841941454 0.28711816887087593
0.22651054373281454 0.276598249569048 0.31908147492652006
0.36103303937932196 0.2391832742475799 0.19063073465675018
0.26841335796257226 0.15852892726491064 0.2459412865990771
0.3790134059999417 0.27058807830556475 0.1283178429316365
0.21119332731402096 0.28642456054001286 0.2906553476428684
0.09371899651273452 0.36488040973399904 0.3333330368870975
0.22890204902407163 0.2932387769532454 0.28802153926238816
0.20471036521698238 0.24803866270053732 0.2742389544309134
0.1944490788001758 0.30718627673053334 0.29556079115431544
0.1893912954216148 0.2692482534201872 0.2907248011464958
0.17851204324833247 0.31789789443678274 0.34472822769015465
0.04685580212606055 0.2396096498551401 0.21723840565678643
0.37724399563984434 0.2217206874476716 0.12037638936952533
0.20897698835081258 0.25954397208201385 0.30881177454348574
0.26757768282195116 0.3169979311533382 0.3533958547556466
0.23490808788065465 0.2875117802518048 0.36299733346942276
0.16844807628470448 0.291211022749593 0.32388336192170186
0.13074291687570394 0.26696356214942796 0.31196247376612973
0.19371690483617954 0.29857859353931815 0.2529306110154721
0.17339620750914264 0.3431714385216509 0.36486111817497147
0.26149163198678593 0.2023843880208176 0.278961796553304
0.35660593675912367 0.34044791906327987 0.3909838012702096
0.4941855062577645 0.13824809474955657 0.2687372058416031
0.34666753620140867 0.22434287892704674 0.16627640210774075
0.3066109321891588 0.29555355332664135 0.3335915621063492
0.40504973795316346 0.18944013560117412 0.15308932635454653
0.16348499706630548 0.29488226425900166 0.29876884258001724
0.22409268094926915 0.3571419825307913 0.3687480778311567
0.19208733309829995 0.4592025445375896 0.3335012222756859
0.12843963200174358 0.29010108820193636 0.2965512659478122
0.1725805246207699 0.24508941775265214 0.25569412761161914
0.1702682816270169 0.28554980727795964 0.30523327939906153
0.28380761208732963 0.30492041275635984 0.3433076019848329
0.1999940026394711 0.2857514146632525 0.2964816068678289
0.20161453906617055 0.31106587343079184 0.27928485885024656
0.20958078262496826 0.3829064697634976 0.3196457147726619
0.2041231858564032 0.27417000628452115 0.28409472576822736
0.23823056792349462 0.27709502675897113 0.2936526392006442
-0.027260573900335316 0.5201655504364879 0.39982034755605866
0.23905978356491175 0.29604407694523616 0.3326447798154675
0.3497088957677761 0.2734961741073505 0.17755821479414635
0.4268071158933111 0.617900333876122 0.5608052699411701
0.17993557096239954 0.30552998063701864 0.29264919877059015
0.18575149040117367 0.36314494957167653 0.3200410966697973
0.1895652317597296 0.2913296945153263 0.3036550418655395
0.33024511008558477 0.2505937889736174 0.14535358540635457
0.25480696910366873 0.28242573026773243 0.30952463730670843
0.22817487624820387 0.3681570032724295 0.36239617114196676
0.20571554503830214 0.2739890724465681 0.2950021290283473
0.15816263501942274 0.2710520924487696 0.2851333971127019
0.23559016731228155 0.2571334625139059 0.31311012447903863
0.21637790681245406 0.2810914808334246 0.29507944510083917
0.25474502411412914 0.28134218423323887 0.36876086815399844
0.03200292583893827 0.18419477081147306 0.20250278587380421
0.22187606083895162 0.4287637332054999 0.3962940908343455
0.11576383925401501 0.39603749694363444 0.352884614134922
0.29211410469056887 0.28202497964220186 0.2987845613930489
0.3050402413366555 0.27102344122840805 0.30935388637436745
0.16925369894612174 0.29444299845062005 0.3300367195686107
0.2030960440420131 0.2731817278395283 0.3085814269548308
0.2122325456879821 0.30770812708276196 0.2997965002261509
0.4070350442233348 0.2760555080061806 0.15955273326380848
0.27936925059296414 0.3008948029356304 0.3366098231224868
0.21175514448503918 0.27589072455134556 0.3181362580784821
0.1818967663883484 0.26577165119795154 0.28360125750434406
0.21391740478838983 0.2510087147296076 0.2837606398755952
0.28253569061273254 0.2923517882290838 0.39743352866037185
0.20987100704820705 0.19912737812836667 0.2552378029685656
0.1851825926267736 0.27610802115800936 0.31032246918488227
0.13150535671050534 0.2841884046706582 0.30059953030837505
0.18503778725921904 0.36100442624376683 0.2994429443074864
0.29092418284841415 0.2136312046767017 0.1514090828814858
0.14787718335820443 0.2893191282212939 0.3361764103970728
0.21676572114205328 0.3250163918905571 0.2865732103299763
0.3432742102708346 0.30193924746080825 0.32380391258308805
0.16775402467317235 0.21654750502747788 0.27153716894986246
0.15512420310706432 0.38885021314277424 0.3467046248168373
-0.03698441845202183 -0.10301650394833928 -0.09601910368670019
0.12291781966825965 0.30472862302585213 0.2792890303965123
0.24100243347001538 0.2612672272275063 0.3411951111423974
0.26311131989527325 0.22274092033862303 0.3012979101210078
0.18510054956962563 0.38168664024244947 0.347751280582969
0.23393981000462816 0.2956157459686324 0.30213730587048815
0.20474981064540998 0.2765021840720294 0.2995777118327112
0.15988840658842207 0.36290300227493333 0.3553045238032837
0.21913780455014376 0.2779033940811928 0.2827707478611359
0.24283628259601642 0.22661184950487723 0.32096515893530864
0.23002048217355764 0.2522951811586154 0.2976446927273173
0.19253171728205132 0.3155858675826977 0.3124343239781666
0.26889832195358565 0.3704472209953735 0.3450262495499885
0.3956514771079469 0.21704734518554858 0.22290575590957928
0.2623740397887673 0.31587128879063187 0.3392352223106059
0.17880272956222143 0.2521664358983742 0.284447632241978
0.3775734731683542 0.25122927858915034 0.13921622534996914
0.3690024742072495 0.25326649271210044 0.1347803259897944
0.19595541169061903 0.3097936935554486 0.29209768712647133
0.34603744540558523 0.4578599046046463 0.4673281906450626
0.20088525576900906 0.24440835303795438 0.2808285320591608
0.3446853264133267 0.17075365024209077 0.29521010594642405
0.13770955019623443 0.3111986944153955 0.2908070092203161
0.1673287653631803 0.12940664287739878 0.19022527130189815
0.31610384824520565 0.22635967757636877 0.1634313177012814
0.3399701625622811 0.23233175532249106 0.19384630258571178
0.007626289330318059 0.09139139431225374 0.3466654219294014
0.19066014877691373 0.2382491902705226 0.2660075684022303
0.4848030857677941 0.14768984741795066 0.32502675026604777
0.18512528220001911 0.22907431494053299 0.3147101625442872
0.26515178774977244 0.20683847790149912 0.2832426111885127
0.20927943704955965 0.26192123051052363 0.28874071603186735
0.040189023758017584 0.3399334584650404 0.27431960303916014
0.18594049613727748 0.23717767341514673 0.2812230015115915
0.19312516383632783 0.28310510651598975 0.30601673768583737
0.23873531654419367 0.22728710635999505 0.2572150724582798
0.3631235412365754 0.2489724168931673 0.14039011645036226
0.19839522720755554 0.3229299317248149 0.3036855926208233
0.20893907808198264 0.3025727520579551 0.2680886761254726
0.39007479884260476 0.2304600571840325 0.22817006472735102
0.1715690407161503 0.3059261679838414 0.2432140928137585
0.22046771427545764 0.35050105539050946 0.34282712150444183
0.21502720260241404 0.3449582254045822 0.2631656561895994
0.25164651462441157 0.2166605618749884 0.2584092552635582
0.15512013979412131 0.24580290583557485 0.24846164378158164
0.17744434257987507 0.26356613479870816 0.30113796975615514
0.2236958197234742 0.2373794298744656 0.2642223111703004
0.00775815013290071 0.525683768839798 0.48122276518523677
0.238027325087927 0.2814972063072645 0.31171566195052947
0.3306588060209492 0.43211602970632157 0.44166855035288677
0.13285570186567952 0.7483610287540898 0.5452819511212965
0.3844194311110698 0.11130301062362946 0.19748947061772526
0.22816550795495516 0.25580597177415143 0.32998984551002764
0.12085687745320683 0.31533761933238225 0.2569145695116788
0.35554482586397285 0.2009801118686454 0.19214137566888212
0.3565882591402385 0.21948776530787484 0.23512583886127914
0.24432835763312255 0.2549740075396727 0.26584363798795607
0.5254954453322682 0.4318435826295115 0.26622487998540123
0.2250921408843709 0.24294642669045174 0.2669599960831732
0.24444010796923976 0.2616040925655341 0.29396886835547775
0.1898766260426612 0.27814700351896704 0.2974087442019311
0.12325805567095927 0.3308435525049447 0.34934951197490705
0.18545648089721567 0.22153167917326755 0.32074997968373964
0.39522688008867135 0.14771248752256838 0.3528458466596618
0.2211841685183913 0.39242725142639756 0.338624484054165
0.32954324249001843 0.21466061842124873 0.18402089140595024
0.39377848729500897 0.16298004295012447 0.29476546220094235
0.38983865887490765 0.2901664628456899 0.6451111199320536
0.2604174419983991 0.2548771518713693 0.1230871601479464
0.30377907759718425 0.18472558972626985 0.2994576208308075
0.31706278252856634 0.1565641583070203 0.21921580603394375
0.1650867253069066 0.2697306943739193 0.297250749110745
0.21615482688275733 0.2900571941373755 0.2947548965496196
0.4192769329082324 0.23873949010257434 0.1581322796975968
0.3937631739940173 0.24230916988585705 0.15180973704831047
0.2128946535242875 0.23780657156505924 0.29366753671638435
0.29914167968181005 0.2637366163977788 0.23926705235626855
0.1949738064309372 0.26842573571582307 0.29806627245814354
0.36032101513572456 0.2339120089857829 0.17787883227607892
0.18258034328582085 0.27907977809175577 0.28429937095538094
0.23147414871047545 0.25604987126124 0.3005559022758888
0.22037479852241404 0.3197669311109905 0.29906086172124446
0.39353877937440984 0.0323907738070659 0.1517235215467565
0.2562607676437665 0.28610143198136484 0.30495926890048963
0.3027507652541601 0.33512029032604573 0.2763530016090954
0.2708447143114654 0.3059610949390503 0.331362031570535
0.3767844774310447 0.20645128848150307 0.24823835667852734
-0.4869747087701626 0.4188016065799758 0.16183108995259943
0.195179390648633 0.2854752048261986 0.29471805332451595
0.33858922947190706 0.19454355013375846 0.13531293089462793
0.24751406280329036 0.22197103607282997 0.2838059797101664
0.16242542490600442 0.3292210934231008 0.32624886159067046
0.004477554127646499 0.3345061815220447 0.22699509903634407
0.33366777794205404 0.21500500132349032 0.32487458175543793
0.1440639798026382 0.23804093257061254 0.22773922947231995
0.3593771695336301 0.24750954572228068 0.16705034493912763
0.24332044180982848 0.29012256076876497 0.25238459039731254
0.35917725970405456 0.26064651946870754 0.19453819148989737
0.20774446928749057 0.24632924584288673 0.28603640552705656
0.1196272067389259 0.27418933026754644 0.26678557250083657
0.1936010267817494 0.35096929846218927 0.3607982741863651
0.22596149945511002 0.28852170433125934 0.3182032653532474
0.1612090944075817 0.35694901762735753 0.22982240886989302
0.3009329835080621 0.12120834011173542 0.2069685207092533
0.29096371456773795 0.22506382956790105 0.28912838697125665
0.16429863136610834 0.31726846536683695 0.2915619823584734
0.07612413482388547 0.2905931181360728 0.36971031514845265
0.28808717949749507 0.15766119027307468 0.27450274544008835
0.18004248677533496 0.2571249641502078 0.2962434022408047
0.23266861657387494 0.3383684654502872 0.32011011487725227
0.3405894608850417 0.3233729535417922 0.3836284232114906
0.2882018753289799 0.4092975394325151 0.4045649232363502
0.3414355563646154 0.20422934706851947 0.24968096485314106
0.32315373278620996 0.07289104076983222 0.19928696227410114
0.1786694285907231 0.4462335795902277 0.37470163338349494
0.27249874998696555 0.24898298355863346 0.2922950294473736
0.16818395937170294 0.2609025713681774 0.2699131431640325
0.304474125402038 0.2386068569270634 0.3319341880652473
0.20587962185413744 0.28244155148313155 0.28490292085692204
0.26139107617765944 0.19398274893785583 0.31107669061371723
0.33843938880349356 0.3289943355552509 0.9897038813965935
0.19709963970487365 0.3068521967347948 0.2905849905001787
0.20074618814712153 0.2572268957398762 0.27798441855422595
0.09485096638485402 0.29891952119493226 0.4079436417089255
0.31981810361483554 0.2432715889739967 0.1662733002365826
0.1737726536381956 0.29884381176896113 0.30677748642182223
0.19017172185775166 0.2523698331250728 0.2771855993659358
0.3152784823388117 0.08896023324732028 0.19535868587712457
0.3232458870175776 0.27642070006994857 0.13515339807469218
0.38682132368749933 0.24393976121751848 0.15552556496666625
0.4059383441528155 0.10553877436439052 0.2723292907118946
0.2696399835752601 0.2411489965114697 0.3818099023400805
0.2177726493874701 0.27173052239534456 0.2837587318044257
0.26609173386503926 0.22729685010065737 0.2983594981617159
0.8969418164164011 0.4228489742565955 0.01643025568637313
0.22929903363927906 0.2775757192793691 0.3676169020883435
0.3750136373728026 0.2571572534710924 0.1848398652626173
0.20016552488425532 0.33178879963742247 0.3152749631379663
-0.030516619740396322 0.5130764633092326 0.3927355463231663
0.40994266965078907 0.2581977876336339 0.28164204131438453
0.14058409265867056 0.2373598936556789 0.2159735885175138
0.23916724398009137 0.33788707006205243 0.32833954459957226
0.21021864343941843 0.24122303433082948 0.25002370019518594
0.19660337494225644 0.29101183054307 0.3373187307102796
0.4123683571417871 0.25344322583345047 0.12049728102996937
0.3420546018234063 0.24222901405715902 0.16644819410630873
0.18246138865939088 0.3025780200744066 -0.08928462167880014
0.21084236684886548 0.2965525703678935 0.316608744674852
0.17463482312847134 0.29021734605663596 0.3441705467076588
0.1231044110507753 0.29770889378207244 0.3002916014743562
-0.04593559613654463 -0.13513088193022327 -0.12156964572264428
0.1939059422334708 0.275221872084785 0.30487376337364935
0.14069161689421605 0.32941961264032216 0.3090458391844493
0.19893031160404462 0.266702152175327 0.2902992938611817
0.16728373230857585 0.2810030413089635 0.28943680980083286
0.19593999235958393 0.28463089428410626 0.31504466363671213
0.411148746139844 0.22463315360661795 0.12466153890333942
0.1809665422288731 0.08637477269755323 0.16523960558646422
0.3546162376331665 0.34661487924302037 0.1626070705040945
0.33191742358876297 0.2820473118356688 0.16366829162143404
0.18995708183553006 0.3601333827866995 0.3035327117626423
0.053785990186327126 0.3126483089975949 0.30317889554029875
0.2139562754891955 0.277466809961723 0.29558680672747073
0.21875067748355548 0.3245163958647481 0.33272583814175505
0.2183347276381653 0.28270933226013994 0.28839709705476935
0.08132979430035903 0.2540408291482379 0.24147853917727957
0.17507159192510358 0.26299218720049566 0.31223825045614717
0.2242302075637781 0.35961330192489527 0.3422838000696373
0.4092062184687677 0.25779058599074745 0.09552380422115903
0.16683501003660695 0.29449814763677296 0.3167185540085029
0.19597820456903037 0.20305425870770932 0.3119931790913313
0.23594641183089493 0.3146290550652395 0.3447335177875175
0.21576456966266733 0.25512646275301165 0.29161068661656486
0.44167002131453614 0.2754072644903829 0.3724688406290966
0.24020194110407544 0.24358002625666586 0.2812562321337566
0.25865709197509545 0.24949412435930185 0.2865787889299156
0.36299374568157816 0.18468261279795684 0.1973958023382636
0.27619214064570485 0.13745190226146065 0.2183220982419698
0.40189389559574806 0.22631548751851938 0.1824626500402502
0.2392724191210931 0.6412389316928824 0.6508246810232521
0.17014391257535522 0.33167567927836217 0.34493125707032846
0.22699362395775324 0.17996073116617595 0.21847178276253487
0.2216664552665435 0.4411179602140862 0.386478331385149
0.21704386173450985 0.2580673349884819 0.30089914427374254
0.17882341460871487 0.3522788787040554 0.3592183721385993
0.19926847719150942 0.33518818808531137 0.3569117420764769
0.24498135417290712 0.19245377134723185 0.26555791059172407
0.31952847784012306 0.2612224782811694 0.198839669035479
0.2104939465181701 0.2635242634649728 0.31310439798731693
0.22583746189792464 0.2628711671587922 0.25840685628983806
0.11368753286961919 0.07842281608179746 0.07497291783465698
0.3461105811411187 0.22059143144630866 0.23170629226561346
0.46237163416273575 0.3079776775030183 0.05944807155736953
0.23048287748324015 0.254814808265138 0.3068637543246666
0.2479337912932067 0.23783770805147242 0.3126540273646299
0.14056987494811324 0.19452322651369514 0.2473064539952219
0.2080325222816839 0.29894714320644766 0.3109828227988771
0.23859572838881604 0.22535271596589723 0.3044308427410414
0.2045397658513366 0.27788746576413814 0.3048775034303901
0.3770882226678225 0.23132913568304048 0.19520424255422597
0.14593768875963065 0.2386289579363563 0.34635118675385
0.22348963906098618 0.20148043413618666 0.3230780825194586
0.04933639326499417 0.451788172515478 0.2504050054426443
0.18848484239981644 0.28073525418656686 0.31059164993918387
-0.04456752352737681 -0.1309326563668094 -0.11294503823872049
0.23936992232196985 0.2736194653859343 0.3365636657875797
0.41050294398333165 0.1945948618109412 0.2155708198600621
0.34913802423258744 0.20991130246096645 0.2144610347168907
0.26482898980194136 0.2740842465401272 0.30919764361485136
0.09540924034203613 0.36524126717023364 0.3059928852743923
-0.0751861537530516 -0.14965374378326146 -0.08031091145485902
0.1976834458435519 0.23761175769932663 0.3005992940025237
0.21770990027610537 0.3244528275995435 0.34833580467112313
0.21575710798333603 0.27824373881441034 0.3107800428646499
0.09132382637450576 0.313317118143118 0.27385522963216147
0.1839206158204405 0.26553644472910776 0.3065330374633817
0.37908310008995727 0.23751368743531032 0.15927931089299818
0.18103972238422728 0.22982092891244577 0.2964362656014856
0.4021644157685955 0.19221353600580926 0.23841578788622542
0.28956976644121823 0.21028702851376124 0.23919125442182576
0.26947125536173644 0.27213468965176446 0.2692685465400757
0.16132731948891887 0.2542399055936926 0.2501668848508132
0.4061409203180233 0.2705077782826777 0.3797640757011038
0.287208796033795 0.24370128441209715 0.2915949246878
0.41145762999389035 0.25607249729708315 0.1064621638289509
0.3621631961745493 0.27603893986156436 0.12269171630845221
0.32247349924023183 0.19565474014103756 0.2695221554739362
0.2351137592253565 0.2418500367908507 0.3013883259087322
0.17736868401082972 0.21208576938028045 0.2634441425992833
0.12849728919147196 0.21559447803662124 0.31415032008374055
0.27387137711886567 0.3223494138066485 0.3888716491176467
0.4235774716367473 0.25666655544696937 0.11960091821089236
0.2531898647370099 0.23588311711107224 0.28797346207635144
0.22079268639032534 0.28466215247981097 0.2992827107007372
0.3787323178799511 0.22458126402409562 0.21870056845989438
0.2515994742634007 0.28666565913829345 0.32371462558185726
0.38502526023160044 0.2271837309978082 0.20929013663278795
0.21343334295357863 0.3491181123102223 0.3378445627864153
0.22449310169514547 0.3038946510685747 0.3318896142352372
0.06195322656994051 0.33516147274576724 0.290976756552908
-0.09622371420564946 0.20329830247871428 0.37701595901364726
0.3803794570199557 0.2809814813506648 0.10755502764413905
0.2058307575337608 0.3039572552392542 0.3251644512177734
-0.3645318226800498 0.6713451169311213 0.029874921918548125
0.18133631271430772 0.27281331865754055 0.2830054314607935
0.19059523539505108 0.27124014369397287 0.34215032154321534
0.10195159521919095 0.29552782675344247 0.3297219691560258
0.19006925175904144 0.2099741675570499 0.25631163376422705
0.23656854939258665 0.24447744534487015 0.2791185431255201
0.2936661735826078 0.5145920620496156 -0.3170992845339242
0.07847949329278947 0.04243476288334591 0.4459095875819514
0.13828715517794876 0.279432850717626 0.29210457463923944
0.3357022549374591 0.2994426606470313 0.15098129778940006
0.31504969699800256 0.22607808403245144 0.3436218358391727
0.46769736681922325 0.2665106023816435 0.11895217160393656
0.3172210857166533 0.2540600003089537 0.20165967914411453
0.2029438976827862 0.2749819417255708 0.2926846251970687
0.11663741875563005 0.27546645544097714 0.26998817370096617
0.23481990221497995 0.26756565872548776 0.290546760132699
0.4276134278671577 0.2302004963980835 0.15080021997437143
0.1806136745882867 0.2393289415903581 0.2741664134833286
0.28301395747320157 0.21833905656335162 0.2516355441390772
0.24027305917604735 0.3034069430375439 0.3410879118896162
0.012760015872785857 0.134150349741887 0.17548416973735925
0.18221617856129058 0.29620594729053096 0.3146393674020942
0.2524127813103121 0.2758014417067045 0.28459786246186525
0.5929141669300293 0.08319638991252987 0.2491330228764781
0.1395215326476631 0.33465982481600065 0.34766190799118135
0.2358522508396277 0.25827349218347706 0.2981318427146675
0.16191828586870827 0.3053272281482151 0.2833073096587668
0.29926280838103025 0.2249108841498071 0.2243554091380986
0.2471032729994107 0.32551466208605007 0.35537270210437555
0.2249633226844594 0.25724568307833806 0.304010458597773
0.2056702769343417 0.31693750959450995 0.3486526621625501
0.13699419967798576 0.3667990960145744 0.3247136314886916
0.16866649002525946 0.29246776564913546 0.27970806764277256
0.46614557202261153 0.2555114744993716 0.0634473182322921
0.19736176584007126 0.22015362454962428 0.3044831214960766
0.4010009626065454 0.054906089599313646 0.20486381682682975
-0.12694499520137015 0.7180237477157618 0.42624247647742664
0.1935620082394678 0.26866595168021945 0.3076891696067179
-0.36823164469059577 0.044494160143173644 0.030451872778243683
0.27994796241128483 0.0963195647981081 0.2137142012551294
0.28883355436911984 0.16684216910985583 0.26925950986833413
0.23797705702503436 0.29564252441144845 0.3285699735636882
0.33647784774876754 -0.159002910646862 0.12699816962192756
0.5414601383919404 0.3927544910210088 0.21104663928461775
0.23479235731602444 0.3452147594906023 0.36221904025758533
0.16746061282771052 0.31482194019577037 0.20351526176621348
0.19018055070065998 0.31116518818345185 0.35050654876869203
0.3313561766514965 0.21750532377291165 0.17326518786833844
0.21484883711865166 0.278168841287723 0.3170267540859868
0.20761707251169526 0.27083711003645305 0.30381198197302695
0.08685426375424754 0.3287399479175974 0.31891999520421166
0.20659776234276706 0.28967080522775746 0.3170779808873476
0.17635036004486437 0.30992567195141874 0.32387441724638677
0.4083715020470322 0.24997426044654958 0.2016988457201876
0.3510511774250915 0.24239114726711364 0.1782842374949638
0.216861852393464 0.32985504111573505 0.2586894160701405
0.18642323324426968 0.33501140741284985 0.24503176242183144
0.4040035323092326 0.20896624556301902 0.2760775025931821
0.399487207070905 0.24647483484406507 0.14329788336878835
0.3417339985902146 0.24573607965700717 0.2016203443605349
0.1925418059065862 0.271964809743622 0.2939854803818207
0.05706252468957018 0.3736986662322579 0.45032211930057997
0.19482071040947346 0.15005987176786562 0.20866863852555184
0.14017950947693691 0.30276166250507686 0.24098087491734077
0.06967009572497318 0.3404175687357025 0.29283911871570467
0.21764556532920665 0.35644878485175013 0.3542880448289054
0.04610338119556445 0.3582381043230072 0.29515265270973146
0.2104034449803578 0.2539843695820849 0.2890043734285399
0.21845418513788672 0.3083513749447633 0.3126699336583698
0.243751663543037 0.2649084288056258 0.31689320197216375
0.18625942855857147 0.235264499683268 0.25065911196327306
0.06622484911960669 0.3048211034573711 0.22341010752072066
0.23424616873840876 0.27533127978406924 0.28380588251849304
0.4208833021217231 0.23825593424709268 0.32708496107747465
0.18761651050238015 0.281202005548181 0.2973776201992564
0.2189898702477251 0.22844617768552666 0.3113185223085537
0.11302427655445513 0.18636681970069446 0.245664980331469
0.08956177320082759 0.36125956433896533 0.31782602673536076
0.12442519273767516 0.34450076801385876 0.2894033512988017
0.13928280205504961 0.2820704188145271 0.3254654165077966
0.395984404020993 0.23910052415408245 0.19541208040067204
0.2263511308310484 0.27521746053153606 0.32175579234341
0.4162610428259086 0.24716456170142465 0.11059334220101391
0.18346132180755603 0.2583684024469335 0.3439260597649394
0.4024491739368159 0.18682202109388868 0.14803071671660462
0.13832488734016124 0.18772774800366676 0.2604958315394015
0.2308820455660907 0.2201629361326667 0.31344600796950317
0.2224619943933135 0.25155312180888245 0.27118860652780086
0.26371659778897083 0.2597487002545904 0.2892554651932926
0.2028775470032258 0.27048997898415905 0.2929824180739331
0.18189628144767767 0.28736413362614144 0.2777549551675804
0.14051324640408325 0.3706012780605903 0.34739634845558953
0.3633139542896231 0.2753717469337005 0.12528937337187074
0.34598748108730604 0.3804684356704513 0.31982693826884656
0.3223868199769129 0.21439723342652428 0.2526930035616317
0.28406801818195504 0.17041124980947586 0.2670388828748571
0.25892550113000823 0.3050480459016711 0.16138105838857086
0.10098018580418966 0.2540989625090617 0.2507115486786802
0.30048353848144416 0.24653729846382078 0.33917361269263324
0.21960222053493794 0.22570445852551302 0.30052234454286975
0.37253877906479715 0.23273844653661513 0.14817609866349812
0.3864574818361177 0.23301798600581947 0.11449614561144017
0.2232642484053713 0.24528740046744701 0.34191715754626273
0.1770733148646002 0.27373363044780774 0.26675990669548355
0.25893803488710887 0.12351387860762486 0.2632135883810207
0.19289414298383178 0.2301106911943691 0.28727516310050305
0.21526291781404439 0.27644976417815315 0.3001754889746877
0.20897358379511388 0.2765533006195682 0.30968484845290334
0.188548201426471 0.276985931046994 0.2625007156470218
0.1933644672462549 0.2643321239289662 0.2886278975257568
0.1930475607211406 0.268325387035091 0.3010383364971858
-0.013756114275821574 -0.102088211064995 -0.15088168516709288
0.3683088841860922 0.21745124609660138 0.19413952337788487
0.3551765297351466 0.23019200061764877 0.19828657826822393
0.367499723615623 0.21504992025043634 0.23950478521261687
0.2310497056926124 0.3266345557475461 0.34759640645935974
0.43822511409815945 0.232611315959673 0.13400529448574616
0.1669075179347317 0.19692614619864912 0.23142350820796764
0.18127255113279261 0.37360825577289347 0.3455307897406783
0.22109887604742084 0.22449394147903945 0.3257873719003186
0.1842018961254155 0.21758394779413948 0.22330609930963874
0.09467682833296465 0.3520625721507997 0.3166323687932646
0.2460608508721407 0.2247203270344471 0.28632474432923516
0.19553966765852238 0.2878792442024434 0.31630739981393674
0.05627601036846386 0.26882356793728945 0.2589193914328689
0.32610825441227576 0.15050797279553763 0.2327210695072779
0.1697442041682109 0.2674001258898073 0.2919525036131603
0.22087269617207994 0.10447135754914427 0.16298413431273673
0.30910085035091583 0.17911409397673594 0.31506469857467323
0.1404231571004857 0.2766993295287534 0.2524557345373921
0.16777930393432428 0.4812603350491571 0.45759286126639154
0.23780597278812365 0.278590816590949 0.3341104121410581
0.3689523213371615 0.2682186123819861 0.12816367801350736
0.15003218114020456 0.4221547283899838 0.3658030965390253
0.1744982428703281 0.41538534063991506 0.16085724237024124
0.20562546180042318 0.2974533626263991 0.32813312606940315
0.09682542385586146 0.2981374627224227 0.2874045601764408
0.19407868931207872 0.25044085523872184 0.258593987728716
0.3448911460202737 0.2095319763874528 0.17995291315261852
0.23823119177546914 0.2601667660875364 0.3337543643571621
0.20085454846380912 0.2739537444889919 0.30037419680411404
0.23265502759696233 0.27803336466860173 0.2697671971598936
0.44535754267099037 0.2701947279552712 0.08462656033657368
0.21806653387045571 0.2748674648623961 0.31725259556188234
0.18693138611723725 0.2828662780524098 0.2814076751752168
0.2604425829939885 0.3366647516460546 0.28458862387350337
0.13530354966394498 0.37991225380937976 0.37585634925947886
0.32994277523158644 0.2752249303433416 0.3608953200456284
0.20333821901527926 0.22779604687124788 0.3031897133503634
0.25599629277604663 0.25300389200700124 0.44788823572282865
0.42025104884757525 0.23837453368264505 0.1332863922156946
0.17930518627778724 0.2581929632655715 0.28355390936567915
0.5663816369211503 0.35236057300767243 0.08600411061294722
0.20135880109933169 0.003914464007806373 0.3381323869266737
0.22080797754526316 0.2538942386169083 0.27930251610527534
0.1679528137924109 0.23985771375339482 0.3001402775313977
0.3963682210359707 0.21293126939580986 0.17420478532199013
0.20022308309359005 0.12671208415511614 0.34968187621316815
0.1711655938537433 0.3281336437674156 0.3005767163046471
0.18820225077115538 0.23279904216360592 0.25731391875868326
0.3751770671034933 0.23527274872915882 0.17053827035358893
0.3850581940130553 0.2935842085614837 0.19986164583914956
0.2833437445456184 0.169195511657648 0.3022502449919955
0.4181402341520055 0.21435689383415024 0.1597597259653014
0.19727698791048454 0.001366218283692433 0.38111414908726715
0.1156145215777542 0.2523398540704136 0.2520893495736516
0.22266781590964513 0.44213649539798894 0.4592216801354141
0.25896149327388684 0.3390147046218317 0.08897580028853724
0.49981505055095 0.22606011480584698 0.12245111106207673
0.21358763371242162 0.27115889944484195 0.298743616326135
0.22270954690975486 0.26902449898969394 0.33347548649422265
0.2472910789089724 0.23307825155970363 0.24430624537217227
0.22760678948134228 0.3262481675606068 0.3286151374315125
0.07417594907929015 0.47170188217201314 0.41327146363406086
0.3601139061622689 0.23426253278876175 0.2018244709189787
0.3080110744307092 0.30088500555484643 0.34739989319228926
0.19176332760459047 0.2379872187964338 0.2766012630967509
0.1387263316007079 0.31860159762723583 0.3097803212635597
0.34810911084596796 0.17847602924348394 0.23693524779022823
0.18597054247931055 0.42235701568623085 0.3647550369691288
0.21373152863704092 0.2618982611184606 0.2978517057909329
0.3665670077109411 0.2066483620151729 0.15174564697021253
0.2171124358770271 0.22149145666065806 0.2489978538608284
0.3562681053425649 0.28638659318804116 0.10368868037251389
0.21302139929443342 0.28785297109497776 0.30424352480582684
0.36195454042072583 0.1839153012937942 0.30454238877857165
0.32900112365098266 0.22600610967822377 0.16172212483319015
0.32241450945632266 0.15190351986451844 0.17558575236020602
0.3129648072058444 0.23500965118560657 0.22204528598632578
0.3837932080305677 0.2479618599357991 0.16466073006085935
0.23327262417882366 0.27541813554945804 0.23995465684204476
0.15547097417011457 0.265560590238195 0.3106393426829044
0.18463364597428722 0.7699650971427161 0.5556496186430735
0.2894222617719322 0.32353735401551376 0.27518252520474107
0.21970474299780562 0.04280406582662977 0.20204572653847208
0.32575293663981597 0.23113338605446643 0.24836965136606182
0.3588639659074033 0.26779432727110475 0.16568845842596147
0.08548100246218837 0.2828429576199767 0.23857231377583332
0.03341699290203337 0.30885926543959386 0.28629564635126314
