# .PCD v0.7 - Point Cloud Data file format
VERSION .7
FIELDS x y z
SIZE 4 4 4 
TYPE F F F 
COUNT 1 1 1 
WIDTH 797
HEIGHT 1 
VIEWPOINT 0 0 0 1 0 0 0 
POINTS 797
DATA ascii 
0.49970134997063553 0.26817390540183794 -0.007494459981359114
0.5031700775061125 0.1449260044225582 -0.062467090101279155
0.5648952364911537 0.1851380991582232 -0.06771497808932736
0.41312618646654187 0.21449409301810363 0.07207932016605412
0.3973226022033458 0.18532637604681668 0.09543602487849512
0.5278549852875045 0.1456077500720454 -0.12061690471705333
0.4557682748933587 0.07421360890791107 -0.15549084030207894
0.5383039462807062 0.2317304977202923 -0.05401950425854807
0.4771940528674321 0.20475050332564138 -0.02908402352463213
0.4789324371119932 0.19119160180157735 -0.057177425429898676
0.4679056400666042 0.19117364895146238 -0.006905218845489003
0.3854719021737907 0.22086926727820355 0.03517335165440727
0.47980828457890823 0.16097912180342178 -0.11752062026565113
0.4650123829862878 0.1958013119962061 -0.07363703944096756
0.4630404856971495 0.23034990445088965 0.007016583331420634
0.4765200502718159 0.19162453777666144 -0.05267488919868413
0.4759358101551925 0.23179406519824397 -0.016286653577239463
0.22402731252118713 -0.05110132761299724 -0.48406797512468813
0.4534863167678651 0.2114038700025418 -0.09306161846035366
0.5332581832545173 0.27470617759937 -0.011563271696317656
0.5397143240008404 0.1426766501373038 -0.1220829162628263
0.5311750724303437 0.25608086850911604 -0.06663663768684103
0.5162552131391038 0.2519747590257708 -0.027164788598369682
0.5746035228278856 0.29275052425273884 -0.01034991238020666
0.27710272945722636 0.23865101657062837 0.24049020683693811
0.463937326422581 0.17915442345798738 -0.024289159658025028
0.4387083587468368 0.16022356471916055 -0.05943473334573923
0.5138767951946193 0.22320032999968475 -0.0951442959796509
0.48197497408092715 0.1758594449109978 -0.05592794170070192
0.40398846624374585 0.20221351518136998 0.03784310357772824
0.42603857706457404 0.21805631052126273 -0.03343282922313051
0.45001600217098314 0.20821494230330018 -0.051635538710300466
0.4947775196717714 0.1860137156853341 -0.05928114090107783
0.4219210345501665 0.18565629364118763 0.014700360133829804
0.5006171712871748 0.2361478088564013 -0.0035659538987857786
0.5128759621134549 0.13588449242661227 -0.12219328872238577
0.5910253441075497 0.07781901935973679 -0.40172282112499147
0.4852712000095636 0.2375737986141928 0.06284555085774457
0.41385999456892364 0.07682141666583675 -0.0761097283694312
0.561527109362487 0.19217592581134113 -0.14959959109697252
0.4877224430961036 0.19360245265460208 0.11432370895316524
0.5350255445612504 0.2858408466503306 0.014041849483618307
0.5652221482910562 0.2476392518580326 -0.046204959186269434
0.5397506257450999 0.23592560294142118 0.009018079575824345
0.307986863001517 0.07989221169678729 -0.0428226898798556
0.40947195956914584 0.1756304700722353 -0.0222181333756879
0.48237407371702545 0.1675632764752777 -0.09857186634300774
0.4368558264158935 0.14460729055770116 0.010423095379081815
0.5307492662528119 0.4414995494624634 -0.1082411317623837
0.2078078792117708 0.45229667283416575 -0.4144043492651832
0.5194070380974409 0.21304265878100637 -0.04570001099273213
0.46642914100689836 0.19647581835374694 -0.08495118916670208
0.4445388300385247 0.12415709137782471 -0.004934970852588094
0.4915227501147399 0.19668668004925394 -0.09899986748463618
0.40307219517282533 0.2452583235421315 0.09268763046702588
0.43716101992778533 0.2249450321840385 0.02231172654072111
0.21716631753795923 0.15334307313065665 -0.078831529556453
0.4634312471366542 0.2286579057339111 -0.016662103277994333
0.4309824987606703 0.17085317342964856 -0.03015138702977538
0.3352330230648306 0.22159014444643788 -0.02570004759841993
0.6288432008416862 0.13496541345693913 -0.09729752330545693
0.5472350307362888 0.22121343960267836 -0.05682588755833251
0.3499901406933361 0.16548081107714552 -0.019499382577521374
0.44420179293705075 0.21038775770668394 -0.0034166513217996908
0.3477022487536203 0.3851049206086117 0.32967400266238656
0.41435480681252557 0.1763020397144146 -0.14523867237505783
0.4491150755099227 0.1732668405162343 -0.044327770146466605
0.40173206952530904 0.16878789837213048 -0.06764849508533644
0.3698053328472355 0.23269583382655412 -0.000682737451597859
0.5120650489325413 0.17006189542506434 -0.015715808599878756
0.4527115736276244 0.15819069549343112 -0.0973755272074186
0.6422632683547249 0.17017333101321697 -0.26702824343979614
0.5593051563367766 0.2347657107628578 -0.13373026497606588
0.47778125755262124 0.2183181913522958 -0.005171120537070806
0.5319110480475331 0.24075211934227525 0.05628391432978219
-0.04755461702838204 0.19574436669672934 -0.4471363222477578
0.39632303039006445 0.20449295844477433 0.027751489864741075
0.47767230533315796 0.19213953259928473 -0.04681873041512574
0.37039485864082167 0.1476041055645112 -0.01894637053766246
0.4557480003434904 0.12701378813336817 -0.0645569396089627
0.46459753691618744 0.15880690858729452 -0.03874583473890425
0.40090972938608616 0.19503432443042357 -0.011843068826451031
0.4888486183583467 0.17343420109084207 -0.1001579698936439
0.5064803274899958 0.202777619271842 -0.05796971206541457
0.4662795494661367 0.2016898781314751 -0.046324270712688076
0.5202253904335521 0.18833136456464672 -0.160346433833098
0.4331619208711146 0.1973637417995917 -0.014268743106043758
0.42401408070769264 0.15801232338816362 0.0057149005876624415
0.3624578441208399 0.1456270922670626 -0.01912652445543017
0.4153719332852006 0.23038167804847376 -0.029096122671973035
0.5253980829291436 0.1788373564815231 -0.08239784148015872
0.5269635447488952 0.23414141179833337 -0.07204051004825374
0.5055767964563529 0.2007338818030462 -0.0158154119279601
0.4355625133593577 0.19576249622619457 0.014283693223362093
0.4750289024845529 0.19940878281877872 -0.034489862516878134
0.49772760569592833 0.24631673869662052 -0.018103376240048874
0.46912519615503356 0.19737421480525086 0.009303354101461991
0.44153744734236966 0.131658382990679 -0.030762145142148256
0.41361107892696225 0.21528821446594293 -0.03360934459061582
0.36309370681702546 0.18361484578869636 0.000354635561421901
0.5052575751493578 0.21621291536649778 -0.046610895858719914
0.5337973506795777 0.17177656417786125 -0.10380332392128366
0.5361550574809542 0.19599289010869825 -0.04427383482101277
0.3778732523785493 0.1660735525969983 -0.04307810864557382
0.4434437403058098 0.1968741126054283 -0.036525939100968685
0.45978190905591987 0.2144978182718944 0.0026845903537662252
0.4802977035017193 0.2466761407566338 0.05855612982588809
0.48648130852717486 0.24052854931832712 0.02335477785521789
0.4697025347574879 0.22318053342475253 0.008200447975269753
0.5287855216193407 0.22855668319888878 -0.03906806311977107
0.45670497894394657 0.22286830677344938 -0.03243039554843108
0.4263380227819482 0.2923370597778643 0.027763687552763372
0.47619359692411933 0.21224428190026856 -0.13091675073039255
0.41265609543503956 0.20382881206674597 -0.10645451169338571
0.4094526362880231 0.18768273987876682 -0.03157297529688208
0.5791751990195024 0.19559848353563325 -0.09197479319533386
0.3327941496183655 0.14717442877355325 -0.056741481205591526
0.484646219929715 0.19354588454453392 0.0036184412027751023
0.48709628724336085 0.2536706752105431 0.06745036670986337
0.515802664832222 0.23435952263110948 0.05680526354257154
0.41321820423347333 0.15668619568396025 0.0216928901114386
0.44060484971581104 0.19236697480603482 0.021888534125423575
0.47535233419262113 0.20869987151205294 -0.04175876355898822
0.3887327722095506 0.023951083808299245 -0.06464721102652504
0.47228067807813545 0.20860010733954937 -0.014923459369967418
0.5069827197711874 0.16447018230067556 -0.055852010607310376
0.48441341231153956 0.216077895015502 -0.03282167505153666
0.41214249123616753 0.15450572968025256 -0.061929845750398727
0.4629347261683989 0.2089179536814072 -0.03561218728830795
0.48706542585577495 0.21408784134749226 -0.07067681965307315
0.3605042772135789 0.4450631880085325 0.7366685043669463
0.3346638567244753 0.14776604815266126 -0.041625542270850246
0.4932073174453535 0.23551213191080933 -0.08122463593603868
0.4216928256620207 0.1777972509660941 -0.11545114582673932
0.48339748699829954 0.1446963858552408 -0.041460797088205936
0.47168681903617937 0.2082945650203385 0.009160058482052591
0.4336544633860342 0.1789913351940413 -0.027233917906073657
0.5332823680254535 0.19718756103753776 -0.062228289690153815
0.41139418640797487 0.198957080483396 0.0015337614578214698
0.4969239403398973 0.2238221467814583 -0.08592286568105578
0.5049841438820977 0.192465790518213 -0.12753716064074183
0.4553241386926743 0.2208406730082686 -0.047540757013024404
0.40501754165072157 0.17029586620890313 -0.06511199031092474
1.2335033949901657 0.7631954995898695 0.29194659668425516
0.2744176454674232 0.5349149923342083 0.34045608947855044
0.4902069813874448 0.22459030021875037 -0.05001560230473956
0.5664589046975976 0.16803528222501996 -0.04717311208224828
0.4689311870314583 0.10020491548664268 -0.14597286865203785
0.4123809369950493 0.15863013742873022 -0.05204105594862085
0.489837952098668 0.2053847309876886 -0.04824208977913713
0.4950603496661472 0.2366933675670566 -0.010762937626395797
0.5416201925423962 0.25060138622774275 0.025192925915177966
0.5479821209706728 0.17361452628918528 -0.08522922278143596
0.5317544554550437 0.17423478384435498 -0.1478997546585532
0.46845733097633513 0.14044763248526237 -0.10578898423051442
0.6610531344830264 0.7448428916775498 0.022908627704651963
0.48611320707114203 0.19598069850903244 -0.03128153381527454
0.37253364536417166 0.1813788237999745 -0.009113395654196665
0.4645863325283699 0.16261521599702178 -0.027124447739609536
0.3697895352422904 0.19993612785160053 0.08107474378579127
0.5230958904475358 0.1745119561613251 -0.12097078472504563
0.5332877622883245 0.1636980294335899 -0.14234992842025918
0.46841098729838393 0.22032193229776453 -0.025995813302671422
0.5593484526736603 0.22822766393227312 -0.0068480836775108855
0.4416413141987334 0.2093593435738228 0.00888732320345298
0.550652298925101 0.23136902123297887 -0.06285072774940659
0.45626508072976435 0.2417564499351954 -0.023129922970397843
0.46376733505388756 0.22322357104491175 -0.011179152497490463
0.4936854824333494 0.2267503264011168 -0.037741451956463834
0.48160219464375587 0.24099686381066476 0.010776680479537504
0.535138237508022 0.24397962480541935 -0.006970491972481341
0.6851286956739955 0.21287333858697366 -0.1683573078298508
0.5792153390640777 0.26923950689038634 0.007552561496055432
0.4456888050684569 0.10317954552283481 -0.08627791192441236
0.5420543665729411 0.27693174457189684 0.04607927297959691
0.4648911386498753 0.1811216666906148 -0.03687351947871775
0.5119556968089682 0.23330360840799358 -0.015664955824277627
0.4728137624978501 0.18208021581310163 -0.04384583121623109
0.37631326753165695 0.20707914212012213 -0.0026823099192796462
0.45458539891760097 0.20397867690661542 0.01019102328652366
0.5366785888460583 0.15940857408796205 -0.10044355482978062
0.5225801726902972 0.28282345580669244 0.023638291642683384
0.445203435902215 0.12870811818449113 -0.0915055557749298
0.6075187557417507 0.1982358050148605 -0.28245729642696915
0.5355628891122564 0.16577455445963096 -0.12858328393789975
0.46033923333820326 0.16993101121053655 -0.08380446483269566
0.5186615977237068 0.24425255840785098 -0.03435476115217284
0.6144854018041315 0.3416180893594287 0.002301442831637246
0.4898127577799585 0.20452013253492396 -0.031550754246737256
0.41155991619510246 0.0915831640140965 -0.09253467925583436
0.43405301146606234 0.1959774831280754 0.04172363789444944
0.092386210664273 0.5099557305871087 -0.008387810605313462
0.6285205056530714 0.12193440369827613 -0.09225287990912534
0.48951575988658647 0.1794974248844028 -0.043871992909899404
0.4192577190630402 0.1806369395043248 0.048246799754934955
0.508258947707688 0.15845130231218718 -0.0816198200126621
0.4166277999339627 0.17925218504404938 -0.0009572967880160377
0.7274422692792655 0.21862908204073506 -0.03453488563434348
0.4361949028871379 0.22980144458782092 -0.04782824894618898
0.4843540760993079 0.19125743026111763 -0.05839664998808303
0.49020974991925925 0.1742209188025754 -0.08465280912439255
0.5584510889946017 0.3230235986719947 0.04743907553631743
0.3548992654355487 0.1287126428830021 -0.01348327217343126
0.4741729765456171 0.21631806794786712 -0.031164671963608725
0.4546050278199516 0.21441384179880174 -0.019210732384834728
0.36272763778033834 0.23412829167239124 0.07353196631132164
0.49600700970405853 0.20765511220537292 -0.030087873062441872
0.4338322178522702 0.24429625387237763 0.058027884973739674
0.5044005617316571 0.16619977301340327 -0.13027948857296678
0.307325241696617 0.5700734099211928 0.3046897005218341
0.41333561604955094 0.13180108983554817 -0.018136537792898366
0.48100230815313694 0.19631529833287686 0.03596435827724065
0.6752386610458103 0.18628237923674362 -0.20810469515328123
0.4678130818609674 0.21810919401593765 -0.023611481793295752
0.48539811470263317 0.15055634202245471 -0.04047829797305269
0.4965357057586459 0.2589397640396811 0.016023064654007158
0.3580844631476765 0.13980152621441277 -0.04762368482329293
0.5325450338779234 0.19776310815007037 -0.0563370964757155
0.47206374555962327 0.22323312763090541 0.0059160226399370686
0.5799219645665517 0.19122301756080162 0.14041251489635442
0.44977941672826205 0.18954231960947254 -0.04138860894288143
0.4879746016838453 0.20457159673799197 -0.06791763597622946
0.4471927853622333 0.2053135025954873 -0.09994684340225035
0.45467254788418643 0.19283124602659996 -0.04884891191218799
0.6048326452518182 0.21474513461078004 -0.0724820690012109
0.349957910394636 0.2093044651042817 -0.06938787600773821
0.4570085902139738 0.19849963599499176 -0.004762607883634473
0.36318173193861014 0.3210206104512707 -0.0716622325906684
0.561617572264538 0.2386836619162409 -0.04487551690979785
0.4471592938117226 0.3707529998579133 -0.04463268328169079
0.4469712228916052 0.20819784649143003 -0.00020746402637428218
0.4181501285266762 0.2032344431014792 -0.010951775137129971
0.5184263028698837 0.2285950505200276 -0.08923307539211578
0.5004281609013788 0.22000965836289765 -0.03389060301097402
0.4462893646152537 0.17351783683841404 0.007837988905009752
0.4323661150277047 0.18969747504698375 -0.0013924108327643125
0.4844982814045551 0.213335898138439 -0.019069219835984086
0.43767704849541644 0.17939799436913972 -0.031922619499439975
0.42938753581047706 0.20552267464003648 0.027765171764428942
0.4546618481363254 0.2661438850376072 0.035860919948135006
0.3908202376242258 0.25128096656045784 -0.00648796378516181
0.44351350454051897 0.23409313462855152 -0.003812408566375325
0.4978879494141921 0.18871448934939394 -0.08690750739418718
0.41213995834664274 0.20818405400032702 -0.013521256521158875
0.43442667830414905 0.22434627181466738 0.007371555317178036
0.5001556443286859 0.27203812550348516 0.003146794944214548
0.5779137381449004 0.2786164899836763 0.014229062485412669
0.48662434443932057 0.19916677155151774 -0.03213683895921804
0.4847033127301188 0.21171297468544026 -0.033698143151468685
0.475878484872041 0.21861894247584246 -0.014003329022273192
0.4217780714718913 0.2526454555726616 0.047862617193871415
0.3354289818505549 0.1664676136322356 -0.12439010174935561
0.3831673142875758 0.21077038444843765 -0.15013408427728336
0.7292267742716803 0.18723563955748546 -0.10433345489192902
0.41605898239699 0.1936578582266293 0.023242311963272755
0.45506393925121813 0.18221556474205158 -0.03943402675257346
0.4743315702034039 0.15720773203594263 -0.08051462374692164
0.4570541242972439 0.18792242322251695 -0.06528630488062959
0.39842521496869665 0.141928589174384 -0.004602834669626077
0.4092488956871989 0.17698147333243242 0.008904429666145575
0.44985309389433326 0.18249450586402816 -0.042574994410244926
0.5117349278804539 0.2592488441099192 0.0017110548174628093
0.5470830730915424 0.2301009758781163 -0.020459129069251958
0.4682004341291872 0.19984873960734717 -0.02185023390943286
0.48303099734992827 0.2047714843179591 -0.052724262152452184
0.4729765425765038 0.1975821804495439 -0.050613755211259104
0.4210149969019028 0.2569484603818353 0.004285735912048949
0.43722762384015823 0.14048962724960745 -0.06825431409586713
0.44878537166157173 0.1654616351480911 -0.03406287706245337
0.4628643033320543 0.190739747017858 -0.04645049327916695
0.4301490624149267 0.1454957280728877 0.10759348822116976
0.5676521208554703 0.11865813576019946 -0.1365817136611298
0.48364441715452244 0.13897602781588603 -0.16625119844393055
0.4811393580776553 0.19845611092486592 -0.024184309980014973
0.5193208578204178 0.2401867381347813 -0.13358889434168475
0.456176683375233 0.16136068603412923 -0.06362500257586134
0.4776574072955242 0.23564249521913894 0.0010836808066301273
0.45838276837044134 0.19489553584645591 -0.03507480787664008
0.43307277887356577 0.22436634424585122 -0.01255453352118252
0.5156256233526193 0.1997110493611558 -0.029292821082606224
0.35336032050834376 0.19570745765648212 0.0646162672806696
0.4937432264523949 0.2213103989594174 -0.06899646431131146
0.48988170955873045 0.21867678868534313 -0.04693268996115307
0.4646045681536748 0.20065192466921644 0.04978714100421655
0.47426600536489616 0.22260193761351843 -0.005942596138666545
0.4498866942331148 0.16176332059556842 -0.06612107411896773
0.42527014987803113 0.17136904883155069 -0.00754877775723628
0.4931288983025013 0.21197701243485767 -0.052753655277086864
0.4850975874839776 0.19990394543333423 -0.0376336348778068
0.4426417682621633 0.18344546356703972 -0.054753062951547804
0.41097305106664805 0.18616430961340313 0.000618079499417945
0.5963060304885204 -0.10388511692232782 0.6815089162947601
0.3864613289016603 0.23586377163135808 0.0410431589131548
0.4250302412424105 0.22637771392975026 0.015099108554281315
0.47151843600367727 0.1869688646401073 -0.0364854396443377
0.5269121505065613 0.2177597479161193 -0.07862232958700588
0.4277381385966095 0.2599459308144674 0.03425167470871315
0.38810298420763445 0.21924407473629515 0.04921880906871934
0.454468545163607 0.22116327693828453 0.0011939385704806682
0.034153741983530495 0.27895064581871054 -0.44607042761735727
0.44113829020649575 0.18612841196006968 -0.03399131816242118
0.6592013504349694 0.07245873029052063 -0.16891002549809286
0.4632706145711154 0.18933678843022506 -0.04698897357573628
0.4624998916655727 0.18304998875285605 -0.060697139471585615
0.5328429725211663 0.2199655856222904 -0.014747111975907501
0.4556041763261476 0.21446880637185473 -0.01720575340041819
0.4104889895665593 0.23574410536730284 0.07857423285972231
0.48999204687069664 0.20232960135996336 -0.055633001526615544
0.37869312621813833 0.14027340009683087 0.028147189786665194
0.49771710704744976 0.26474353391762406 -0.07132736870751444
0.5738400296569637 0.25253618716371307 -0.026249991505864045
0.5581281968641179 0.2370491069901277 -0.011090403184937259
0.5989244009324892 0.23080428364957584 -0.09101172894780518
0.44456327724104483 0.2143787857675079 -0.04393357316094182
0.5184759964751038 0.2465509441849889 0.01767817852892506
0.44569259592603316 0.20781808856625616 0.0012263413269693046
0.4915475710098036 0.2142145413569665 0.0027802797138747337
0.49737759188994346 0.15969443014938633 -0.12758491218042423
0.614914227362064 0.19923325977246975 -0.11817089931409441
0.5115930699257376 0.23665550991809425 0.0017737174441947445
0.4199242721002747 0.18699936683128726 -0.018582516132539695
0.5045022871878189 0.1755540147753436 -0.09666655777309074
0.4210626066229395 0.14662646499013476 -0.022378218465746613
0.46954845172388104 0.1537893282821301 -0.14034684838739508
0.37566255392506775 0.10956273955585516 -0.0508579269380931
0.4710701315024153 0.2055919437278675 0.012879443819798553
0.44237040834245533 0.23558849828171446 0.05024672027346355
0.37420022060338454 0.1611791783444687 -0.0008927853209570458
0.43964168166633044 0.21403565910979694 -0.039271456439394115
0.5200248629967206 0.19267347789303813 -0.009475228627735532
0.4601394118666917 0.20501588840411955 -0.022562119294576632
0.417101383198883 0.22435767645134774 0.15312052747651705
0.428885568207491 0.18803215958818953 -0.035339041254260906
0.4620009340647755 0.2070222574607783 -0.02669539418340605
0.5613134837646072 0.2638416151093139 -0.06117328419506407
0.42206979471352213 0.19758845575459816 -0.040750809667258636
0.518379834558246 0.25234360697132274 -0.0013579676731012569
0.4723463021575043 0.21699871382540437 -0.07027550753566913
0.46618547794709286 0.16183258991870275 -0.09114175432620186
0.5178216752732823 0.23339159206528848 -0.08957319640188643
0.47315841396523695 0.21413089052009582 -0.04212871988812594
0.47647229739867214 0.11780366178771828 -0.13846608728962906
0.40485279682323494 0.14334437626072827 -0.048616994643907674
0.4709533138166222 0.23734924937915025 0.007327369705706133
0.5183647002027811 0.2636345756586138 -0.008506818551666129
0.45524543503773884 0.1761896846111881 -0.06520918054297908
0.21317140168183357 0.1468559541758907 0.09505678839968823
0.525222030642567 0.2412281161553551 -0.03794659677876666
0.44676636877420606 0.24288037136618357 0.04297698439056319
0.4890640330055618 0.16982806585396304 -0.10100836679643521
0.4313507666819021 0.16633280285145702 -0.07417460925603336
0.46741559104602004 0.19178032227119957 -0.05832641942330952
0.4941057712477317 0.2052513866830168 -0.046645366349338246
0.43009592876582303 0.11806545645244171 -0.21887795756697415
0.4275398318966097 0.1701546396563316 -0.05316386188636102
0.4968149834675586 0.2308159198778128 -0.015957601430613977
0.4319708318648168 0.18316141657761875 0.0033113947920924147
0.42411101849202737 0.15917387978085173 -0.035542526635566674
0.44972999251189094 0.19191924983888953 -0.06785829907113339
0.4799095927073722 0.14328207204418675 -0.10198586065070003
0.4958481854759498 0.20329718521261952 -0.055057792631629354
0.47478671752342905 0.22427351653485061 -0.04128219328752891
0.6075771706097868 0.1356308833698563 -0.05810150065943276
0.4060329553094135 0.2176101828639645 0.08540088261386813
0.5096478341329913 0.23619197235271372 -0.04534954921912515
0.4726773636296997 0.18185527687134595 -0.030263132532979853
0.43211299847608586 0.1435731029263536 -0.08280608227840958
0.5511135423998184 0.23220050791087488 -0.07783263290039599
0.4448524272825125 0.1327169747954713 -0.07153980924974235
0.4603138333132364 0.2769862696249277 0.07995413809990737
0.5424388850623103 0.22147583439929974 -0.0551058740796293
0.4268015691354208 0.17745286329875398 0.03810834749890546
0.3994092418617754 0.1796895920866035 0.045213606413483376
0.3843580580745254 0.19379631186802726 -0.04411994849300527
0.20207952119331196 0.02370772523170217 0.362138343559792
0.3755427049835589 0.1647144963617535 -0.02561220091490668
0.4663387248078692 0.191914233429614 -0.04808635426908836
0.4407036211698596 0.19419059180559373 -0.05388406868733853
0.5354508064543211 0.2506374020304065 -0.06522302085956255
0.48890745937720226 0.238912452845085 0.03912086220017841
0.5639667541263833 0.2845639895495822 -0.08486471765505144
0.5149348870232444 0.19063817425595175 -0.10935214369226287
0.5146103738452297 0.225792294213079 -0.061136642492343185
0.41675606802402854 0.21727291731414766 0.005568755867500386
0.5282420898659268 0.18000765129103513 -0.08971213271868805
0.4670760225742896 0.2203585898810161 0.007311945866746328
0.45261099715452247 0.18473246323739545 -0.029266686587519075
0.47581849985424185 0.2562715544413834 0.07606271940829856
0.4916576579225733 0.22554850373285262 -0.05271830403884792
0.42583458957220444 0.22256546684496925 0.05366639548594776
0.5218333263439092 0.2179134715823352 -0.014913747523991105
0.5205764962059334 0.1818225563154101 0.01980304965518087
0.5020665345501669 0.3218479062645372 0.04982750811350911
0.48103053433561627 0.23647344510176538 0.031513820201723775
0.4777059806844761 0.19090833071663837 -0.019512513119579467
0.500738635743275 0.1974784510499319 -0.033911084514244294
0.45127786987606555 0.2209422920698927 0.057553047477128416
0.4372756226017884 0.18565274146891397 -0.02229471094912583
0.4708883422358383 0.20155474163031784 -0.047408357807711354
0.4802238540004993 0.19756250045850265 -0.12143366054284854
0.44839343508735396 0.2453401145088634 0.1281773706606657
0.48466570626838745 0.19910345103346572 -0.028780391112150028
0.45679550638793387 0.22861401763321965 -0.020928145736675674
0.44883689636876056 0.2040373765813399 0.006282866904854245
0.5827250761111173 0.21988255423389091 -0.10844137344396643
0.4526697139456104 0.22033555051996245 -0.025638540418185585
0.4458022701538482 0.17659189793619134 -0.023445677474271065
0.4376758849306128 0.22713172473973486 -0.003990926137646511
0.3886950492951371 0.17542329186088068 -0.03513327615345929
0.4724944563405842 0.18705880363589245 -0.02164839392943918
0.4301002659373552 0.19191719444165756 -0.04359378920722179
0.5282743232452987 0.1638307917021109 -0.08844167154228444
0.3829962766271109 0.15332186334902076 -0.04509823245288658
0.5324630037064964 0.21487114364882132 -0.03792808004816095
0.48060044497070464 0.19204114219466817 -0.06398374253801364
0.4474780833317169 0.16140367709579095 -0.01190505187057056
0.4792054745927885 0.21562412771154982 -0.05112091632858551
0.39199178517358746 0.24099546500167435 -0.1707913930722782
0.26014172690257453 0.16018804763498906 -0.6337993625839431
0.46652400531533544 0.14161884557609028 -0.02090846444791339
0.48029308431202367 0.2079950546580278 -0.013865188169006615
0.5351881145501949 0.22703401999527273 -0.08460612340829243
0.46517224955842096 0.26854786933088803 0.049871250982505444
0.5234188333452181 0.23834047521373236 -0.04326682258449921
0.45351859029791797 0.19534365187681146 0.01459743940664282
0.544408454872638 0.19169980077133175 -0.06162490045858249
0.4531724138090141 0.24403057559172225 -0.005956779361625308
0.43093305579014896 0.2083992379896813 0.02064138492310974
0.5702915219677323 0.09483902388402043 -0.15504011178578025
0.47505226348536667 0.235224261505806 -0.015831907624374253
0.5111191017938097 0.2503578865503897 -0.07221391485975914
0.5123158937428371 0.20774326388618647 -0.06927010239309084
0.4734260460513724 0.18716556168254783 0.014322744971678958
0.4686318160406415 0.20020864218447798 -0.030787061938298166
0.35251210951480516 0.19513793532631496 -0.015704854299912085
0.4227764895449724 0.19248848849758815 -0.0023468057605953163
0.4747226004690077 0.20898753547010074 -0.020215319947311627
0.49768242649697925 0.19116892818924214 0.009419749344644401
0.1108178301699212 0.19842918528186715 -0.12306470893190635
0.481322583269403 0.1717884035475521 -0.07065041205365219
-1.6801454021568816 0.6244744988320292 -2.33428972003378
0.5325029964891854 0.1996010677215736 -0.1716186187736639
0.5217707570336643 0.28563158730264604 0.0026458395135335877
0.4992867523313578 0.2562521458654601 -0.02987514638562061
0.5179833454905349 0.2671974886139026 -0.04999539579478096
0.4915552284800526 0.18805736713829901 -0.040493279208391186
0.4734150218147022 0.18711451138460689 -0.01955970070250146
0.5032953992687936 0.1622537912445523 -0.10943646899362136
0.4435795625485355 0.20537714323506862 -0.014651369136089443
0.44034322447748764 0.3040142861846107 -0.033535384611980135
0.47818896504432473 0.24359827660890687 -0.014061089762549273
0.5066172228994219 0.164449620588627 -0.08628840382183967
0.415711153102734 0.18260202890112964 -0.007651230154579025
0.48353627629728635 0.231999388234442 -0.026417502804747528
0.423451438659626 0.15156568828788863 -0.1156319887389543
0.33432707773144443 0.2902281922864347 0.07808571571840162
0.33811559026895566 0.20312970922670104 0.05490038776150641
0.47602001873605104 0.22304278305901448 -0.06522212040739817
0.5143908056844992 0.1313688518113736 -0.17840114981035526
0.7923149209877209 0.13691663596594594 0.1845780533133876
0.44133723333307273 0.23675165732970527 0.014301414940405266
0.4742436808708561 0.19044486002380268 -0.039256490457418636
0.4233202492014385 0.21479588255098747 -0.007502803776787914
0.4610259888496131 0.17800882338096358 -0.035915015649464976
0.43019716089889926 -0.05091988869719444 -0.8193398891614976
0.46829583513914486 0.1813241335855338 -0.06602108602868384
0.3564876262322656 0.11515205902801995 -0.030679005488934763
0.42821268393959144 0.18930851540640958 0.013018864881843228
0.7198358739693731 0.30913259081953015 0.05331514488297273
0.7650916972524158 0.7875610881131365 0.052238043209143825
0.3991687570612754 0.18228782319445713 0.0022704455897724074
0.46700067974022375 0.17357308232475077 0.07826113731121609
0.4861719642535718 0.2751617541592566 -0.007997001178509322
0.40043548785895666 0.21935847903556294 0.05446660387559632
0.4958110789196297 0.22115929851639748 -0.05294846828672917
0.47942378436954414 0.1896421663746537 -0.018487236840428523
0.4744652243638541 0.13604282757202668 -0.007703554250667821
0.4589934989116671 0.16388790854516344 -0.08955330037397857
0.5985080158919658 0.43122088553198523 0.05082250558353962
0.24177873174933495 0.17968398911096983 -0.002588976488652861
0.44407318385245276 0.2525356962143235 0.0835556235854682
0.49365605169606397 0.2240420439129025 -0.0034396749516929503
0.5951674322388101 0.2239100211507008 -0.02747277178150398
0.4940208620377291 0.22995346221915725 -0.03272220092497946
0.4324756164877499 0.16442949376502725 -0.01143013998813558
0.6669805377543128 -0.2907764967921054 -0.12156635998339027
0.5202762289262353 0.21895249184939303 -0.06811656173908887
0.42724307714478016 0.21540692548292384 0.008490013862171963
0.5068525383562132 0.18218655510892745 -0.06674339169521204
0.5731518042150867 0.2270106183721623 -0.028421488268065787
0.4433757034160237 0.20473052314038398 -0.018493448392717937
0.5284573116650506 0.13643861039881244 -0.10881197231898909
0.47355730175911503 0.1801843001230452 -0.0564603502684804
0.41433201860594693 0.15932851747396626 0.01063351215893249
0.447309631578662 0.22297525032941223 -0.017153254812058094
0.44542878651760986 0.15898240841264055 -0.04039660517884158
0.44451488196116884 0.16439317456706704 -0.05749961087082056
0.3721290276507858 0.16889092820987628 0.013518257968570424
0.47328567935215915 0.1260501846282125 -0.06939821608095542
0.4805117814063209 0.16861322774562382 -0.12399773534161795
0.4430971204056391 0.1753508252298417 -0.18503227378329257
0.31947820687376804 0.172707595456572 -0.07025051940209437
0.4554260644203936 0.19961007285496635 0.02795159644037426
0.41499801535974257 0.23345332654747608 0.03494569285712146
0.42999690022720927 0.18076261881607536 -0.09745741176661227
0.4269245839058726 0.1628025624624314 -0.03838523469904942
0.332043522316269 0.24852680378832304 0.026502567445632508
0.4887647777046311 0.17532881360932606 -0.11108293957794046
0.4869839971987915 0.2138094582697363 -0.050194793206472355
0.6019482259975888 0.249866638779622 -0.06478189904355247
0.31899262831738895 0.1956761031654679 0.09894430396772691
0.475875857295577 0.1387711752645373 -0.12348415131521051
0.4894701409246949 0.1582856741284786 -0.0376448380897898
0.4529141041203957 0.2040724543786041 -0.028510759986289713
0.40829030282326073 0.15533634769769833 -0.007368370667791169
0.5205933599919774 0.25019623215375475 -0.014059742679350506
0.377883850586727 0.08310163067511667 -0.02913999123776989
0.4389425826364004 0.15507654802374304 -0.14926044708366248
0.43958373220382896 0.18889884860618622 -0.01826291824252735
0.5602802155089961 0.1955296104758446 -0.0511525445092218
0.45674075051378793 0.15955611939870096 -0.036939968341982876
0.4841305148121222 0.18353869872557027 -0.07462553589036247
0.5201509958169055 0.1695431597540562 -0.12257230917589368
0.3765581756008203 0.1605824139401193 -0.01399131857276359
0.31916222548986184 0.16880376690460253 -0.016650143307174403
0.4917738754300274 0.2130117311577493 0.02890937645156555
0.5367081600998631 0.20196023703260835 -0.07540078794284
0.3464723576505122 0.14529942970699494 -0.05271732982552635
0.5389781129599243 0.24957715501322753 0.0018442014421111708
0.48729525356445436 0.2923510421500737 -0.09937505000134195
0.5165036291506766 0.22796851968570309 -0.03839562204424851
0.488193191901928 0.18829982754104435 -0.0895940601092775
0.4646095729964941 0.19173245133690386 -0.05657699854873499
0.4783588788446025 0.18532089172958877 -0.053570767410064946
0.504917807515298 0.21715260815687998 -0.06844283223699676
0.4799921753388219 0.1501089023986708 -0.1375290818054964
0.46202495131514354 0.17802415669561356 -0.033455836130087846
0.4816377743266287 0.18963857689550423 -0.06767555585602736
0.43940132707182045 0.2017074269829493 0.012984901251513747
0.48528687909994517 0.20466795322039388 -0.03151396333396406
0.4862495618617402 0.22149525882582566 -0.01981650140832869
0.425173560626007 0.23283174676458884 0.031439587387112056
0.5378066754929023 0.25276462323053295 -0.023077626575854993
0.43212914194029395 0.14736933658090834 -0.06758046363951564
0.5709990971515566 0.2430766777658846 -0.05880058921387388
0.4714832001490947 0.18786763204539625 -0.033861826139713
0.45178956164639317 0.2237956741635969 0.03226692685942112
0.49604001336938097 0.20316019497028037 -0.08654552411543648
0.5663085499689373 0.2572459679238648 0.03574846921270591
0.4822269543992519 0.20918216679926616 -0.05676840234244196
0.4221114214958419 0.23827961975064227 0.04354722267483169
0.4803974385390859 0.1820271681117731 -0.02826239950891818
0.35131915790036317 0.12300444752372641 -0.08026499382792451
0.3800195904924806 0.1351499315166791 -0.00585060610839605
0.529143449541948 0.24932848630913895 -0.011568972015396639
0.5116927484640712 0.2226125580104963 -0.051718316929637353
0.4858869221537532 0.21986704370259247 -0.0054782201295751065
0.36458952739414485 0.15343781155249303 -0.01656381395756057
0.489881019495769 0.20615616948953175 -0.0461261718748176
0.47253895913807753 0.21944958678753324 -0.006638267125396169
0.5417743148551466 0.15758606347392856 -0.09521034084085045
0.5453517656339102 0.28642529873437184 -0.004500601993910891
0.41562400949325706 0.08827209625169985 0.04856492006622659
0.4286519340688386 0.177476526482792 -0.042033900999143725
0.4309723422086762 0.1798640274101473 -0.03415460398272785
0.4746685103564232 0.23023057980793737 -0.022827274038718315
0.4559827972973238 0.14832930108707387 -0.03489585757995428
0.4943205750401063 0.2377847460897442 -0.007668057322135269
0.5717010696752993 0.22852820167543086 -0.055121406922182814
0.39326434398738286 0.2541836628805356 0.00044375221892778427
0.3851710840150986 0.011044691293321307 0.15711281165464186
0.3076516364352955 0.1261276052964888 0.05963509598274186
0.4706481955965529 0.2813803039115328 -0.10284176091013819
0.46899119201736994 0.22283585986895105 -0.06476399831203139
0.48218658580377394 0.20299258170726375 -0.02869927188741883
0.4520314522173976 0.19892024391714358 -0.03345557372500707
0.5294199723171431 0.2541366736229236 -0.015264090453598556
0.47530917915612747 0.2025646100558447 -0.03595668273564456
0.5103171301423686 0.20842924138266028 -0.07542603794000513
0.3963588119338226 0.20888385432363066 0.028936957959345477
0.5209588414779773 0.22046117882037208 -0.03727042007091086
0.47269243098800473 0.20174398425015738 -0.034898536016100934
0.481825202299234 0.2016617982645812 -0.10604136940422393
0.4216748352233566 0.14719482089394376 -0.08159482187105027
0.4330651575720452 0.14857696793959008 -0.007088149073922523
0.521894005262169 0.2384598519543033 -0.04231792500321774
0.44757976545803047 0.21194676535034773 -0.006119422135114405
0.49405460313249705 0.26048880830380483 0.009034959162804057
0.5323446805024759 0.2244924720854442 -0.1245612383204815
0.5003106188516568 0.1963252057066427 -0.02565669327415776
0.4422063547911108 0.2118834138747019 -0.01882700975164653
0.5160430801107623 0.23101983945304028 -0.03034521664714873
1.0367696708378986 -0.16962203486130534 -0.6152799052506452
0.4943252489280212 0.20333691684646737 -0.07150428888749616
0.4911310987631339 0.14644087588398236 -0.0990771615821302
0.4870356611663027 0.17259773926683408 -0.08605674731215629
0.4220829849357557 0.18017551818434185 -0.0483245138605497
0.5329396778510613 0.2240287071773821 0.07212276890322755
0.4783499188221043 0.2153952474877343 -0.14514932055519125
0.45768549949676185 0.20308630058201516 -0.009564508240003988
0.44869104479639077 0.22327082982432955 0.03326612516664795
0.43133219019382807 0.18544771472610933 0.004662959184287274
0.41830061904084914 0.13645933841681313 -0.16036432198737316
0.422287417946265 0.17395848587452178 -0.059867762620513076
0.43790899683435214 0.164520749697175 -0.00803918596589881
0.3905602263579482 0.1865589516165187 -0.012623437624853295
0.44093314010387985 0.2313530377254409 -0.006515799526098931
0.5007083392789156 0.15291800218719231 -0.11627547874816457
0.3632307260296983 0.18915897767398349 0.11015692591311677
0.3882763104377176 0.15991482225010145 -0.009027222906709653
0.4649279538966766 0.20687816783853918 -0.034327146129044195
0.5752688732943909 0.5619700551081905 -0.1632734691373514
0.44365871445967286 0.11998467770339971 -0.03372677223694609
0.4775618042004197 0.21160433520222455 -0.01764569231238511
0.41687344683278127 0.2231027191938324 0.051731647437122774
0.4405006971982459 0.1716704498558812 -0.024542871374109154
0.5381136926855703 0.1979775432544244 -0.11293109872021034
0.4782051335122901 0.17754562453188782 -0.03290298367917899
0.5068552445265482 0.2241260890115626 -0.007384174814930589
0.42988509059460966 0.1846861642641926 -0.022057128760621936
0.550703799831183 0.2877599998945186 -0.07249886212430567
0.636921359346573 0.19849048630777588 -0.074438889813365
0.45813411606219745 0.197545783694423 -0.04045465175116192
0.46973238035252507 0.20715662840210314 -0.054270303452682356
0.43422064811467465 0.20877148243434362 0.01000334334419506
0.5365547102055217 0.3582664995630722 -0.1812937002047761
0.47148785813158156 0.18654138112907503 -0.06246218278532467
0.5100064055392011 0.22810306002367042 -0.012531396513978166
0.5369448060591964 0.24395020709202697 -0.05440693434118771
0.41958789548843356 0.16533190402631703 0.09389307663181512
0.7761837950090182 -2.1618486465372087 -0.37352319991966
0.6790878469311821 0.270388133441827 -0.04228207501836323
0.5684735272149908 0.23188079866932299 -0.1028624934646416
0.3358123085199196 0.1389733085261753 0.09714892052011237
0.44845689110084663 0.25250055671774874 0.007697554871754164
0.5521076793531279 0.2666041321128887 0.029522527822820166
0.46051859697513464 0.2022795818728298 -0.04518319274592386
0.41075049229891647 0.18177842543622091 -0.06354840466372025
0.4907725566152834 0.19197055641437544 -0.051272927215507025
0.4747983259731967 0.19996601980351159 -0.046926507715710386
0.4896755249895932 0.16882520620018227 -0.08642097817514127
0.42922065120728803 0.1958006440301574 -0.10552109449540126
0.4365207232216477 0.17682220862292297 -0.018514005377966214
0.4898913111010472 0.18420426909209198 -0.010686281362268346
0.5315872911686057 0.17547403769100356 -0.07492669675876584
0.5134753577630988 0.23736056993107013 -0.04983242608489036
0.5037660426203985 0.23901826808769044 0.027677321499083973
0.35897278118058296 0.1618002573034687 0.04505948316750619
0.45373125446526785 0.25287523878070317 0.04069837740479443
0.456480905131329 0.20856897269709407 -0.017580825760802554
0.4913357715246178 0.20587525912603155 -0.0624562052441604
0.45162206833963126 0.18448500218720199 -0.046259477310428565
0.4273274915166212 0.1906404544827467 -0.010074331621055421
0.34714972812969336 0.18052935654120006 -0.017855217754174646
0.4686649008597925 0.2136219643973476 -0.015826252051255096
0.4311293268691969 0.15690173810548913 -0.057119095472444315
0.45418561086943043 0.2411806025686758 -0.054014673793886914
0.4155123399081049 0.1854201515419618 -0.13891618331319933
0.4188264961967576 0.1889708182028471 -0.005309237549468548
0.5046644948648122 0.16047523881528036 -0.05177222138220827
0.5567494041576424 0.23540170549242134 -0.12251294672869051
5.712497722900707 2.3880170351634433 3.659524801264155
0.41540991302281327 0.19454787099328996 -0.16648766078768062
0.500502453962099 0.20088889721417047 -0.0839330554087212
0.3199979128060306 0.24577372476839798 -0.014355150751072188
0.46586176353277153 0.20386922887894343 -0.027334806405178824
0.47839711250158246 0.2103326314325784 -0.04479500034635464
0.4059172017395838 0.11148821799247344 -0.07274601704278894
0.45374993000130814 0.18078329318637998 -0.0023625734777539265
0.5116416546784706 0.16441286636833752 -0.1285630914772753
0.5507583961789493 0.24440123163481076 -0.01909007277396313
0.5482217831379472 0.26241999135294236 -0.01478013302032366
0.4226635359401456 0.19250626641925805 -0.006438883743015822
0.607258966478355 0.2497407304453816 0.006615619244243476
0.4343478357838819 0.19300695493501507 -0.019926975454879425
0.45717143314894315 0.15520360188961035 -0.11046943803012255
0.5453685825713137 0.17934526996054956 -0.021730436125992014
0.4323048047967717 0.17411242109746183 -0.051494500573625146
0.5373090436983432 0.17436122138209953 -0.09694755888945394
0.43296269084102335 0.1953050702338146 -0.028330743436896455
0.45568177818418576 0.17047527526759154 -0.20524318763287397
0.47356811727101444 0.3055907834579443 0.011297479324127835
0.4840914982570723 0.20239220244803846 0.009114410481203095
0.41291786557341936 0.20577404400290789 0.01092972447356999
0.4650979995158053 0.1874315501909365 -0.06697640449581854
0.4097576098279916 0.14867452059318964 -0.05505950998970377
0.4863542131619454 0.23436445665637962 -0.024199259399267703
0.410183120755363 0.17752881181220914 -0.04733091301454806
0.28163442564181196 0.1629567522577844 -0.20089199094627475
0.46164105231925134 0.2007364595002059 -0.026722531824503903
0.5289797210512717 0.16733816301301374 -0.03707113393045347
0.5348436650101718 0.25817571974739906 -0.04646637335768844
0.5212155759707287 0.22228125032252422 -0.023393967028397356
0.6261423869506757 0.26617361770266257 -0.07352311798825895
0.5031144387624806 0.22066603181633582 -0.034358029614779184
0.4587357528362759 0.16670913393160447 -0.08651908337786551
0.4081996940142574 0.190541413432868 -0.0521517909583622
0.5804050441093835 0.1651062647731436 -0.09619099256902075
0.5174993182981069 0.2153880094146814 -0.08416833991553574
0.4488446079754027 0.21035277729609447 -0.03357999716143922
0.45197769134887267 0.1865791457551751 0.023421272186453734
0.47428321283371133 0.23892807016721918 -0.04234910666821179
0.47503422193760514 0.2089611505191158 -0.13518384810357986
0.417521688156242 0.17628373037952372 -0.10537437992275045
0.4541409734696913 0.17870421407326376 -0.04881254840918814
0.4182591122507091 0.09109787889534005 -0.14224674098568357
0.5268533845081862 0.30030619883785903 0.016405395779301557
0.501611182101172 0.22169324005650992 -0.031447449389560234
0.43794801784302706 0.1944656258070694 0.024053880584588683
0.35694004103959287 0.10514769831060278 -0.008361170460844392
0.4732488481004964 0.1868433425491247 -0.06470022991396718
0.48908011742726387 0.1929292493795174 -0.051431230483530044
0.44793927003760814 0.13650748250836386 0.10501361018592092
0.4774755171182079 0.2428852304264808 0.045183157550994224
0.40308739209011435 0.1622294496118144 -0.03827877270654767
0.4194288127596906 0.2150963315924912 0.06242128553473947
0.3867617513878514 0.3082251818863426 -0.0625186125090238
0.3983070578119907 0.2061078016041904 0.06720285744893317
0.4289135572390421 0.1591786363475336 -0.04853657812063261
0.5159589072251691 0.21756304581752772 -0.022813957408970964
0.4786709252885686 0.19643274935289412 -0.018662686520627858
0.4654929303765698 0.15743059511686397 -0.09142585353758648
0.4650434457130075 0.19851211434510674 -0.021840044061832486
0.4414780235536142 0.19381845751459537 -0.03601379531649229
0.471686775295737 0.22036516212705237 0.008348438396197366
0.4569244236384975 0.1601915133682752 -0.03137449012965021
0.40697233274383393 0.187746127895565 -0.025130921625333258
0.4678692603519323 0.2034524813137466 -0.06029210329469947
0.4825274777452506 0.19273363832802204 -0.08106272532280911
0.3580383876124813 0.17018741163522577 0.003447113787132139
0.4450738146113906 0.16777101601925892 -0.11334975701225858
0.48997569608370384 0.22069732525068275 -0.020320569411779843
0.11417303227113962 -0.10266678649458072 -0.43712630232865024
0.5021300078888942 0.20992913785974565 -0.05120514782292673
0.4903307192092825 0.16102653776627562 -0.10087741834618669
0.462734085087817 0.2022798401194308 0.0561395108589835
0.49025946825084077 0.21992156279395658 0.025070645858193075
0.3929374027999586 0.21817409733444038 0.042718103114424366
0.4721604404362836 0.18613138766853865 -0.005426890041803745
0.4887666825782446 0.18977277842259355 -0.012574199512769724
0.47856733888856695 0.18915435114126922 -0.046870098661230486
0.4324047738875123 0.167012955311435 -0.01274610694248679
0.41416900446752436 0.09763366687158737 -0.11313727556520803
0.3988461085101562 0.14444181587990101 -0.04382290672282352
0.506929617580866 0.25426051425003493 -0.06708779697922296
0.5088229714660883 0.19773854360356324 -0.03802461192125861
0.4752472478598122 0.21845826472363683 -0.03510243935799906
0.4616925808419978 0.19587200468944843 -0.029377686872294362
0.46391723301086074 0.1546492922152254 -0.007395928364402948
0.45380897260666586 0.17983674323929222 -0.04785814772401409
0.5437589986881335 0.27817906310457374 0.012553550653592538
0.42330737058343004 0.1849821821375599 -0.1134571984744639
0.3839396069964778 0.1089270712751329 -0.1035855283602416
0.4786105844155344 0.19585976981565523 0.0042906109612772525
0.5246356488722057 0.27019723033436094 -0.03576693441775092
0.4430096054608441 0.20043042563496272 -0.007481595738582314
0.3370962414039411 0.17665671428389373 0.0966669409179417
0.46232332711014124 0.1934431437657338 -0.055326898838700345
0.5331691769007563 0.1533379286198624 -0.0672734593712363
0.4710339045840328 0.21323309573352844 -0.02500374655522819
0.4441101345605034 0.1668575524367668 -0.0549938667951011
0.6015501483385322 0.25246181135889856 -0.06707358800079533
0.5313766742035568 0.21111218377113516 -0.11395785711735584
0.4066005821519951 0.1170560074691025 -0.12768745902241108
0.47528967990220394 0.17975365789666853 -0.10537307079711411
0.37842850539671247 0.10156772257496982 -0.2281815970713552
0.48471160801970825 0.20893879976853214 -0.04757084074711315
0.49061702937602547 0.19407735603330423 -0.06986929156170163
0.4477532231937147 0.16665454007093672 -0.023634356790211086
0.5290226242840532 0.22792501793966835 0.021535953097796323
0.48635663704121157 0.2850635886368167 0.05397735978635865
0.5009470074016349 0.29499786586958976 0.050232669831558496
0.48210759379755075 0.22665386033051504 0.02467656880024549
0.4904009875069306 0.23018113850073973 -0.008749174909581825
0.5275166781829626 0.18831976162550745 -0.027170418227044024
0.43293216576792304 0.2327931354225541 0.02099840328725122
0.5426206938798117 0.2512290744226817 -0.05677209307091857
0.3592575750765832 0.2190362354716342 0.06592974300831145
0.460781109384385 0.19627920235762986 -0.05590257343055782
0.3962973788546549 0.19257617072523203 0.001116134863679008
0.4869550043344475 0.23912725955176484 -0.023344759193349773
0.5011648838516436 0.15311134345951416 0.024113787129834918
0.44268773717774934 0.2184788564993596 0.029802693414978876
0.4641706586509713 0.20120991871819172 -0.02908923077748682
0.6009779698283779 0.2068225096121381 -0.15183085263565488
0.5082430323870426 0.18102744469894105 -0.06075232499151184
0.4727749725913526 0.24273482515519618 -0.005216979822705525
0.5199331614616227 0.22489398996285104 -0.06487897018760691
0.5180663202298064 0.1545795253778124 -0.09721574735904426
0.4319723943969791 0.12898816260747026 -0.08993301133537557
0.47464111876780635 0.2231615884386713 -0.02880498240092777
0.4752891391426175 0.2062719787749927 -0.05076967209581085
0.4356069893245973 0.19813901313310112 -0.06762708281540597
0.45686340802862446 0.20650865907222737 -0.007607981923356988
0.4429942649007046 0.19061018022699727 -0.07192739458214703
0.42911470980465083 0.08995477359611925 -0.040660812882705955
0.265171529890992 0.18837792991092783 0.020458007372724296
