# .PCD v0.7 - Point Cloud Data file format
VERSION .7
FIELDS x y z
SIZE 4 4 4 
TYPE F F F 
COUNT 1 1 1 
WIDTH 796
HEIGHT 1 
VIEWPOINT 0 0 0 1 0 0 0 
POINTS 796
DATA ascii 
0.42828625107618734 0.13452166160925572 -0.0861333475347692
0.530233129420381 0.23904053544085002 -0.02655381269909185
0.4403023442505116 0.22605800843690815 -0.0418033897813217
0.3235759910030964 -0.01289760980469623 -0.12575896411240706
0.18753065342976072 0.047802933298413564 -0.694589761034905
0.48249384023554853 0.17361140235524886 -0.04408083665853724
0.47513152670467207 0.20657354726427002 -0.04719088601250121
0.44341802256533924 0.18914634364672622 -0.01570495060239807
0.45429778574708735 0.16635640857995782 -0.04585107608072292
0.4397277488277638 0.1690576350801365 -0.046671912413003724
0.43965438468102036 0.24525748489992338 0.039261070923629404
0.429099157387796 0.16989571328747388 -0.06939921475415645
0.45992347380749266 0.23934972516290998 0.027347263932014698
0.4938631963715068 0.1645857794590313 -0.08398205906610201
0.5922341578488499 0.24464772344236962 -0.028743116616510633
0.643666276190018 0.24652088873168054 -0.0806909591665601
0.4224829006655142 0.13147933141385693 0.004668608621386738
0.44838030244784477 0.005686354699733442 0.05096248355968669
0.3773302072753637 0.111484506819437 -0.13469887945510095
0.4314789077127301 0.11649789491043805 0.10013442147713647
0.4663233585283706 0.21974417989366657 0.018907518529317713
0.49517964574557993 0.2213232937452858 -0.0378567670796599
0.4506327194139885 0.1813214442249773 -0.014404021365862718
0.48648393378459787 0.10939325490900842 -0.13664581431829959
0.40953302983400874 0.20206414721566546 0.0274733174480275
0.5636944087391953 0.20929889887867148 -0.11821200788773467
0.463643478311937 0.2209252020102923 -0.030252451939233538
0.4630413581143671 0.20339007590546032 -0.04049315568184397
0.4737111914957097 0.20538428207578363 -0.0327865080809886
0.5327910034734202 0.2642338879458208 -0.08415880439784473
0.4511441944776635 0.25634889240261316 -0.07169141396590817
0.45923150191443085 0.18635064263457934 -0.05863679469597116
0.47111538908986006 0.20382844590757543 0.0011704522749766966
0.4964964432143404 0.20498527238567021 -0.05216099487626025
0.4004658182792582 0.1920107775919746 -0.05368798248156281
0.5992122459436047 0.24832656797562436 -0.04245281115341015
0.3326021081828685 0.26629182255703654 -0.13517617757381117
0.5652844558555898 0.22746417084081827 -0.06445496814237117
0.5782935058346368 0.22982054435865962 -0.21241914223315916
0.2739301128833489 0.06375460668856192 0.024729635392986893
0.45122641700102406 0.17794279133269697 -0.058426652217931974
0.44313526094759936 0.23065128944966773 -0.029504890887437796
0.47942734871627124 0.21203771368604407 -0.04407429108388783
0.4259365825072763 0.13119188245804025 -0.09251307834344402
0.4726270439832376 0.2063783774426753 -0.025050456108516528
0.48429370149561635 0.2065025570778971 -0.06496696255919687
0.472115060442448 0.2171768525678317 -0.04436667809123662
0.467196798770118 0.19423205060235205 -0.03158330855339386
0.46260318128159383 -0.07122031056243827 -0.3506108233244447
0.41629037310602257 0.2508393968041247 0.0454677844540754
0.5472596337669842 0.16207373480270348 -0.11976950761774674
0.5093903346408837 0.25576505957880613 -0.004450016123428213
0.5044707939890429 0.20785517591879454 -0.02404437028191353
0.6404012105428905 0.05744867839510448 -0.2639979916245778
0.47154813973340026 0.17886100308413688 -0.034470609814292175
0.5110819556325339 0.25704717191571547 -0.05273014987193392
0.5123214342683156 0.20838982504484704 -0.05566821431121127
0.443643188531226 0.19376234928368774 -0.019323869935632842
0.4476202780462728 0.1913868308799067 -0.02344971174404975
0.45133078508722235 0.15332203086379081 -0.060885126566262215
0.5044208975417774 0.22444184847776683 -0.03986359895847613
0.5146219770957856 0.21555952049806137 -0.03992744860369157
0.3953872727204839 0.16762999517986543 -0.03388356521381297
0.46544388018028826 0.2009127192935125 -0.032225659982856314
0.6779895778098677 0.1582318461003922 -0.13116373305454943
0.4586353762759927 0.20524861590493515 -0.02358450115912092
0.48118593232973694 0.17201203847346846 -0.07498812439386882
0.47634424154075816 0.18160439141539086 -0.012247523029046192
0.5031708742344563 0.1733192392239289 -0.10512365310881933
0.4924676525757121 0.2398217188952998 -0.11230542237008478
0.543885048117744 0.2972144487677184 0.019050734940933012
0.2731843027848555 0.20002322314942944 0.012864273166968587
0.4852428279218657 -0.18403712447127418 -0.04179915931129585
0.49580760849168826 0.21287405332543585 -0.09831500054252729
0.4513029854317807 0.15985598744384788 -0.11991891911804942
0.05344253681072075 0.3400886854144005 -0.30567209218679636
0.48090802127900645 0.19378225673494853 -0.04535384853949154
0.5303969259070414 0.26497403645142015 -0.08542846986341601
0.45889719640034343 0.12684909796213617 -0.13565270112769667
0.45546118772261934 0.21246834347279275 -0.053326059035185835
0.4962640897665409 0.2308537374510422 -0.03388070131393306
0.4413397870847433 0.22772861562589242 0.0008076390050888449
0.3788995244119917 0.13991607532878447 -0.07406127276162522
0.4475467366894321 0.23626458510310044 0.030146611148552438
0.48394593855452683 0.20564354840094268 -0.07820892740573981
0.3695483388289915 0.1526230919840259 0.026024167428474243
0.45559875490724266 0.21167117157810367 -0.014499570415580365
0.48459741905922726 0.22307290583205486 0.03142431623692232
0.5041113588391681 0.13492053581266816 -0.09143477493395835
0.47677774087533464 0.1863976190311405 -0.08299439630357597
0.37879842741162406 0.14221851569264743 -0.06436499731499623
0.5230169676498093 0.2665648369185334 -0.016151217940574725
0.25200977580186645 0.21868671874034362 -0.6696359566687988
0.4739046810521188 0.1453031200845487 -0.06690285389097994
0.4174425923001053 0.12793376493401354 -0.15477182938127498
0.5679732353055584 0.2878697982565086 0.012247788622715916
0.2742774961073451 0.16844663021714723 0.011244452623799361
0.5319271419359097 0.18194479133325103 -0.040225410853281574
0.5357986855088512 0.2158256726051775 0.09207234253764796
0.48246187933595763 0.19019618311114073 -0.02495994374254451
0.462721456718171 0.21448610396029721 0.006901954336925087
0.4773701094277527 0.1904169863231857 -0.044207124788556484
0.6178176703684386 0.22562638052696116 0.02328171504782972
0.5048160692369805 0.1606675423963395 0.09279940407475351
0.4064373639205314 0.19159922096832815 -0.019815138715216563
0.4013573708520255 0.39465721222697425 0.11137756206231586
0.4674613486536572 0.17482048547762474 -0.04853127317204553
0.4983422762852996 0.15203181081835737 -0.1612413544316098
0.4869364367010576 0.22201889084796278 0.02270747778172222
0.4765805758624424 0.22045975505039905 -0.01343999451208333
0.4395156903318451 0.1943805476213072 0.004112244868622383
0.47849438220872287 0.1307565936848647 0.2329025503571529
0.30807053862558575 0.3326083611204922 0.2048240777732815
0.4568695777208802 0.20381518111516073 -0.06586272421611739
0.46843694034937755 0.22011336220586486 -0.020603610614458034
0.435879330790641 0.17306317248744563 -0.004284128981396407
0.4548200229962589 0.19317569215354524 -0.0587686735205466
0.4243914980940531 0.2094083090635479 0.002258818223481285
0.47440211362653883 0.1923974201759222 0.0005021288752260489
0.46848888281634515 0.1966555208690579 -0.01797524623171398
0.4541168149119841 0.19277557256157252 -0.02629307839742978
0.4641629335791748 0.17138746399757565 -0.07301629843166779
0.48582839113007026 0.18082746750476986 -0.032379575725329346
0.4994502243292942 0.21075937660006616 -0.026263111039668274
0.4857378502673697 0.17675309473958123 -0.06677660719917355
0.4936911526504133 0.19676215465202063 -0.07102023583209416
0.49734432546084406 0.25665488334837505 -0.103520838296987
0.4889575873849168 0.17964681513697656 -0.07418491398087212
0.4801376066311036 0.19150185751723825 -0.012994252640794457
0.44965558719327703 0.2076143364207894 -0.010853466042078708
0.43023231598077416 0.20929567960024542 -0.06111939060770055
0.3901393217567204 0.13779779769500067 -0.12014567292766287
0.5497003230104553 0.12597725040711794 -0.270546287458842
0.42613642181059674 0.1785202570395512 -0.019268994169038933
0.458818849557062 0.2520889246447524 0.03033789106731888
0.423109972568227 0.15730422003214528 -0.040664544096472355
0.5709061327566474 0.2476347353302515 -0.021102832659636306
0.3753691349209589 0.11058910623000884 -0.04193442095160549
0.45697115778317254 0.1820118545821856 -0.02189979562385247
0.3801833220901756 0.272140540185859 -0.032615496954747414
0.44418301992165254 0.20371245458574094 -0.001410585165814382
0.4979156580582753 0.22751244400794235 -0.08758534582392485
0.5391479104371228 0.2204430681788665 -0.10562853786933601
0.5382147064854621 0.22759259246939223 -0.07185864316639368
0.45508006829163605 0.19286556623073636 -0.043787618934857164
0.4128013143793652 0.17230708517354287 -0.049238571426457156
0.5008727076943416 0.22842952034488917 -0.04933576996273814
0.4114561564237533 0.2408970923688969 0.04639514238138531
0.5371458797527708 0.24466557899638985 -0.06599760782850694
0.5747069139649454 0.21237183586966069 -0.06642729016812154
0.5104745858497779 0.2607769088854184 -0.028720213432293917
0.541784645562359 0.2750194185817918 -0.04772537570698887
0.4373986923687454 0.19889042636077647 -0.02470041103313747
0.38810778394208967 0.21782435532655597 0.0169816769029012
0.4525757356153264 0.22463285024356594 -0.014940365608993034
0.46919374857685625 0.20541582572541017 -0.02567919177101885
0.37542129686745795 0.127841527846698 0.007232621464282829
0.7132779160363185 0.4014299567340913 -0.1714812832071857
0.38560934242856604 0.24008754920828324 0.1079292635845519
0.3900423494139744 0.19338224656303282 -0.01156876712386179
0.6128751928816456 0.2634044261714763 -0.0233195516272815
0.4376138940547918 0.18295429239302052 -0.021778057453673227
0.560190363532854 0.26860572043443653 -0.03681398420681603
0.4246244883571677 0.19868882011019195 0.05620409156523465
0.3941697351583002 0.21437979746096403 -0.024826684641539032
0.4660814857625297 0.18218942742133493 -0.04578216382077471
0.4381854980708084 0.202700893324689 0.01957219990356407
0.5264865778987371 0.23200155065396189 -0.10043451952901705
0.47241264043336173 0.16592412833310277 -0.020164894241759157
0.40142811894315855 0.19896109773921467 -0.01873786212186701
0.4791902095303584 0.14244213806405526 -0.13750728337510054
0.507080965365958 0.18685002533555917 -0.015765353483402578
0.45520639226464255 0.16479777696396525 -0.03174335840911624
0.20366286277597112 0.8121775809063081 0.2541933572019559
0.4953334789982904 0.19407827605456873 -0.05520819587678716
0.4951598469521912 0.17280669475545096 -0.11930714983225243
0.464353629792015 0.27973024706921024 -0.027009663791929484
0.3881375118793926 0.18128283706496973 -0.03271022192649298
0.4679369226985415 0.17875336742116588 -0.04736748931567547
0.4763048866764876 0.2636120918800202 0.059019318556465805
0.4496368813087628 0.1698607300854178 -0.07151538890771292
0.4732302636668777 0.21451282652810733 -0.030896670015053473
0.05320401228335925 0.3632011397151018 -0.5289606278182077
0.4804234059821795 0.2018357627867715 -0.05263066087734103
0.4705135299823979 0.20438033304559156 -0.040159070570240374
0.4658999702408124 0.2195863895502157 0.12108594774355197
0.5675242494566248 0.1152673131323354 -0.13552391933231434
0.5943897701372265 0.30268931350607886 -0.053281344634740435
0.47807903328165935 0.19593538697247936 -0.07586262315479075
0.5272838749002347 0.16312744551201774 -0.037865411287441475
0.4537314293230281 0.19410856926646147 -0.03490444570257978
0.4876240526537856 0.20786099960847082 0.05641105287460846
0.5104398571151734 0.14301389173240864 0.003972608281685552
0.4185677472472662 0.17322326625668438 -0.08287673846484722
0.47054846783322546 0.23312798625491382 -0.007638772690626183
0.4518192775284291 0.2636199714966665 -0.15643949183075279
0.5018264787360209 0.1415709736218389 -0.1417182413691762
0.46755754901592184 0.19161296828764307 -0.044008977585036746
0.49189430224920727 0.1546717385046037 -0.08053755371143723
0.5886785799585397 0.23514208719956287 -0.019215343775698557
0.4360540886986968 0.22297525978649446 0.02466786506857943
0.492383500810476 0.18259868636631893 -0.08242357677187329
0.42455132636511905 0.18978303519236306 0.010730126422231479
0.47396230013032437 0.33230434223182215 0.039286310376922984
0.4605403108278239 0.23563793710631842 0.07599626525836811
0.4129607889910858 0.18338508351895655 -0.02672162094648911
0.42744246339397307 0.17204558158265115 -0.034361921076481394
0.44589701052878183 0.14326787494664472 -0.07282682038618304
0.45348528167004076 0.21715916323202578 -0.037255563047438045
0.4533668483818474 0.17647961901050735 -0.05686862820138572
0.4851907120949477 0.29782861159532104 -0.00782876871379301
0.5036781395986196 0.17919226140000433 -0.08893052078121855
0.4065431512529898 0.14366904507265588 -0.025387247410861846
0.4042199979273988 0.1740530264162885 -0.0398548872620097
0.4772501834248999 0.22070535423173965 -0.04759850505102747
0.5054169691195227 0.20081265333175224 -0.04769779446536404
0.3922401750250373 0.15910049206449628 -0.02298917325566663
0.5161482768940004 0.1989092769111096 -0.07230272766977919
0.5009467114585107 0.22848235601644262 -0.016100672717499265
0.4850707044962519 0.16500441941064992 -0.10522912893266323
0.42423913967762417 0.19319374307157489 0.0279811890391386
0.5731113270598485 0.30408942938085204 -0.0011836724671923093
0.41109984396642574 0.20065527579895104 0.03410282991404756
0.6670432199610303 0.30343920925776047 0.10561133608959494
0.49361822137004197 0.22416896950113596 -0.05189223262733833
0.48584204575760737 0.24595680587131596 0.004150120506608346
0.47854333264197635 0.1768850132555997 -0.06246153082238948
0.34624827118226165 0.20201623004140856 -0.017371640736797644
0.3710771712516845 0.1681444487023498 -0.036788717259824466
0.5815998280993995 0.20172073323280415 -0.09500129921562461
0.46759288861389336 0.20320607547060376 -0.041829961375498215
0.4430765300688364 0.2825554325402777 0.12037264997911734
0.4503684717688401 0.18164539507732513 -0.05547413642128163
0.45482690876784204 0.18067490321902824 -0.03951402481376931
0.4771977985020186 0.19569926615662325 -0.02190913071177647
0.5114423487670336 0.20724361616987608 -0.014187924425726806
0.4149596550933694 0.17653414140772838 -0.003270148119440819
0.46902713457434686 0.23168539210593053 -0.07044523632130506
0.45642494189893057 0.21625953415036747 -0.03256494453538039
0.4678262701927025 0.20385772636933552 -0.018188461078693763
0.538220080621187 0.2291914058801865 -0.031845037176751134
0.4898509965488813 0.22764041200048268 -0.041239242644621754
0.3955440920760367 0.17170365053635805 0.02463212215765509
0.5764169203061442 0.23401110299261063 0.0034616517092160848
0.48283816860008244 0.1850306443280374 -0.06723732155461448
0.44989035697165036 0.21197513136955592 0.08417379168062666
0.5033374050392325 0.16342392184361643 -0.1387827035009508
0.44486206502396897 0.18376326317329017 -0.05606741621454603
0.42023082408387324 0.21687486657923216 -0.019059803081233895
0.6418272190883698 0.20862501999133087 -0.09074366888852126
0.4520082729622885 0.16689726584053233 -0.18603205617296226
0.5673789395838611 0.1991830332371194 -0.13350265993423704
0.3943474797903832 0.244553247281317 -0.05984767993123796
0.5375190529683351 0.20093087529367892 -0.023321858528618122
0.46657888428160277 0.31511964818469096 0.023842301717678538
0.49572062807045825 0.22621661614837762 -0.03895440429054986
0.4816028496533562 0.19399111980743555 -0.07297698787196794
0.4862458987095124 0.20696601518832836 -0.051114660426819114
0.5045054371109217 0.14684613375789013 -0.12754122597507944
0.4542389789086201 0.15109028915068734 -0.08893895188231227
0.46382231179977396 0.1732494804707727 -0.06376103589917648
0.4604116364208295 0.20515983529472237 0.0035674607829889737
0.4933564045351062 0.2311904354659049 -0.031597151597594575
0.45585300236894 0.20498426006466275 -0.02619184173050826
0.5011668726312735 0.2272691568192613 -0.016264280726630886
0.5088420076855726 0.10856807560492143 0.15796790565009644
0.5229421561377166 0.19812895120884377 -0.03520828549667954
0.48608505799276713 0.22840882927980033 0.0024377123190646444
0.5157780213840937 0.21223051694465767 -0.07206664511507199
0.3909757413650681 0.28938028670395965 0.05484632865648109
0.5099509444999626 0.22085898212083066 -0.03342701699727968
0.3158665523135653 0.15908269340593506 0.06061753573284534
0.36263886826915837 0.21396111849918498 0.036802655270591345
0.3726153905289493 0.31397996690233754 -0.3231912825666825
0.4475599075714598 0.16481627618668426 -0.011522182370370615
0.5448415840118059 0.21192446330465486 -0.09126218913715434
0.5470282241884803 0.1766965603032702 -0.014573455897618715
0.42585270753409077 0.16102861809382318 -0.07029974284262153
0.47174435512619084 0.19610285106375613 -0.05362400785698185
0.46159522362005134 0.17892645605972746 -0.05437244065726077
0.45692059084859693 0.1585997482399648 -0.1306049136879608
0.624943297373747 0.24113186790356167 -0.07340638105942787
0.5324666049678939 0.221856249858007 -0.08917415986800847
0.5179388134742453 0.24217258023344357 -0.07459194430047944
0.5020915038488738 0.23874513832848265 -0.03144405478954582
0.46797338658966225 0.14806534259632542 -0.05191932834171098
0.4880553137848409 0.14660566678421105 -0.12218347273227437
0.442508200118624 0.21698434000776956 0.03999201138211106
0.5154267394459708 0.1868687942953784 0.031931981314656355
0.456294167187437 0.21659389653629546 -0.0035143049685331107
0.48938614458616314 0.19572548480137186 -0.029298868761344465
0.4765915269811103 0.16654782277186087 0.02117955644656888
0.4728322327150636 0.1887631759890951 -0.03367166654723519
0.4710887155114989 0.1795337254755225 -0.06786163372341036
0.45413975130513506 0.14170128078050936 -0.09796488625589461
0.46694978901078343 0.18569916930216834 -0.0025292756309056585
0.47790476807267623 0.17167057730415536 -0.08583196027990425
0.4926288719739631 0.20269929295213274 -0.046473154186173815
0.4525711108293251 0.18238611066576027 -0.013070290890780711
0.44181522977513055 0.19133350975971553 -0.024518404381495884
0.4047065501091538 0.18313299975304176 -0.006662407749047361
0.4788553115203342 0.19361369725257305 -0.0789311961793544
0.39726070641950173 0.19804896159863006 0.0015369752230753875
0.388117518429425 0.16709714658385622 -0.020496829144320827
0.4143749509925385 0.15106304321615482 -0.055367609393456974
0.36531922084107293 0.15171039658935115 0.15198236684436495
0.48439785536490376 0.16955014838977434 -0.050065784585626716
0.47109866202136175 0.192563579498767 -0.04865052227091837
0.43310675414468847 0.2416531852099837 0.05172298544420073
0.5133926429254814 0.26885616387531286 -0.08144006430578088
0.46425102261835605 0.2037249879605838 -0.020979935355882162
0.4794588431376212 0.23200267757911774 -0.014627367071426534
0.5094997922386142 0.20197381453994012 -0.046226390684267926
0.4976198759210604 0.1821453555189123 -0.05358834688945535
0.5420638473996604 0.27022465566142273 -0.06732771808944449
0.46132199727281886 0.21062743335247092 -0.06805685037238618
0.4847146792544095 0.2040912354435278 -0.05889535825907899
0.4609362312602059 0.1969545427238728 -0.01630405799039636
0.4873005218959463 0.3048553581233193 0.04256306244249686
0.48012097791298913 0.23672065723231128 -0.03542225796445564
0.5029609858778201 0.20791574851592998 -0.05638922441400496
0.5092207697027931 0.18910498608042303 -0.13000279585942565
0.44062836985015963 0.15185379067557392 -0.06642559426462924
0.4480981431831168 0.12487911282713071 -0.17544583173632589
0.4850580111219074 0.19986087110888207 -0.00792999711069342
0.45889065408418617 0.18552825661541306 -0.08872873733776032
0.4681515283325979 0.20207239993654014 -0.0226458932077378
0.5147157202076897 0.2051984299888403 -0.12779437591642306
0.5573397432724079 0.18217711736227216 0.07216132118097107
0.45147958257207677 0.19477310535432935 -0.0253533081627495
0.4194142018419882 0.22374557904433345 0.02501033804678343
0.3003808062111233 0.1754345744743091 0.031050162819994398
0.5305895626139403 0.16251009373365832 -0.21325153368290728
0.46272214214059204 0.19492108774508665 -0.03699902491416651
0.5040282431721437 0.19578866444820164 -0.001997845627712991
0.3136958015701623 0.29560298958884346 -0.015368087264647556
0.4265844290602274 0.21041872190318145 0.049080198640666595
0.459028251233903 0.17668441567316506 -0.030542487315102562
0.45278013968804487 0.1883278288539998 -0.03441044610784161
0.4606763195646266 0.19163422925163331 -0.06490925671397463
0.465911458764225 0.18727638639786903 -0.029269882356700805
0.47815441754384835 0.18102787521837627 -0.05762236504097018
0.4805000968002133 0.18732483927392707 -0.03313981396411236
0.53695484652593 0.22346241055043947 -0.0998314030009908
0.5359921040420801 0.2589869625574863 -0.03642958092197546
0.46953110801328535 0.19190103386964097 -0.023397515689367765
0.4013131988404126 0.17486644732757384 0.01883551165320796
0.4873994644839996 0.16663790554976288 -0.0023979781923060273
0.49691881394490167 0.249211921828703 -0.0423231753495088
0.502534000363255 0.1745579527502059 -0.007336407385750476
0.45354489573726653 0.19022826779428215 -0.04108106858475935
0.48760419873495664 0.1681241602434369 -0.06745936348815462
0.5331283755155738 0.09681153061504233 -0.1367270768714235
0.3632493074165808 0.08888915270767939 -0.1266581925875272
0.536330289304928 0.27014199423376795 -0.016717767678358086
0.43425771534649016 0.15135357746858347 -0.11803012635849086
0.48693249012177375 0.13746061890128658 -0.08441434479789223
0.45199236409649757 0.22603597359810124 0.0013732424092722795
0.6929512359787253 0.2590285961075267 -0.14850107916964816
0.4036261609352465 0.15101138559224125 -0.023514746536548614
0.522782460473806 0.22832246267500977 -0.03786814833988217
0.48175255189843824 0.21459779989265826 -0.06000006570388905
0.5010055561528617 0.14619777306018023 -0.1318735561176254
0.8355191278738374 0.45750918053082046 0.18906766312309742
0.43864765871391853 0.2017148530366626 0.002129020332247933
0.439295287461249 0.20706688719201338 -0.056216695796848626
0.44672526917251787 0.2706127937400282 -0.022745037686320302
0.43456622126515754 0.15200030308891144 -0.07142251372539477
0.5309028107345029 0.19929974996159672 -0.07982357265962037
0.36394872315806026 0.1565229651308755 -0.008648763711732954
0.5284615347594013 0.2121093463730972 -0.04911369789991227
0.43303561815383773 0.22463941671948362 0.030105323949925378
0.3845125252453556 0.26159134038027787 0.07516820209980324
0.445670002541803 0.21660320084833984 0.00407866215920194
0.43471864316627773 0.18800920997476567 -0.007238413701557533
0.42938856659969815 0.206615866806672 0.002015873651146194
0.46466574177843256 0.21052377999903626 -0.026166149916974746
0.39181668007095993 0.2280073816719721 0.07978262909072953
0.51109092451496 0.21132374339640592 -0.0693786779516472
0.4704220513879278 0.1975876296936434 -0.034868677891410016
0.30201370349000456 0.22049204817875534 0.07786251777088182
0.3303805663411623 0.10188806420720198 -0.019439437361455703
0.46719675704326846 0.17956131389280472 -0.04319823885894891
0.4236373951153638 0.18690870422517492 -0.031984554929977094
0.4479774160604961 0.20955649366658236 -0.017048580996657847
0.6703563138093074 0.18684848959688338 -0.13995945302855262
0.46462660914480125 0.1779701842746988 -0.06525543631630626
0.4462452677327349 0.20853009537526646 0.015790122029187614
0.4783355431982699 0.2207329399325033 0.019601951575040744
0.4843965958203569 0.2326080823033294 -0.10539369218241745
0.4187425285514337 0.18008446196573402 -0.012001143558137528
0.47889480733668677 0.18036066294172315 -0.09688015463677857
0.5211638525549205 0.19853544993850392 -0.06906755762807393
0.45760967877653513 0.16221765179005843 -0.0689140532973056
0.513973935224243 0.16595802438385476 -0.0410403367270078
0.49457277776305375 0.22793489898475627 -0.03430895084230201
0.33959520967442813 0.18367547412792362 0.019294674415590407
0.432240576266949 0.07370296036907575 0.041323082250841026
0.46130020333608 0.19836466533107 -0.0022647527226382635
0.481074573845234 0.23487898556388132 -0.0345192699286514
0.486710116590956 0.24814550581459116 0.02281307578527958
0.4692988823653792 0.1904063592158991 -0.035930629664136404
0.4808989712456935 0.19740592963984227 -0.04614687301301501
0.45594760528224754 0.2008156986976246 0.011436108309865745
0.48323478335009895 0.21207172803629248 -0.05794263246059472
0.49729417652277164 0.2140250698643058 -0.05005684457790949
0.4777581451515971 0.18865137685693867 -0.048583834608777465
0.45467073646605627 0.2114647035304671 -0.037067478759226447
0.4102832022106213 0.2164207657466477 -0.015079432904428813
0.5189942218674872 0.14634183430359826 -0.06579792922298111
0.4689059731852865 0.1680743442030348 -0.06042463456260805
0.44669126594089903 0.18820889852040068 -0.040724504804998674
0.5620144977901305 0.23196763433787737 -0.031853751051528434
0.47606759685410793 0.19970379221724954 -0.03422492375972297
0.46322584354102503 0.19234607318068697 -0.011774360867633504
0.4876942352158693 0.1998521949373071 -0.048631214123744826
0.35835369868068767 0.14122980942092056 0.047053972257288024
0.4653568331526259 0.210016809743081 -0.02390822132819892
0.4670508514033429 0.26188856199514987 0.05238781804376913
0.4669734356658779 0.19810637424112088 -0.07536554634891957
0.48241776220092447 0.20356251371296707 -0.04970820381910812
0.4892845016935752 0.19706115103011257 -0.05411922652186263
0.40616335560456207 0.13275641909366698 -0.0655844987410319
0.4547286544690792 0.21782134684053744 -0.039122582468081646
0.5286764148089986 0.20612023427852932 -0.01949000382491306
-0.02416037754755962 -0.2940390222579481 0.19722769873337143
0.47194394371643966 0.17262344409923003 -0.04165220574770956
0.458384645121086 0.1421608700789534 0.03342636239432295
0.47615499428839314 0.2289757470995255 -0.04035632024395852
0.46150545507993 0.25038964054701296 0.030166712047304145
0.46687229768730276 0.15269189226361846 -0.028001217802028577
0.636026266649111 0.05676745109404635 -0.3401765271239299
0.5693557668446516 0.3300054047948038 -0.11312087160300166
0.4685669155150265 0.14546921812578262 -0.03337902646919133
0.46086432177808945 0.2657040692983088 0.0693350516545479
0.4675353251101342 0.19583093930529571 -0.004504278715359078
0.41259009988652906 0.18800559812726192 -0.02695989225034623
0.4896263669944716 0.18961615253010677 -0.07719496871237652
0.4732224904686717 0.17831139430882104 -0.027921838674672017
0.42248759479087994 0.1694257559712895 -0.021343430267450003
0.49614884418085126 0.2172963452905634 -0.029522864617348432
0.464893954413796 0.22899529545534847 -0.011205939817671151
0.4555747227743865 0.19003840409030204 -0.10348064070923613
0.5658025557655151 0.24539886940769406 0.012015135299719759
0.46739831269634635 0.19511584553652028 -0.013546010406088271
0.44557734253542947 0.21110011898935 0.025569667542697516
0.4935072650917931 0.18974094529102103 -0.041618989446533305
0.555579624530111 0.17534658512943224 -0.17001425112690072
0.538806288853678 0.2557062856758563 -0.05590255590689708
0.4012504599062652 0.1628512654925771 -0.022178680410561924
0.5224938580009564 0.3810193672385651 -0.12123748270735746
0.42335240144470276 0.22135320268991165 0.03215550849787974
0.42369673467791813 0.1813024723000609 -0.016484186125467204
0.4869070943456535 0.22076708861359862 -0.04298861599535542
0.583166386199423 0.6937193623108442 -0.05937409772661795
0.4521594397859161 0.1636709225085866 -0.05823894071657776
0.4600631811554621 0.1826389657621803 -0.045575134837235964
0.4942253180954168 0.22354567902047506 -0.04088333844451597
0.5358863231102333 0.2494933377052746 -0.05216866901020012
0.44140626954086315 0.20965609359853943 -0.0049795079764294314
0.4336984446527197 0.13515556932395612 -0.1139718493072337
0.42644820294147223 0.19076975318000677 -0.019707719750215347
0.5048048495477246 0.23839799846248866 -0.03924513337963731
0.3757028382480172 0.20507399672732163 0.003540447068516528
0.45484759401946917 0.19693339823155043 0.054485872079752085
0.36838262988817405 0.16912573890533622 -0.09835732338552816
0.5065337664856457 0.18910901639404187 -0.06217041003463919
0.44144654781726445 0.20249976175371387 0.08420116230077213
0.37401554385492375 0.2597539086059868 0.025368799725072222
0.45242530530136094 0.2692503102259849 0.07907310882723095
0.49874338390496575 0.20100751478577195 -0.05610864024248485
0.5573500127635072 0.221605443688901 -0.11003363462648963
0.5560345020678739 0.21983910771132287 -0.024705585635075522
0.3882119162108211 0.1950966104676013 0.036595394726361974
0.4763274728589977 0.21052065961251287 -0.041185289669499525
0.4611511340419554 0.2255225863612793 -0.07457150165335236
0.30813420225004506 0.09392154705483335 -0.08264544598713996
0.4128189122118471 0.20732898115595333 -0.05241927521436196
0.4253917115561734 0.19315140069646475 -0.024130805010173617
0.5509463421661422 0.1829038217271659 -0.15286528125938048
0.5255968921763241 0.21528516842543866 -0.05451076414618683
0.4879413148124172 0.2069761519967841 -0.007972524810952564
0.39055345031711397 0.16229126496619983 -0.023899679991217226
0.459857212711853 0.22130297900156393 -0.028464113308018568
0.6963855923480509 -0.04180687144439332 0.3280567248324644
0.4779183957456894 0.14658020652825599 -0.12797717809519327
0.4325333347991034 0.18950370505149294 -0.046415410081294795
0.5128086192097498 0.21123304220103023 0.0032961238347013477
0.5094159946700216 0.19337381184404023 -0.10109569311275379
0.47517149740926357 0.19459648160422205 -0.05782776792629818
0.37079341647917374 0.2359461471884856 0.08934027069005879
0.611904947425387 0.149519577114944 0.05440048400802766
0.45727642329191553 0.18726889683640024 -0.03423878182914564
0.4624742448271064 0.15710978384294094 -0.06437779570202906
0.5125397989099696 0.20784052093341643 -0.04513099660621833
0.4458679838662505 0.17954564476730184 -0.023915197539025712
0.4847654960637726 0.23895689321227565 0.01940617299631242
0.44617434949938684 0.22046810779559678 0.07004444426010537
0.6543976200593704 0.29806015306809286 -0.03538612833148136
0.265765904889264 0.2578567329241679 0.04160817261616501
0.5057574919220258 0.21408277064536207 -0.056360435468349124
0.4583076094736498 0.1802854491021435 -0.053990908576935226
0.5464769899542574 0.2647083229580858 -0.04896502733679142
0.4959729413184135 0.19951485178303585 -0.07781391517102065
0.5045616568575895 0.21790037882657032 -0.045792348413897344
0.5262117744943566 0.21145179310133244 -0.028196131864973495
0.41037218465099556 0.23426798672140592 -0.08359344649647937
0.46177145722764124 0.18078367362477366 -0.041512846670812564
0.47046163396031204 0.197884427897705 -0.030811341274272763
0.4597291064622624 0.20671821604386764 -0.03566607076645312
0.5841865469561185 0.23074497097034907 -0.043582828257271444
0.48007807011086356 0.15921606216818418 -0.16008071125952483
0.44940494493785366 0.17664622647542672 -0.02250501063950594
0.7348368232270559 0.20073451690966237 -0.21187442007281732
0.47641038495866894 0.20176698878309196 -0.03868701972206168
0.4567718291403082 0.20557941688929304 0.01940667690139719
0.35781286456979444 0.18223183092695194 -0.04885517546154006
0.4995535798096995 0.19666091950581688 -0.011825558384600754
0.5220804887671022 0.19357304528912778 -0.09634258920885941
0.4848178325310357 0.19565289768885918 -0.0433303696440106
0.8100508008156737 0.15685463259137578 0.06920541641912337
0.54696388227228 0.23506108368289347 -0.07857614340841224
0.4223582050894237 0.16727703208839273 -0.027286455894298456
0.5645813419088483 0.14417621976986084 0.07207042284809972
0.5201949015169305 0.17318080733789998 -0.11060846606110886
0.4822760895744693 0.1964240590333759 -0.0812087705412523
0.4841232247579228 0.16818540341294863 -0.07839677127969935
0.4680026615954773 0.24134272761618547 0.026533389535075003
0.4845923172165527 0.20075184055554018 -0.03743028335625809
0.46396562044979817 0.20759728866576665 -0.05994723609103403
0.4159656438315267 0.2126214861144149 0.08388234087841795
0.46534502691602597 0.2409699795489928 0.03114978957236758
0.42343410947675864 0.1985206285610559 -0.03163141588643725
0.6866575058207047 0.2077573348794175 0.203337714218236
0.291852170373744 0.15444839964352752 0.10677022100568934
0.5570503186588383 0.2541577482205355 -0.05053347920497231
0.5306448173360678 0.2952739874142196 -0.0718658804269694
0.43761880016849375 0.17970343716018533 -0.02980452248860388
0.35258724306423517 0.08622158164511973 0.0058108761105302165
0.45292007768215115 0.24165413380632117 0.11078221478348382
0.5033765999541089 0.2097607272250741 0.02771429454958252
0.44088196165779436 0.22403226309401703 0.019929103769229073
0.5660684954041102 0.7746427580987358 -0.020605784163393537
0.41507822026248675 0.11868668597921328 -0.07729571270149904
0.3730229869878201 0.2105234744266511 -0.02583609094311612
0.4582847957002798 0.19016741096777423 -0.029726221433236333
0.4694338174325594 0.20614876192868792 -0.03533469658680133
0.5121476552486683 0.3224620056241747 -0.0935210544372751
0.4760664572966107 0.20088786460344465 -0.030449386228866615
0.45974866345100907 0.2012096573288602 0.0007358270192980854
0.3234392083090114 0.20012980875105768 -0.051168350762822
0.4817980051271178 0.21622987452663267 -0.023551034125461
0.47644848457143496 0.20315021880315953 -0.08947054728562875
0.45371993006796174 0.12750964433665501 -0.057394911602727916
0.41629745052303235 0.20727825300090785 -0.09905197277286959
0.3727304088137231 0.2278538979301743 0.09390582070447806
0.4826113742710305 0.18560324458766786 -0.04379952852224278
0.4881912540429454 0.22605072107366198 -0.05742704947280686
0.5123245191363139 0.17054034751870972 -0.07534463475482767
0.4342439786727539 0.1980429248858684 -0.02280107981127344
0.5571411167165223 0.08998154553954407 -0.12012536058233536
0.5420136921928247 0.20465133634081667 -0.04299869640423992
1.0236899917338036 1.1146121376255564 0.2223698001674279
0.44910130341368415 0.15161716281838267 -0.12299169304915836
0.48919487059913536 0.22373138491643374 -0.056093151854412326
0.4289862485705953 0.20043989098090265 -0.009931715694250443
0.40436295315512893 0.1724864764144911 -0.01867412850182859
0.4612786316925792 0.19372138299090125 -0.03313461130983342
0.45872574731917837 0.14994855071793722 -0.0996890918517579
-0.23989519844744223 0.8973018284668655 0.37490222551312513
0.41962244376355784 0.012033297261453413 -0.02659974618063643
0.4722891525791937 0.16856390390857712 -0.1267182483811382
0.42277224606047525 0.24858446050835425 0.031225838436995446
0.5112273736476425 0.24334884407173263 -0.03073151438223931
0.536384068339629 0.22313639497976112 -0.05022701497118476
0.4958344392231311 0.19805841291562842 -0.05808500736429778
0.5078382873961829 0.2485061872432368 -0.005045571086469636
0.483706947134948 0.10588996641305926 -0.07871721698046485
0.45583104040717615 0.22664901575998897 0.009587430393168006
0.4398511924387378 0.24905183569023848 0.0421356814040621
0.45022841796381385 0.17482832754605226 -0.052386973552856375
0.4273905050107203 0.3246276048947152 0.08190559241515416
0.44797979213574024 0.22807381968237905 -0.03732225263905775
0.690717909120167 0.08522672073354443 0.41044713369504393
0.5007538019995508 0.1764661826892393 -0.058425623720381736
0.3969863492542487 0.19787188585871718 -0.03371456361173841
0.5846051866433726 0.28794407607566086 -0.16501086208310767
0.5084902451957589 0.21053333470038638 -0.03822634557829474
0.4470357255460726 0.23741018185012308 0.03194399041930751
0.5000412685267577 0.21646230683448664 -0.07629293170370488
0.524246213345748 0.23940798126223228 -0.027010178498201753
0.37496885047094963 0.19918163276609846 0.02790961119512758
0.5314430846889024 0.2810199701529399 -0.13708191374036005
0.48132866476719016 0.18567016883979193 -0.046143104066516116
0.47855726316093694 0.21196231982318636 -0.06608350096038862
0.5002212999468583 0.278269239112376 -0.14706525364577772
0.5027547056451311 0.16382461569679663 -0.0820318446545798
0.5088990227765464 0.20132393250227665 -0.05404271530331073
0.46039554789082615 0.24871673503724878 -0.024219341091139768
0.6268987655614353 0.24157328007285628 -0.05180890426277074
0.43866926817763385 0.19478746188451623 -0.05514870419915496
0.42731545517459324 0.22697299934694115 0.049209099523494615
0.43750735463095225 0.2348740796720108 0.05044205578855099
0.4113542152993688 0.13866398878656128 -0.042582441768047374
0.4803560570953067 0.18652088553071167 -0.0856382215838778
0.40333268559562896 0.19300329346984313 -0.04091089560375849
0.39373410685011834 0.19533557260149337 -0.041672280317371246
0.4868191128196173 0.183612853925041 -0.0806829874907038
0.5120257973914164 0.20982918391320027 -0.06361229107811539
0.45381590133024474 0.20120521396520985 -0.032458949082325717
0.4540972436177526 0.18212832944834645 -0.017411618181796484
0.43324890557778417 0.20446900340833452 0.008419611105381364
0.5058120961145534 0.21879989350259166 -0.03623374482106101
0.44849115806417217 0.22937278465198574 0.11932002606903325
0.42539538122541387 0.21515810866388563 -0.09748182431411578
0.5150220800620104 0.1753284715067025 -0.12288756047266247
0.42187939215727965 0.20814388608057754 -0.03049309926876731
0.46899356389548075 0.16717526619106593 -0.03613052075090195
0.38194638012609516 0.12173403941645233 -0.03724019271948009
0.49056727348241225 0.21327429642568063 -0.05912835958457663
0.3954797058207049 0.24272754528034568 0.013517956827229227
0.4978667139180999 0.22338176001440502 -0.04091918683324991
0.4873332469039724 0.22524699387076907 -0.0009776220777695244
0.5122734086397998 0.12026613358843008 -0.10170426130096644
0.522147241710158 0.2399152977649237 -0.10544423295343108
0.4590342122728259 0.16218008972515463 -0.05434584851845159
0.48104254472735875 0.2096403356924128 -0.05359709133699653
0.4910164482739958 0.2067303036585315 -0.11189373810915981
0.4670397333244125 0.19013784203669104 -0.021743128373060472
0.5184440334158609 0.2911752757669177 0.03797121235365353
0.4914342047396332 0.18889286417136475 -0.061295646176475316
0.41982907182676854 0.16228155985541548 0.04764789364008948
0.4107371427458588 0.26847025752027776 0.09529371237107398
0.5976424787468915 0.2977158405999205 -0.00574515476634474
0.474820004636598 0.19728857513837283 -0.04101549619956302
0.4137618220349708 0.17370999235791373 -0.025262091453882363
0.4943950484200883 0.24490926165064764 0.033553189119231774
0.5427312485615658 0.20260707389806498 -0.02087112273208902
0.4409193882942475 0.19821737493560931 0.004848407036220692
0.48694112154919367 0.1913546191189539 -0.07382198338089552
0.4175022718368524 0.2530768365482743 -0.009369711599575226
0.542221927889571 0.3179876664964354 0.008417336863047353
0.4494903702464086 0.21564054310425718 0.008642270233764293
0.49246781843980614 0.17774860853631935 -0.02159874308175347
0.45144730266112276 0.17868596706949802 -0.022926562992097388
0.4653417806771216 0.2189999131380489 0.04052094489134106
0.4952628546889031 0.20850130061151617 -0.0838492588084705
0.4539864867723793 0.18840566318861818 -0.03782838644451658
0.47255389485918897 0.19260983411952282 -0.023585180886016133
0.4705290610955615 0.19692484837470658 -0.029721515820753552
0.6978300898217213 0.8394030316222683 0.13014078919339056
0.45953759889522416 0.19188060511768867 -0.04322426085138886
0.5209003726961328 0.1449258807097351 -0.1556958904708381
0.48551736845713833 0.19459183829749804 -0.05680068687385642
0.5319031924752267 0.22032814703553072 -0.04838235103446209
0.5040901390000556 0.17921454055695563 -0.0977098437333268
0.5099391468143182 0.1787890950825215 -0.09762434924095942
0.4876316415938078 0.1983140987278489 -0.04467430363379776
0.5814673074382029 0.2834393828134978 -0.058696458022225784
0.43465289880123237 0.1716712165271872 -0.061983472393080774
0.4963373803312976 0.21325769018906726 -0.08528554955836398
0.5299581454443114 0.18418784900426033 -0.08651536692656236
0.5295224770367639 0.23272451255525084 -0.023776110020946817
0.4661164740094961 0.19592028791547023 -0.01789326608550823
0.4764516679745583 0.19166085413253597 -0.04185620686970992
0.5099140924959045 0.09502150971039214 -0.06922972672558103
0.42627473186915665 0.17874516678270425 -0.12081725600262416
0.4644271793049626 0.1790749046044482 0.02608728716444375
0.4111866650407592 0.1656400994202727 -0.04693931520711203
1.090382653805321 0.4578161806336567 -0.4725234892332253
0.4618231855237127 0.16056748118853648 -0.025712548626344756
0.46132751427100516 0.18488376382737215 -0.024082877411331083
0.46122432237932287 0.1971249437314384 -0.026095856833904918
0.5062906398119793 0.21648370608451728 -0.03863643062005906
0.5028725304044173 0.17334977370802562 -0.09660046892784635
0.43729968286075405 0.2045645448168898 -0.09328638911503617
0.4716601628778392 0.1888572718388275 -0.05618619930115187
0.463224412297464 0.20105442690200448 -0.03585806275532377
0.44428660741309045 0.20094665985826055 0.0016088253156283372
0.47068125689925466 0.20876583171177288 -0.034694635329572066
0.38710698231884066 0.27260264703153325 -0.052441584054562895
0.4368300628648001 0.16677773748594404 -0.024754747151106926
0.4607298952388561 0.20408742574915095 -0.08160597588943119
0.46307102891732654 0.2226764939067749 -0.004373372212313598
0.5354789880516222 0.23389460894807712 -0.06944589533787848
0.4889018506383138 0.22052262937893374 -0.024631809540949234
0.48250608525239613 0.20222385253052266 -0.06880235338181251
0.490717405394534 0.23096560627209328 0.09978046903626137
0.4759315485917881 0.19408857389350942 -0.07766114823681391
0.4484855721523644 0.16110512548056022 -0.058791846859506336
0.49937427556943703 0.18500448042804862 -0.09568234713623269
0.5352345473656612 0.21655110279513679 -0.08921154358614558
0.41377084530383 0.21343574972884483 0.04937255747114477
0.40442119314269576 0.15376444841268722 -0.008641940179614949
0.5303915471122593 -0.021761604050922756 -0.38909787899090986
0.6544779787766117 0.17972047519342027 0.4704477658007846
0.48223144242192006 0.16517225595973173 -0.03576883687370014
0.5091392906950318 0.24430873571520806 -0.056862497001930024
0.4049728730603306 0.2431344878177697 0.00037861447914622204
0.39784598775933944 0.1324312783022208 -0.11167214543101522
0.5345173769169946 0.26692783158667055 -0.12301888587106191
0.42908415402078504 0.17540501303284373 0.03244921251581445
0.4421431690047797 0.16371300391503496 -0.024024639375397783
0.07676870832018778 0.583153221069864 -0.27533413937251794
0.3814736171884334 0.16556066990783336 -0.001703628629016407
0.4745487305227556 0.15335832840077046 -0.03601490284786735
0.4006617206874665 0.18826646545514336 0.015123083962151895
0.5349021087058929 0.20232975408819698 -0.08598728909717579
0.5211723602924536 0.2462503332327941 -0.11494371810448456
0.44646704959718875 0.20003272043712172 -0.04777761378198875
0.4884382906387259 0.21199844636154808 -0.03554929392271333
0.41872145340850864 0.15727561385494937 -0.09167648634162617
0.48202946029935845 0.21978262204019927 -0.005710438663669493
0.4861047522627189 0.23984975069274128 -0.017288011623790567
0.48603616915205805 0.21952992310002628 -0.011086368492698284
0.5068892576259003 0.22647856071782257 -0.01729562945985208
0.4960032568933883 0.1736187441396737 -0.07824212276688058
0.43067756604999374 0.19004911058169682 -0.05807210124940809
0.4849358782235669 0.22819737693740194 -0.011408277638992104
0.7186991259755473 0.28558051697606857 -0.05425233785456385
0.4960431998828483 0.16367142604420337 -0.06923249684723487
0.4417091847763288 0.20033904670204095 -0.01745184382644993
0.5545893799389603 0.176933162799898 -0.09206089319462762
0.4331808649196347 0.17967939753212647 -0.08859696620748991
0.49950187448452255 0.217328966289557 -0.00892360593303465
0.4732122512104411 0.2153698140118081 0.008342094221035268
0.5169579295262139 0.1672083378829683 -0.08333686091219761
0.5576317952806846 0.22201327225812406 -0.09478799313035324
0.4180637754471235 0.1441043824754047 -0.03499798182598113
0.4922975716182947 0.2279918967574872 -0.06598397774816078
0.4686701406452016 0.16511699166792937 -0.042782387317032544
0.4412327504135902 0.21216415547256418 -0.09004850065142023
0.4953747145892322 0.21562048344813434 -0.026727519591162263
0.4377384054267708 0.2059522080114391 -0.04329063283429946
0.3845927683984769 0.16118278409878428 0.02868888447176232
0.5184452139758378 0.13627791158072 -0.14136930835915962
0.22189487660466511 0.4010700932575446 -0.3774950905468728
0.5006983697105909 0.27383983579071014 0.006530158761506755
0.4815167938425873 0.2566721593655217 -0.034942959423261755
0.5835846922603736 0.29287437917298575 -0.052405988938573955
0.4135119162864811 0.21385104172520641 -0.011789465860175596
0.4577001826918661 0.16680600335322993 -0.06682177365814823
0.4961568895405577 0.10696274707612474 -0.07488227779961676
0.45127210829539877 0.21326896944245277 -0.010889053797740189
0.44565820728882954 0.17249779738369853 -0.011592502539443217
0.7318607130607546 0.21418028803488198 -0.01218945415627104
0.47926153231421154 0.20593390667572464 0.04779079802742103
0.5405938981209886 0.25132129740191544 0.012438960757691575
0.27290176743686345 0.22257947056390037 -0.041443741452567906
0.4684404355861318 0.17897575997588433 -0.09844935571112501
0.4623409809611019 0.2091902120894531 -0.016678990427209328
0.47852562428778356 0.2196640292661698 -0.010162765689472053
0.423203298372016 0.19216019319758004 0.0027494721323080284
0.48917896510326386 0.18734981651863336 -0.1525480467460909
0.43912619213877235 0.11786078867278604 -0.09652264405418975
0.5861505306024668 0.20835685816425098 -0.11757096542135059
0.5300987894394638 0.20550305151765258 -0.09660865051283452
0.43144537887579304 0.11289662973885584 -0.060492500340160404
0.46662320193007645 0.19108465383136775 -0.07435707775132983
0.4575713049034391 0.14954549138590778 -0.03862600149888351
0.524807876997599 0.143910034999422 -0.07771122949385756
0.6104769210050165 0.26204520912098417 0.004683182570815347
0.5617923031435197 0.17733834799633996 -0.09023903177410375
0.5014382024858861 0.19474663078874244 -0.05905355465327489
0.48028244965216516 0.1844963392642569 -0.04695152611101605
0.46757346607978434 0.22301379306125568 -0.010860351439944793
0.5323005202659772 0.24365609408735622 -0.04157206111135281
0.5730172760409857 0.24661956377065053 -0.035645978157219815
0.4619396712506614 0.22433406347717266 0.021367781973140154
0.46345881642125164 0.22131348512985483 -0.035545282722551974
0.6596865312915128 0.28001394604567054 0.15623974536600826
0.42648424570127474 0.16706949613188726 -0.020513110388691302
0.49493013578054956 0.1812350634280051 -0.05386224723116584
0.5422014160290303 0.24904486542976656 0.03473132100366172
0.4652701595374822 0.1936705634578999 -0.03678444254074975
0.4658591620446515 0.19532928952371265 -0.04020670625689604
0.44452620059658443 0.157746305030372 -0.02566458391166293
0.4774138462620101 0.2015802511494087 -0.04587321909522757
0.5127745676266926 0.17917958769974973 -0.06580066746712987
0.5108863688164433 0.23907367631136367 -0.11528614143281857
0.45639856653950517 0.23732437868903844 0.0020249376333083546
0.4577708076803759 0.1871794672285887 -0.017811000325252735
0.4195317762634545 0.1426633932341872 -0.10967042314089781
0.4876085346904091 0.23857498672646216 -0.02005620668963104
0.4989090249498531 0.18894056026077521 0.009864242496689712
0.447320625892516 0.23776476501024035 -0.0025130772049806183
0.4958827166316553 0.19876209071311735 -0.07778958882191489
0.5026428340703575 0.2500864818558739 0.008717745589763126
0.40109980554167635 0.1855258737307821 -0.03575453768007719
0.46375057117286644 0.18984252091951248 -0.0563614688570766
0.501897615242612 0.22023684800784338 -0.03340668346362463
0.4901342039500207 0.23147904090782845 -0.0022761994376025996
0.46938081251607855 0.16941304283690783 -0.1107653347084181
0.4381156869374365 0.13678697927525718 -0.037933190828951524
0.4721259383343579 0.2176138002175776 -0.11767137921489734
0.46363385576388794 0.1949746534377823 -0.015428774697568315
