# .PCD v0.7 - Point Cloud Data file format
VERSION .7
FIELDS x y z
SIZE 4 4 4 
TYPE F F F 
COUNT 1 1 1 
WIDTH 796
HEIGHT 1 
VIEWPOINT 0 0 0 1 0 0 0 
POINTS 796
DATA ascii 
0.4466290767354337 0.25149321826802407 0.06886643725160013
0.4862868680293104 0.23838482684618612 -0.04787181254781103
0.4884478561373413 0.20744386467147535 -0.004573521849692952
0.38308033651388484 0.06620789541770478 -0.12398546141322697
0.4637915551950442 0.18177497722778924 -0.027428343736843885
0.41144356893559575 0.1686164425288581 -0.018110629855186744
0.4957876089409865 0.2801692417314996 0.015312944925895522
0.46667863230412365 0.22459809757344829 0.00984535858334823
0.385451162227298 0.21998353936564286 0.02677740319585098
0.4972953099269404 0.22171611587450002 -0.021964476273410583
0.4823172133209681 0.2383614708298012 0.02903512995541746
0.43046881598765196 0.18565716574593694 -0.025521739234989127
0.4432777355312538 0.23360406299934766 0.033909818739999764
0.568621856122121 0.31191793387498024 0.11729335998096246
0.43587495632323225 0.24492505116919006 -0.05502596627107437
0.46377491594387266 0.19923238330328275 -0.027597382225820866
0.4330510548022488 0.18945287359181862 -0.017669591332904133
0.47670083715773615 0.2053124851014445 -0.039254907143799755
0.39410273672655194 0.1394058848273403 0.005148099135567463
0.45211025725593856 0.18379906626289255 -0.08452707811935056
0.4972380185668328 0.1963139453791598 -0.051805480952310745
0.46640815548482806 0.19227514151378955 -0.05963696306386623
0.5202705275062129 0.010265216254026654 -0.36854321376493715
0.4628655830217667 0.1873319907872144 -0.04318103541157825
0.4704913739772252 0.20127703643828454 -0.027981017554338905
0.3445290981136111 0.16823038671248014 0.033340144028045415
0.4497943609279531 0.19545141107305142 -0.036408733917795644
0.4610227678005856 0.21720074253181565 -0.003919645009403894
0.19583496893049812 0.5614193617550569 -0.2579947276806678
0.4316743480546563 0.2050156293489067 0.05727394051501733
0.4954473611198722 0.15716352473071993 -0.06294082731812978
0.4538946212119299 0.23619431534704916 0.015701033477370174
0.5194205858179117 0.2539106006297942 -0.025724648021110852
0.4408839765513619 0.1935353561831903 0.038474725265359666
0.5596939155284701 0.1490481701276707 -0.12714609522160458
0.4771127991860453 0.2157807702222243 -0.01307890931823863
0.47285514526642203 0.20498697143469258 -0.03520763648188563
0.4755481806050881 0.16635667457015302 -0.06257852216509718
0.46392635981354147 0.16300900569736143 -0.060195139185083235
0.5005810184623414 0.1829124651776226 -0.07884328173835797
0.4320859165215012 0.17749640731392446 -0.031357660369152995
0.525153134995108 0.15260410687082526 -0.12134983051646486
0.46078701985547355 0.23949566456558102 -0.06650832131680318
0.5194423113376416 0.22286705763923464 -0.039874990563120605
0.5064821982625318 0.24343308014806553 -0.04076405659593263
0.47325479795982517 0.18432401150796807 -0.0796469890030238
0.45982429572191563 0.16820642259528995 -0.12493227246794447
0.5060647676369854 0.2184719837806881 -0.07285193326580952
0.43400004033860284 0.20585117320126756 -0.09577944353549128
0.5445461253728041 0.2566333953313631 0.08558002603714954
0.7044686766743951 -0.02204512790581248 0.10067492305662995
0.4127130938540944 0.30416130847957845 -0.05625553354063584
0.5908835192643238 0.24042451679227383 -0.20545796664481486
0.4743046288222814 0.20486387825152974 -0.009250012847616063
0.5128002660262467 0.18726787863135996 -0.05547257493955726
0.5034125872736723 0.189961824182717 -0.04294907350424637
0.43116062402846467 0.17627656575875505 -0.035139599048704895
0.4980719957120101 0.22341660008270026 0.044337748412317524
0.49695591269677664 0.1891800345423036 -0.06838128055247239
0.47444276053136036 0.25536391159894833 0.009601256451588824
0.5011561982104382 0.2012816491423166 -0.060028112402775946
0.48780159167404236 0.21183188987345147 0.004416944396410827
0.5177865291666706 0.24404593501870409 0.015918839686534625
0.48852502041363266 0.18039193527283715 -0.06373661264930774
0.470700108428872 0.18788267769132005 -0.02177951569706238
0.4349913999422341 0.2776163318254419 -0.02031843984354964
0.38350601765991144 0.13112645686632618 -0.006228435853827818
0.38885507859646395 0.23488149778825118 0.00931898813118437
0.5292241318349937 0.22955245118474465 -0.060104236406118616
0.11080354694647099 0.12507410016087306 -0.08448010213894008
0.5176218376237074 0.19582208031788184 -0.07778518674918189
0.4436640828963476 0.2775721206984514 0.11918897207320356
0.5596603725803249 0.2345256200228789 -0.27144725206656517
0.47134060906319064 0.15530026217649606 -0.04404156231169054
0.45900358000379526 0.2311115611921366 0.013155691971178385
0.36504006406464384 0.15421427675822486 -0.041315519228618314
0.45916990710325933 0.18638650967461956 -0.05338441884640588
0.4158783546481004 0.18630124484286625 -0.010183018089080065
0.6991473879893988 -0.08388377584712714 -0.6076603871388357
0.4807739809532734 0.2023035913812663 -0.15417436125821382
0.4574736916231501 0.218161086159796 -0.014040540447425087
0.3985708433884838 0.16785701000593178 -0.04491049104456124
0.41985316911085135 0.1822258231712084 -0.14705867656191174
0.424776260168116 0.14980334299616516 -0.11830065324599559
0.46318277733521995 0.213569443413121 -0.09783388832630635
0.44413540607637003 0.14957191743548037 -0.08591433996153341
0.4844566284768206 0.23277308700383514 -0.007452434590049961
0.4322481108002876 0.18887206476222218 -0.016444444160498506
0.40213949817533035 0.27418619380667053 0.035106236776101696
0.5169956858336207 0.2589171970284667 0.022529546287017865
0.39933382550324836 0.15579406156500397 -0.04537797621189554
0.31237467551521547 0.22761175486670027 -0.07959698752290478
0.5911245218278225 0.20082013404599763 -0.23135580860122218
0.46240045131794716 0.22191018190588352 -0.11974233173370408
0.434437431236546 0.19743306481957745 0.016277652984541646
0.4281993998472018 0.1897472146532948 -0.011126163870585515
0.45765588508817245 0.19497302274416484 -0.06444557796709205
0.4332479293145042 0.21204690426536388 -0.038855494172310046
0.5482430549754724 0.232086893146203 -0.05771785488465753
0.4742568706545143 0.19313949608491043 -0.04470453497435756
0.4582799120813661 0.19565642007214024 -0.04130118641421632
0.4011910757789252 0.15074505858726184 0.016087242786028355
0.45709174639316075 0.19523437855097825 -0.038591208703849134
0.18485563529652893 0.17201207903769955 0.004554234310603533
0.4514381344770868 0.17437364681981649 -0.03457433392850362
0.43052702617401906 0.2473622713119994 -0.002373623226716859
0.5271581570658412 0.2988408871823651 -0.04650036310479777
0.4631042742150697 0.186285530735546 -0.02040795945096363
0.5303121616522048 0.1645721723178326 -0.028695369547804717
0.5118037568310001 0.2422692280414367 -0.019216401016365126
0.4953954609141249 0.14153288808884668 -0.13842833210716776
0.5029570513541728 0.26346670135566796 0.0334758286097383
0.43498558062997006 0.1794366705190953 -0.0046493238200184805
0.4634233696770309 0.2275141313628808 -0.046290468892010495
0.4436835180234766 0.2394343664805092 0.05492908433492971
0.5383591357262532 0.24300914084042802 -0.026993810553619824
0.487315099289404 0.1899547674982216 -0.05676280963592717
0.47493442481334114 0.1817756438135376 -0.03559546349671905
0.45738011672229106 0.18855323654383938 -0.01604809498590498
0.47331409247766487 0.2047637138208529 -0.0336387205388462
0.3921246876258948 0.13642838630201481 -0.06959359054802405
0.46939614453938816 0.21274758181556308 -0.030097842846942058
0.47209274831905645 0.17894564185755257 -0.029525403613746448
0.45697147629209667 0.2070068343168998 -0.025202716567179095
0.46906963536692103 0.25309577014327544 0.00287207059406569
0.512435903028873 0.18960505864581023 -0.055536519554934216
0.5605161571509569 0.2436618727235782 -0.05032501970366354
0.4509741002135286 0.2349560308400669 0.010393431728459746
0.4896191913772441 0.22688984297107595 -0.04247210858025596
0.5688036939139636 0.2383373496079173 -0.05446312212851012
0.4918094471919545 0.19006204510537827 -0.05040390548299456
0.4626695193924917 0.2396471832710887 0.04181631364633631
0.6248422767320108 0.21340101753791885 -0.3606597658132671
0.5136577635888813 0.28752812328299626 0.037137189527683745
0.47331569463008805 0.2771219427263816 0.005133742604016334
0.5922626768981587 0.21939746138562555 -0.09007089574151905
0.4180304119246614 0.18836592755090464 0.017197032160595427
0.4665801525014217 0.1726024221521243 -0.05288530367275257
0.4329279852201182 0.18066984855745716 -0.01650715653180157
0.49795260037770106 0.31247908074763586 0.039356476976024624
0.5039242492939593 0.19535257295767394 -0.033510256536260385
0.4564810443285978 0.16607159413787542 -0.08158209343304179
0.45110460254034024 0.21308562552371768 0.04322564359162584
0.4052684339311412 0.27083137784741496 0.07233454822389263
0.4635437639847453 0.21181585944064807 -0.025627452136404827
0.4384975622529197 0.196138547959805 0.007132435250383651
0.5074312647390826 0.18032533804506556 -0.04029032230322116
0.49631755650153764 0.2036155823903414 -0.05419071763387251
0.5074086594846676 0.2767549286055697 -0.027179044412093845
0.479484787296812 0.16632586070531374 -0.06873014991404602
0.45843212415924484 0.1975071937101518 -0.033355185845493907
0.5372721303309902 0.26973289842206327 -0.03210569582614653
0.45967724384532005 0.1280481487576992 -0.1348189375175366
0.4097036859920422 0.16061672060519072 -0.11641148809351876
0.39687569912237564 0.09577720245292198 -0.03864646613268974
0.44480581086999393 0.3062005824471612 0.07099437414771614
0.4521122516959508 0.20049683817211417 -0.024657541514784498
0.39036880220145065 0.1931983682275984 -0.08420831541693019
0.4525926179411073 0.18110289970792337 -0.0634294727542084
0.5100616821680148 0.22937115449801126 -0.05015298489769293
0.4654335572383701 0.2083000506731736 -0.029225961336820205
0.7407351543926808 0.16480381440524638 -0.07944595341979266
0.4189550659456671 0.19877440521653966 -0.0336700049465577
0.4554775673146736 0.23144771718170887 0.013804972988566533
0.4434560149156539 0.22168131885705122 -0.016037787742561704
0.5321761096137294 0.1386215287274979 -0.12578724335610048
0.43490049180442725 0.20042583995083874 0.016974953061193787
0.44430076726447965 0.21269569661137666 -0.00529258553952161
0.5152484823739201 0.20198084911616832 -0.06402495383866835
0.5046516089354611 0.24180602729470024 -0.02457768614408451
0.5477877256674901 0.21760319399265882 -0.041587810920105994
0.4403606485626881 0.15257316548783706 -0.06271577274617357
0.5588707559377184 0.2560057353141758 -0.055594705987005
0.6112884431538106 0.18735695672097563 -0.20704432075146428
0.4807706293693741 0.21104652438270932 -0.06065096754818455
0.4567285820944136 0.233714504457339 0.046865503473839
0.46837257171333135 0.22995924325664419 0.032328994077261086
0.4565106631636553 0.2054645784054543 -0.03561337217419691
0.46264860206515834 0.179849222173317 -0.06425535729218268
0.44902773884153646 0.21209356357533693 -0.0107613707399139
0.4525763314882454 0.2000162472264435 -0.02951559960673933
0.49926833905205115 0.10145757087568086 -0.08399194622175798
0.4110874043862225 0.13158805364817283 0.03320058036845808
0.46777045088103364 0.15493237966725815 -0.06569001983964995
0.45426918099755653 0.2608309922132719 0.040800593537241525
0.44688907306269243 0.20033659721218555 -0.028944060734744426
0.4609396794484013 0.128850033230421 -0.08209130965448708
0.5711596578318421 0.21504244854747867 -0.05693509876027747
0.3271847086237045 0.2120552734811838 0.09366959991550061
0.46022801094574106 0.2109282601452378 -0.01300686781286231
0.432181524930499 0.1625679064537735 -0.06614697694365645
0.431747577545309 0.16688257777764193 -0.1007969567576339
0.48045886571281926 0.1914033450055399 -0.04836755105012003
0.5616908583090066 0.2498193955496788 -0.04751393789720737
0.5093814608946303 0.22498569840121263 -0.056409673757997325
0.5248529677620013 0.18053876725636542 -0.036454327148788934
0.46275406111017503 0.21257220815245148 0.008467689789341648
0.40718054330585574 0.16160633434395777 -0.07186505988303793
0.4270469361418492 0.15357347095499563 -0.05838359319656661
0.5336651696812424 0.20598828689281845 -0.09955919451255113
0.45778253498245647 0.1896629935636156 -0.032715088329041464
0.43377714780143606 0.20042547759007334 -0.09602206623290499
0.47655196070405736 0.12064831694883082 -0.191082792873857
0.5328546271450989 0.1691486371622659 -0.11816264510446217
0.49863062023895566 0.17364223759665265 -0.1665623626436883
0.40357809449170645 0.15690285113829816 -0.035474993789904374
0.5946733552909649 0.24324242749925418 -0.10506422415016914
0.45429421518787194 0.1556762899286639 -0.07804467116810088
0.4396644269132821 0.1854182656877157 0.03089054718803652
0.5463500677693247 0.25743369616614586 -0.23087030848601842
0.4125822088376907 0.19576806976365901 0.04746749974958675
0.45710463096369836 0.20559417707558225 -0.017525920823615593
0.4083824113816945 0.22795621755510354 0.16225133889994936
0.4701414685757612 0.1391989450745541 -0.048022442407912536
0.38831956315840443 0.24584801597319483 0.0842945213970836
0.49418963030909424 0.23688042525834874 0.01372605695820539
0.5632336711907016 0.2013986627688098 -0.04719014180557224
0.5172196246310676 0.16874124729332607 -0.05909940428611549
0.4501106082916664 0.18959855553407579 -0.02659456608434141
0.889196483023099 0.37514563889342867 0.3968597721548264
0.49750698135918014 0.2517422127945679 0.00839091353651611
0.46929923511193294 0.18921310167220895 -0.05350455081224936
0.46483634021628006 0.18590542873789673 -0.03182974018027096
0.4709664836698835 0.17804153862999783 -0.03692976181370966
0.4679241765192188 0.20831147597657207 -0.005944841578710225
-0.14892026499455824 0.6255887108390255 -0.06289192796771204
0.46851886020611744 0.17764393877725126 -0.0368312520088665
0.49885461992147384 0.1926430753597117 -0.08070038607696972
0.5561465112298691 0.23493401309750084 -0.06844581367026592
0.44972322061163084 0.27842995354569666 0.034261188808329734
0.45269505661873666 0.27809228386419704 0.02234117366349153
0.5207396674659179 0.1846565015636088 -0.14369979160824187
0.3707260328666706 0.16054938137095576 -0.03671772558909936
0.46057687887471843 0.18284675483826618 -0.054082654062227675
0.4647363629954242 0.17067460082522246 -0.07919002486478632
0.4964371641170544 0.20260875937842115 -0.041450981392813446
0.86540081874017 0.357200120878332 0.3146508778935839
0.4162750323679205 0.1712764303025267 0.01703681139474611
0.8042176496394546 0.17456919082277977 0.09345886265016645
0.3842538863627425 0.2773857981276535 0.033592851057136386
0.4521575464000023 0.2234402791744401 0.014436415227123689
0.3666594769410807 0.1582311421601048 -0.020865964502746692
0.4494207667399479 0.22424559935180355 -0.01892664206056338
0.45272730114247395 0.19961016529630626 -0.032706131526481386
0.46207641525757026 0.23217653860154996 0.03257310585283335
0.4307798752284384 0.18682610196080418 -0.02118900451282002
0.45097021055258324 0.20024807715391546 -0.023763734885704935
0.3658654533340666 0.16724645002918237 -0.022605301903212194
0.5099237285353269 0.2117926579394407 0.045884689750934626
0.4883940434971663 0.23057355178940497 -0.007098216273874414
0.46847019234833454 0.23257191265128085 -0.011593182995994766
0.41195355668585876 0.10898254845426436 -0.1216648751127849
0.4795133523100361 0.19921847050025576 -0.07193242313371684
0.45756583330555145 0.18535340089854913 -0.011824851307324025
0.5159856040950643 0.1954936702039589 -0.10250421230759343
0.4492789831138566 0.20928037837828128 0.0038322729827768853
0.07038721188138197 -0.08069890593657192 0.9077301488546681
0.6694239601294356 0.65444791083533 0.9141321597411718
0.47307891486509845 0.2138748595869231 -0.0281108912940482
0.4011336632343472 0.17411927190744336 -0.013719979145278671
0.4215440978266969 0.1649332067900673 -0.05358826840202369
0.5652392051433992 0.13780931127091378 -0.07273658546318984
0.4134095825680504 0.2245583210451656 0.026518553993724936
0.5631729576894458 0.2181524539269475 -0.09862426621623399
0.5603859152493555 0.21576547294276338 -0.11487796469114642
0.45583850508562307 0.1680523442647086 -0.0860090166701184
0.581943410156029 0.25576084074360494 -0.027590430988027492
0.3602712716924117 0.09245023198718627 0.11685241381375988
0.4987865617711833 0.21416187850196877 -0.04080879158674122
0.5324681239737714 0.2212434190076067 -0.06435495367719568
0.39255540213453344 0.16591935114254852 0.01814349101206858
0.46065851916984 0.20856457015608498 0.07020322901875886
0.5844473863830899 0.22272775045799165 -0.028870702594502973
0.47881960063914164 0.2130100260908705 -0.14039504254243695
0.580104724889452 0.18337074871148218 -0.027779767146341783
0.44941125212913846 0.17867597034793903 -0.03260922558278878
0.4839883982383384 0.18869499934609735 -0.04455969241033131
0.5075670530301579 0.1692451037522602 -0.11245594833278005
0.48404192458750117 0.18807754029451473 -0.016265230724513913
0.495987083563719 0.3097120821593933 0.013037518098172995
0.4750739851493364 0.19306127984987143 -0.09005667535294037
-9.817330850588604 0.9276349405451185 -6.566391270972247
0.4267389752542954 0.1396962177551586 -0.07230193652003436
0.425786945106168 0.1960162097985858 0.021718909068283665
0.4947295512109662 0.24101185588514795 0.01742543639565497
0.56392458757567 0.20226860647794354 -0.07762908989933237
0.4287016408367492 0.18687131611225993 -0.019622456567020663
0.42616537568682133 0.22228927669712562 -0.01836304857476989
0.46048945330510094 0.21346377297224706 0.0011549069332943418
0.3005287382334103 0.15432296648370425 0.0433427613063202
0.4744813633193701 0.2903847415445995 0.046738810318800006
0.5666700143420798 0.20548478281486382 -0.12132923915430638
0.6009111944974705 0.22418930070702459 -0.0845054393012532
0.668364803234752 0.2129091971351329 0.0847045664715722
0.6540845639506045 0.12874530280743102 0.1350626954833274
0.40106145490879896 0.1993073608818463 0.013779502957419254
0.5768950111159086 0.21804211182944755 -0.06671490659914525
0.5062220540268498 0.22666469071637607 -0.0508123143125232
0.48059928047025835 0.23198119800302663 -0.037183332669371794
0.4313295340229786 0.28048899363119517 0.027406776060161064
0.42394900560648807 0.12145164952605114 -0.026684353486274404
0.2794906255651455 0.15348350462238614 -0.5475570989590892
0.41585443908280695 0.14509328319772408 -0.04153893296256683
0.49472146482827384 0.17248157262562813 -0.05904722667959561
0.4353682812082269 0.21576603373605963 -0.02537821623170089
0.8537937142528023 0.28324965852168305 -0.25439173004519944
0.40761128373549127 0.14559990652156785 -0.04759916786306917
0.39723390073612563 0.19089785712657203 0.0035733814228393612
0.4109535793928103 0.18147371553770597 -0.01963043085962113
0.4605842300046703 0.18718921580652648 -0.021711945026424928
0.39908328530692927 0.13199587757324593 -0.08583928536148733
0.9423370729205374 -0.2330620440401816 -0.22635667230491663
0.4555733137611213 0.2024064731355395 -0.03429317502541096
0.46852166644272586 0.17475823301018067 -0.06846391254411799
0.48535455053300325 0.2067709239398141 -0.053915925615172
0.5168932673260827 0.2649217196381244 0.02262415443055943
0.48868261095523735 0.2040130100149895 0.009530175409537378
0.48035174460900976 0.19477045598668496 -0.0369755503576954
0.48524655431003794 0.1982574095697487 -0.051921947790532386
0.5301693211511349 0.15391812135551675 0.08346864070523452
0.45737684432194214 0.17239043791357744 -0.023175361757239443
0.4045262502407496 0.2638526353368462 -0.01707522397961725
0.5455741446694162 0.27131899927124437 -0.0737634654243493
0.45842526463263766 0.14575478676249531 -0.054002990756600866
0.4473504460874693 0.20834215020721558 -0.08167718143194236
0.5205258341601677 0.19593345028650333 0.03718711078060721
0.4198432322718588 0.18382598824754837 -0.03191608416192082
0.5913185037005633 0.17771968200547406 -0.08579597330754041
0.44391696124064595 0.11618245435928998 -0.016378863070229954
0.41301599120382093 0.18452250793868075 0.033652607276636104
0.4421662758579714 0.22411909998552915 0.03409935088316729
0.4799513836951661 0.19202498352342445 0.001968815968979243
0.44917890821650985 0.1263408256749301 -0.12741865867793933
0.4526302888436362 0.17517577895387149 -0.01638023061690319
0.426821206136907 0.17790271654189382 0.0057628098319639776
0.5321287971981548 0.16537908668558998 -0.08327836101420871
0.4785815851663102 0.2108188128291033 -0.0750877308427107
0.5446454611562217 0.17460349053598634 -0.13900626157759177
0.4720896593498196 0.19822542146587807 -0.025252387612312077
0.491010746712675 0.17615596718010806 -0.09205411669786656
0.47905286350734855 0.21671732832487578 -0.04195357006003064
0.5079960294500552 0.18310208301716102 -0.12245947283824421
0.477776916254129 0.14994562815491008 -0.08699615572665209
0.398610186150151 0.1897188233041902 0.424925080163149
0.5260317138639721 0.18259828953361534 -0.09080997183312434
0.4809471013099653 0.21309833826752822 -0.03904387286416977
0.43300703123051676 0.2283348327441388 -0.0009138238471280147
0.4618082485332877 0.1878819992069083 -0.02967621705127499
0.4110223336138432 0.17880602125256928 -0.027000044351225938
0.5140455975609655 0.24667149446541714 0.03204954342960775
0.4373600984500996 0.10712125364258895 -0.07946309579584465
0.4215472999407126 0.21208575633265525 -0.07132269052696927
0.5061518896378203 0.24447266220030883 0.08628415274721135
0.5158070777225987 0.17523907351488788 -0.028415494320981338
0.5132630207317845 0.24758730972601484 0.026925037163010757
0.5628872330563155 0.25970320996842133 -0.07663793621904347
0.4739739045930236 0.2366644345057125 0.03266074409508235
0.47635074773529595 0.18848417506936244 -0.046120166276622854
0.3650838629804696 0.17428710360381672 -0.031243086110279705
0.48850038250340333 0.17529427337495918 -0.05987909501362765
0.38095400321688544 0.12257404598307176 -0.10302573465808962
0.47197332421067983 0.17249222047959734 -0.06377431073960338
0.4800078072281053 0.18388675264478138 -0.03445471412447887
0.4598466167290667 0.21555939591836193 0.056099820568192627
0.4259855168066764 0.24761193553112548 -0.056528819514824136
0.4538913848962096 0.11583458575569239 -0.0794197400435337
0.4823697509181528 0.1867196618458138 -0.07341324228957546
0.47635202133723453 0.22421099934936706 -0.02447829743192642
0.5403978708638562 0.2191615091283552 -0.054477644267592495
0.46603468598510744 0.19126102141160573 -0.041299216402279626
0.47930258898740874 0.20327299059273685 -0.08526392275170736
0.4951291553220045 0.235238009824144 -0.024302804222372743
0.47560386634208385 0.19830716121376213 -0.028719937299854337
0.536264630467187 0.2621048243809838 -0.027665883835311433
0.45952826509173406 0.22850104682602534 -0.042375892817204885
0.5292183924200344 0.16750498092709165 -0.10560092888204053
0.466806772561668 0.2447651813518661 0.026400261167083272
0.4939924959393096 0.24562050402683155 -0.005460654878788773
0.5081053465697352 0.20706334853146302 0.04882527081113608
0.5105632741193915 0.2158609749716618 -0.0716742344494321
0.3537528035899129 0.16931802247268024 -0.02417983417738867
0.48064466049409305 0.21755037084632534 -0.029342883995155944
0.44477683497481735 0.16926970777331007 -0.05359425957723829
0.4176516752846169 0.17600177579387832 -0.0059936956860440205
0.46332748984309546 0.19118671414943833 -0.014538261049921175
0.4319154115549111 0.17059243171115668 -0.05648189857271291
0.8748329066952891 0.22152344970902504 -0.09460733570882951
0.44414614727323 0.25137434347692533 0.017739840099835646
0.4296657595204465 0.2167402979973474 -0.006082334213630247
0.42336263102613714 0.21182517636418652 -0.02363156903575714
0.3846023862924568 0.1886915668567184 0.04306210347297679
0.3379927907068918 0.20035891895525992 0.029657431175650117
0.4838963992178975 0.25450741939724253 0.07469737911765151
0.4623545152989976 0.15647794796575454 -0.12369701648063369
0.5476295853282238 0.15451881144696245 -0.06896416994511867
0.5048770717118458 0.24545328526239985 -0.0136277249443566
0.49230939137846974 0.15124007892768532 -0.06795695269937596
0.45945188646973634 0.19326577403138856 -0.0052110987661677655
0.46518755285627833 0.19471128496866186 -0.03585440725957767
0.45363564688051383 0.20273637212312678 -0.01232468280549881
0.5370618951382937 0.17715173705656184 -0.06069877726280026
0.4638047212042977 0.1703824343662177 -0.08927402608438229
0.35932168048401536 0.12302758870285402 -0.068653908406759
0.5965554299939413 0.14937478326760356 -0.07311731529256349
0.5607441976103757 0.23099002838179672 -0.12530344965986728
0.3783003321183429 0.22960796564227337 -0.024191910475494183
0.3723260994177906 0.1645416535691453 -0.0947646048088302
0.478568482315751 0.1699501582957339 -0.03282526023784271
0.4296379543146287 0.22600773075824065 -0.008880451227753383
0.5386376161007576 0.16102052442130343 -0.06511175827716897
0.6791152758229657 0.26658243461258735 -0.20309019034452547
0.35128435949805237 0.2167611067245474 -0.023088295339363185
0.4643605539517637 0.2410937915131086 -0.004251066655029945
0.479345729643029 0.17078515207420253 -0.0949748681739635
0.4741332673622054 0.18944495352562285 -0.030567671295102627
0.4850772007984574 0.2317473238636012 0.008919033131547849
0.47300544217665674 0.15348886070174217 -0.10200085466723863
0.4686599435735417 0.20842750615797456 -0.09214254435525504
0.47786396340681847 0.18744871109086603 -0.04972294015928469
0.48611310246590733 0.1906526752325135 -0.04896028124704799
0.518807241829137 0.24882658353006093 0.028434038178488663
0.4434545949292499 0.19120718030029593 -0.0005036678140299955
0.3872139180683831 0.1800501227372422 -0.041212579068215405
0.3352984441238931 0.26101581428460463 -0.01731077082882848
0.42094421998417886 0.2258040574304374 -0.0002431088573331408
0.452466589343274 0.20354227719641926 -0.018593890866853258
0.47300567559976514 0.23071951431012394 0.04072322890186797
0.4911954166205419 0.20534507589411533 -0.040071179776006716
0.4538861118781625 0.18923473288853643 -0.08629223977709444
0.4643005833378737 0.21481388637735677 -0.024478780520297505
0.452271390771557 0.16171235649954951 -0.06717754465452686
0.4740423137677965 0.1974576610238472 -0.04549104667432857
0.48094697005416265 0.22159135963065069 -0.06374330487651036
0.5533820461187418 0.3104529552674933 -0.05739648512313522
0.5139402636025636 0.2147893109372916 -0.07560717902936176
0.5263408936303478 0.1869266003960206 -0.08012219768508544
0.46935519634074296 0.2033774732589677 -0.1169665063631129
0.46035414429478294 0.18675034139741342 -0.024176760593064728
0.5382316631848596 0.22249725750862126 -0.04879159439049374
0.4639192668890786 0.1583112177617778 -0.02796892652980887
0.37470428235671704 0.14028187527227942 0.005509371899051985
0.48949904863422944 0.23189412470203763 -0.06318111559022555
0.4968786140955359 0.1800407801670474 -0.057670410409770057
0.44009600789077297 0.18808638251493903 -0.014494644588822325
0.5341680254493042 0.14989758369191009 -0.07694295287186037
0.30320990233684597 0.1245275533984227 -0.17144227765385267
0.43705586354738557 0.19290692447506785 0.01688718494452246
0.45634710985900995 0.20341183236524785 -0.0103641692125791
0.44188908242530545 0.1952232559677327 -0.00563507470835134
0.4731849961709145 0.19367220074465763 -0.058173288197352235
0.5001286534726574 0.2793549749862194 0.02191717854545061
0.45080583240022065 0.18262123341702363 -0.023511258618015063
0.48115439737252075 0.15120870163019617 -0.1579156463170932
0.4382736572967758 0.205312874352785 -0.013691108069323832
0.509134427273807 0.28524430639491527 0.0024686553376227494
0.4736291177958236 0.19045004526356024 -0.039460333465569875
0.44362814641289106 0.18699676559198508 0.012188135352971585
0.41819802832517894 0.18051771025571384 -0.010699610956606875
0.530972110695771 0.22592265483172014 -0.06512408851256168
0.47525683378320593 0.1957545694642988 -0.03380540777718011
0.38350843769663356 0.12566682970071952 0.016162794239306777
0.4104023557118808 0.21541058981347305 0.08755133854099029
0.4781358853677915 0.24176444628325555 -0.00658249855243298
0.5908002748150807 0.21164475982453723 -0.18954106561641026
0.47944053738785897 0.22795890736071556 -0.03338014332106809
0.5584574440998438 0.25757619573306556 -0.05639134003317281
0.47643481803801535 0.17962276165185642 -0.06286033576598982
0.4928238471486708 0.2149389917255604 -0.05328118150599437
0.45622593756856133 0.1855029743416594 -0.020924368352382317
0.4551290447150933 0.14263116947360288 -0.06715951127274877
0.44429045567396486 0.2011856221171371 -0.00785407974647967
0.5320134702527071 0.255777692983429 -0.02791025920537038
0.4144279764516199 0.17388534143341872 0.05214586659779741
0.46988637226804997 0.1931680744194182 -0.05592605174778953
0.562674332030781 0.2589382467873236 -0.0588394604407938
0.3506474763143359 0.17445025271086934 -0.02714776937986585
0.3890393364150384 0.14254871995123608 -0.060510444337126046
0.4658110328649627 0.21035253015202215 -0.017078742025759652
0.46106925460014736 0.1995848866044696 0.0025437053731849346
0.4249566345894067 0.1832735470882767 0.00026269026341196877
0.5143186111629916 0.24706482083959713 -0.05228059499617643
0.3788118683883823 0.2512237164490614 0.013964901844786937
0.4995386379579827 0.19261422190385247 -0.04693367536921755
0.503974266868866 0.20654736329143475 -0.06366755603011143
0.4859535060595448 0.18534852264619417 -0.12914014242173266
0.40543150815103957 0.12490609119244311 -0.11618235571064872
0.5426670687814266 0.15322294054374197 -0.16196291527874962
0.5127863020697561 0.21113766960833402 -0.02163825543907194
0.5166714213822416 0.15807392460189362 -0.0948994030568997
0.4996585735371468 0.1985549543051377 -0.026102477379268407
0.5287401971645949 0.249542582499231 0.018635215372640346
0.43115604689160136 0.1420897502268872 -0.14137405084603927
0.5339007330568819 0.18419839931738125 -0.09487567581098233
0.5370084794001002 0.2506037329121398 -0.08413277120661178
0.3560663604649932 0.11262101028782467 -0.0043836927266625025
0.4966737267283321 0.141249415400992 -0.14893849265541803
0.4657795726141245 0.11981716325777825 -0.059987499133342226
0.43282693351221724 0.15800601277130966 -0.06518999824385219
0.4861297209482558 0.20857067836355725 -0.02161030899956984
0.46116172775377606 0.2049763156990707 -0.02755072059571262
0.5264398937067511 0.15083961975108195 -0.08575825844810936
0.5445022533290569 0.21819293931122274 -0.10323328251533326
0.48303263480499936 0.1918213502560775 -0.051583211264897955
0.4787263634854071 0.20050907010386254 0.03180352783010676
0.5806656123130551 0.18582777115260285 -0.10216203494981357
0.498919338195293 0.20331637708221706 -0.011180427577556884
0.5109728157997466 0.26370482110732496 0.016829936362398712
0.4439091369378758 0.21923822780954083 -0.04155771733888969
0.5034083958270941 0.1196364645006156 -0.148172322380276
0.43881434795792984 0.22304020590577522 -0.0378823540476958
0.527733655057645 0.2867238224904156 -0.03512130422376458
0.48766888998133595 0.2647104064195105 0.06881673043515946
0.4901128132568999 0.15515744892032046 -0.1008488919360957
0.3489258750234683 0.17891628098364265 0.1821848639163619
0.42369220491571014 0.1789628035748052 -0.03583465095570659
0.527671721678189 0.24198560583448625 -0.06760886565378144
0.5802497033819236 0.29874536360230763 0.036785852888613135
0.4715226052818622 0.24290795684731847 -0.1770472240339842
0.37680469449858833 0.19841726277573457 -0.036385594393607334
0.48375852961230237 0.18204123561960728 -0.05584400889739527
0.5150273649121431 0.19927975416999288 0.003179400291884349
0.47698411880143965 0.21362747175314212 0.0027236078960015675
0.43362077713655367 0.21934867206338993 -0.08793848179180941
0.48266740864650615 0.26740717722744023 0.021945842626820422
0.5053467877444291 0.22495926750593753 -0.03700468754536246
0.4394866737524552 0.21588976906653556 -0.0038079704388707114
0.477896418019057 0.2062142323505185 -0.06296034076321178
0.37965136192929094 0.13159016040349059 -0.1058598975654661
0.5080309844255737 0.19409913882738294 -0.051314867516722984
0.405253662733287 0.21757987264112444 0.020096568949711013
0.4765318412305106 0.16242791083570296 -0.06754947401438471
0.45988410443588634 0.21708782892628165 0.0026003249239181514
0.509870737030667 0.20115233197601867 -0.020108672449509868
0.44379647680138135 0.16580914599317964 -0.05912785771414519
0.5018183348371537 0.20964513840237942 -0.0822376322595062
0.36440127608504724 0.08597514702236708 -0.04599565735611577
0.4743960308991575 0.18636531328607475 -0.051673614345929764
0.351705008269235 0.18158048421551598 -0.16038427553459655
0.43525075495051624 0.17407531195031822 -0.03206145128987714
0.5769642360565257 0.25288064742346705 -0.01781307083649608
0.4600647725883107 0.2548195925298984 0.07547075778876433
0.36587099815723434 0.18431182297467785 -0.05685174514437108
0.46869719430779355 0.10529354292327753 -0.23826894366351326
0.45957820387550896 0.18617650700781496 -0.03582024792045502
0.5235507960870365 0.21895890510859317 -0.0401325369359995
0.47233460699690966 0.16973295949385658 -0.1198204991334535
0.41033978297305396 0.14734448809230116 -0.04868399018245384
0.6616857338429583 -0.163997646362958 -0.5177679524633731
0.5241353044958146 0.2674933825575039 -0.002234587716884562
0.5089481436364309 0.27317331277004087 -0.0416889591457732
0.4434165695919461 0.15721542257158205 -0.032698508258278025
0.4911417672491467 0.16620088027579527 -0.07157001547119535
0.5362265585439161 0.23154141603907874 -0.06257777639466156
0.5129982706686604 0.23530125906101773 -0.12726645798065306
0.519015396077549 0.24162925507985733 -0.0034854336558396426
0.3833229277192203 0.12619782350645892 0.090484264444882
0.46204809234710353 0.20443932986665914 -0.029565048451843268
0.5039725984953236 0.20401185635208208 -0.07267686343762136
0.4037043544841339 0.147250566776421 0.02211634426789999
0.4831066411946523 0.18011072160047092 -0.07417486943043627
0.46766710572804016 0.23256760311990377 -0.009900945614077727
0.5198369208995928 0.17183219837586705 -0.07721850953235787
0.473753146978936 0.21122241507050887 -0.020911417499590357
0.4754207786372575 0.1381851162450829 -0.13470388529452748
0.6110717968935688 0.27560520909131014 -0.05894137751845108
0.5460862775742328 0.20667072090009242 -0.19777751125161558
0.5397713629752303 0.179752220492702 -0.02415159969351066
0.4255192247108397 0.20273665885328285 -0.0005872158878190703
0.40247807487745035 0.1831689460469761 0.0014098345366022613
0.4300137902217074 0.19147971606467706 0.02181335609319035
0.3512947048648414 0.13767470847433572 -0.05220315876577786
0.4928405451861835 0.22941943738479154 -0.054423778343249296
0.45910445782416787 0.19656395864942056 -0.03218460105426857
0.46856192581680034 0.19887975517524126 -0.06713561363187637
0.46205219222956373 0.19751253512350786 -0.005341966118521668
0.47150826517363953 0.19115917267993154 -0.0458172641298944
0.4744749373432313 0.1952936710294466 -0.0516844527200675
0.4845599524474409 0.2037889676882969 -0.06456091532049868
0.5002519469828854 0.19344185349302734 -0.036313158412767166
0.45345268154301266 0.15259258399872522 -0.020448852613753843
0.40794229577406327 0.1892307405771021 0.048503645674301765
0.4347950667673075 0.19162213543819462 -0.04520042370529609
0.5133974153581704 0.21387937318598915 -0.03906084528188103
0.485792589873995 0.14003189812537187 -0.045585979298067514
0.4894135642466182 0.17693854311008295 -0.09206867711830569
0.4632000095253943 0.17754790622510086 -0.047047038827145116
0.4784917648958924 0.17231058591548276 -0.060760621513267665
0.5867427888579044 0.17776764448663585 -0.1595175667088995
0.40031044943341954 0.14155664816539115 -0.03190660621041275
0.7549879552691721 0.0013789995951754008 0.5306926713669782
0.5765322707313629 0.1693633670635819 -0.11906157807246132
0.4327699004396237 0.19909086995839687 -0.02303849633210575
0.48723314860947653 0.17818325289593417 -0.04165296245952277
0.49655034298100986 0.26077606821132804 -0.021004353738163672
0.5099866917670397 0.28131830332168306 -0.04390616477024878
0.5299905930173736 0.2113232503033089 -0.059464602042766046
0.46286460948094543 0.20143575304979322 -0.03430281225627141
0.4413397218480952 0.21795922179910576 -0.04477359779525614
0.3775663834368288 0.14584889404301293 -0.05798621517894276
0.47414866692153623 0.20878708878643693 -0.0013309077322674057
0.3516720738586656 0.17694736173943681 -0.10682020067281428
0.47161243322432256 0.20625687366201362 -0.04260846837408394
0.4475016203142843 0.21642931667966536 -0.03829082018771146
0.4827121587577494 0.1707736360929175 -0.06278674522229721
0.3863429366123512 0.09813333530240698 0.06927571937285393
0.3827813185515936 -0.2771417053736229 -0.8306017851381284
0.44009929247724244 0.18501952505724262 -0.02700616381723364
0.4362576027696292 0.24949029218203123 -0.027129138725186408
0.47031494054822076 0.21593565922970015 -0.018470732930666145
0.38153957639970315 0.16456350025812583 -0.029391909584177256
0.49146851477972575 0.14060421200545647 -0.09945031604021892
0.5565743258737541 0.1627660171598393 -0.09964907586196148
0.43771921647795864 0.18531420374795005 -0.036822600771529324
0.48559341451534976 0.14780592237961798 -0.14985514450475534
0.3900080198275617 0.1704319488252395 -0.028354046183707737
0.4402573238311902 0.23555519617465848 -0.020070106260021703
0.4675516812494038 0.20085626812571888 -0.05766279048475553
0.39544662248840723 0.2245169431491405 0.06044503363332865
0.607917341327024 0.15246084475379007 -0.045073143817646155
0.48112737240197134 0.1897743073154743 -0.049845414357207574
0.5370249491619319 0.2233570591846501 0.02735776826317249
0.47075635001742455 0.19864456627138338 -0.005269622670851959
0.46086887258104525 0.1694168537625842 -0.03489658473267809
0.4575201244122695 0.19838090070487624 -0.02457028107787096
0.38645849374024976 0.14568400839496576 -0.012684495280169017
0.47125122976265743 0.22474478463723813 -0.006755265152520451
0.4215974201825219 0.13115527133552973 -0.08064655456503544
0.4489218295842221 0.21981198617640985 -0.07194338155252922
0.46842826588611786 0.15059296742180095 -0.04250416362421561
0.5224290783274341 0.21551391164931033 -0.04969321677373273
0.5269524891131709 0.2692525046705754 0.03852048822037091
0.45523382700019965 0.18826489535142343 -0.02582399036367633
0.3569406264911379 0.16856810027866231 0.032803356613726464
0.5368835515420614 0.20690761766820742 -0.07984883933880838
0.5466544030355038 0.28048509294075075 -0.030081840485024713
0.10415782533021911 0.484243166335375 0.25444762061468396
0.471649685336871 0.16172377920426584 -0.05776678178845884
0.4553863923445505 0.2599235375832478 0.00045234607711108765
0.425888207038696 0.1804378421804529 -0.05921869856484818
0.494268132414291 0.17297275761436026 0.003518203072374604
0.5522434924019421 0.2655863844326234 -0.0038806717555814885
0.46710981549968267 0.21641284878403155 0.016929530565008122
0.4524478129928724 0.21617757743010202 0.02514017493891174
0.4943437829571451 0.21679131222995807 -0.040568052556238854
0.5241361952773786 0.20987950692699542 -0.015685609159703517
0.40082741719730564 0.16772957479111028 -0.0015934973907008043
0.4802473131453979 0.21707158419903294 -0.004829124141053853
0.4835384991730507 0.1705139765652035 -0.05279606864053221
0.3903823150618848 0.146907273884068 -0.032618215425969765
0.43245521750364446 0.17948452712468566 -0.0002464192168218915
0.44358710885265396 0.1556368104184429 0.017484524532449086
0.6536177802078669 0.04078870869184925 -0.12837995055107854
0.4664339228531986 0.2192276421627639 -0.010694117692423788
0.49903141768970727 0.24162029331614576 -0.02503075294768564
0.439911914154834 0.23368471467412633 0.01566133841244266
0.49972521412698256 0.21946258402908825 -0.11088305847664515
0.45316780967317527 0.18578123393305646 -0.027434029969811036
0.4065453783318418 0.23225084637844873 0.050854933547611836
0.469907705858688 0.20357734125545335 -0.03938697064651819
0.5508445684670278 0.284951497801913 -0.035091918597501603
0.5226609035259884 0.20732487269489752 -0.03127513387737224
0.4631801510858793 0.15923279887573472 -0.15358313924062372
0.6306210243725019 0.1509854177211878 -0.26513734556364454
0.45021388333475443 0.1517011763473306 -0.10696230526997397
0.48381436776556086 0.26840215848571347 0.026483921243567465
0.44659747947872575 0.13429156620929916 -0.06895295361167086
0.4604139971624619 0.23612292520670053 0.03904276588637856
0.4834375118331735 0.2042484640295612 -0.10044121933546535
0.4838166383808442 0.3146077176454014 -0.19741891395270272
0.3105314712485381 0.2526411879533015 0.20015554201538066
0.4403396273587106 0.16436299279250477 -0.0016860811388141883
0.40782193357830465 0.12369739707961003 -0.0649004992777833
0.4743566028057984 0.18586168726730534 -0.05585186572420753
0.49828556754916065 0.2225954833630368 -0.05322359021164402
0.45629127895955435 0.23965092095268403 -0.05135550579008452
0.4124381664594239 0.14845893484093153 -0.07411838358254386
0.5310427083532829 0.27500080305108554 -0.045132482153036335
0.44221779391085647 0.1920001266425686 -0.01125637002030544
0.5505718378037585 0.22811547261824217 -0.11645148568602792
0.5466405693136807 0.22621984649018145 -0.11348585145317713
0.4560557764111195 0.23062510110358403 0.018287571582533246
0.5859927019919979 0.234885280907406 -0.06582520427073746
0.4611534532251369 0.19073158786997624 -0.0766052207816017
0.4681857912323437 0.13398378162960967 -0.1446686175482199
0.4015216411692535 0.14741212122901004 0.07891340841280226
0.47386830307668504 0.19360108140921284 -0.046469464561425866
0.5923645998108071 0.058282343858962804 0.10341726742340995
0.4486819100769708 0.21924589688444485 -0.04192244436072201
0.5799747408559313 0.23684837318552354 -0.22061237519926635
0.48647706399034973 0.15418465855626096 -0.06636925587159226
0.32211060584189966 0.20867571602181556 -0.06515402265506509
0.5156860588392078 0.21982864105562783 -0.00583122420087534
0.46345248144156415 0.16025387504382138 -0.08430144952478713
0.48098676008619634 0.2526279004801495 -0.02453351799158554
0.3869576094625131 0.2207851637958811 0.08894332715638598
0.520948411880525 0.20066640910108902 0.014486077347555693
0.47100719889117215 0.2298746917011556 -0.06050267060952308
0.44623090249771735 0.20210676608800782 -0.04944826346047648
0.409847498367526 0.19229593772904252 -0.19925992299937434
0.44067856418418216 0.18893623902215495 -0.030522656829816697
0.4198534453402232 0.19110670718504252 -0.04047367311761718
0.46817327846697765 0.18470175263192345 -0.05662710016653705
0.4797458898573552 0.22408003968752155 -0.025874977113431896
0.46799279254588555 0.2980031412320727 0.057040578103126904
0.5349095126221783 0.2038118388717578 -0.09153517389512444
0.4628501348091021 0.16310395854588933 -0.038776084206105565
0.40773150161214744 0.23984524413924646 0.08019998547220553
0.5051243131163687 0.2307391186742933 -0.06301603332775585
0.6869827632522316 0.23210810155021022 -0.13094045582855074
0.3536875639314303 0.21378890395661188 0.0012140610919004757
0.5160192389305394 0.22853600129602114 -0.023025910114611747
0.4650780389665812 0.13889375388524172 -0.1659313004180092
0.38189328554170743 0.6770920181441227 -0.10153584053200859
0.49102279653973824 0.20644414858230675 -0.03726497964385089
0.5166248651100176 0.18476039025614455 -0.09876212637260551
0.4383442014638348 0.21358834235638824 -0.06152799399305309
0.3730214599959254 0.13288148489149876 -0.0423603712856675
0.40363208296487585 0.1738115676277232 -0.00033391971778939933
0.45398651764440956 0.19421478482753685 -0.025680038361059587
0.48230098136178867 0.20618586715133347 -0.17963993843258663
0.48650499903328637 0.18684617322236363 -0.022581847452784132
0.4921814662383639 0.07264318383367652 -0.03788366128273424
0.42845964641206535 0.20344448701676754 -0.16112291128517597
0.45510954871680553 0.17548673878914656 0.03669897655264265
0.4682252148950994 0.21204448163082645 -0.036086368813045056
0.4679370029516292 0.22403657086036333 0.04625933791059822
0.5077423504953487 0.11355705952115613 -0.09238866180638183
0.47899501840406344 0.22965759614803005 -0.0018423079382898777
0.5380268729265509 0.2059954864497371 -0.00138400987266607
0.5207757581868577 0.22630115195556755 -0.0469250726586381
0.4506862926391051 0.13283085908132364 -0.15582903181530128
0.4816006898629013 0.1763730256294309 -0.047908825474721084
0.5900006403281282 0.22762843600823146 -0.030247929967487153
0.46088089787571107 0.2299500137410746 -0.0651435981755526
0.49125531017867274 0.18557066545447753 -0.05970314339026572
0.4799497617240718 0.13498011601187443 -0.02688685781293998
0.6311037858110637 0.17282029477166816 -0.15332666081539514
0.4632916018952784 0.26416527969661274 0.07784075874997143
0.4582438128665842 0.18317727249694826 -0.0640874654001351
0.5857112982936741 0.20070578667285588 -0.0937503304903089
0.46905711505432635 0.24063872293451993 0.02562590460405545
0.44827699128181564 0.1997755616074528 -0.023045233986607627
0.4659696345023576 0.1929619324647831 -0.04300435612455544
0.4675466491621165 0.19980372057270301 -0.08184339816958186
0.1081171383496553 0.8910258270259845 0.13982228438979405
0.4486097176053221 0.2448595217332894 0.0443098455551052
0.4755757915259977 0.1961019156083239 -0.1075877443344524
0.4208952509360131 0.15342945496013272 -0.06712760258673711
0.3854620310777932 0.24252406393509318 -0.009377953441628506
0.41691114821796305 0.1847659614911379 0.011723636415553074
0.39750609274929616 0.1443258295545462 -0.0046165573559733275
0.5148313363948205 0.40728322541301054 0.06508760154957827
0.5678284512042637 0.2561547835158251 0.0050528627516683855
0.3812577382863367 0.13867765070909854 -0.03381952083648798
0.45890877537590313 0.18394567615551694 -0.07723904499906098
0.4330828008068721 0.18468537757051706 0.03101485591304254
0.4257433565323083 0.16082288472937023 -0.052733200268107794
0.42755534320478716 0.16636145884334042 -0.05705422934255466
0.41346195848856837 0.12937365538459744 -0.0583324336904667
0.48644846269934305 0.16949970377766022 -0.055304913579817594
0.4784082406979593 0.17432162613839353 -0.031419733057973076
0.4400141261409658 0.23262183057317998 0.013164834773647272
0.4809749483700756 0.18088974049011597 -0.057378754713028
0.4139924185443249 0.19218017124745757 0.015998703709669826
0.5036113895700538 0.197162521180843 0.008539659803432187
0.4165554525549311 0.2056397085521553 0.031594940497086554
0.4341602639759401 0.21834099052776423 -0.049192286628795046
0.46684353280534197 0.18890575338647864 -0.01306860814747779
0.46675380483785034 0.1403202733100386 -0.0822415972742192
0.4920406224540983 0.13723003656798483 -0.1308363206904346
0.4828130170770777 0.1502212694076661 -0.0894628571958549
0.5440945588194666 0.24590567953703157 -0.06747730309476196
0.4266930818479011 0.20448942710717688 -0.03569870005721043
0.5115459904142767 0.10982509416055564 -0.1906554587717153
0.4913462699270639 0.1697269372686776 -0.06215719902589001
0.49923392029811 0.17126498267873558 -0.13183581996113958
0.4894390521661478 0.20289314141204784 -0.06029153720561453
0.4627167618164236 0.21153794082172794 -0.010578169760165679
0.5488938785246091 0.2357258850637436 -0.06325542389963346
0.4664514389153709 0.24526332458626143 0.06748388363976687
0.4241034730179791 0.23312070831229903 0.015128966547777623
0.4917517318485949 0.18962081785798546 -0.04986643677219149
0.46710438229099793 0.1974340997866193 -0.04420653450766565
0.5222192754988555 0.15705882069792665 -0.06563899919679272
0.4734074262017032 0.1844902304051459 -0.04810280515289378
0.46814380595962746 0.18457507661966588 -0.015460091762065531
0.4573470057937499 0.19911145313943734 -0.12866474253172555
0.4981837520042802 0.1544469686041765 -0.07575006546292684
0.4369065309063558 0.1604557225403056 -0.01893541939338661
0.3688484355647148 0.11951262118427053 -0.009548923701117928
0.14632254007028678 0.2951592346499581 0.0034679006135576174
0.4674546852766781 0.21135234933808533 -0.04039458896592407
0.4661393408238155 0.17216214201201296 -0.07708621572447782
0.48011708530654573 0.19910952909160073 -0.046609882145503434
0.47889153524856454 0.22364845862617244 0.0029096026157588994
0.48197656914412335 0.22548253447327227 0.020879498618228354
