# .PCD v0.7 - Point Cloud Data file format
VERSION .7
FIELDS x y z
SIZE 4 4 4 
TYPE F F F 
COUNT 1 1 1 
WIDTH 796
HEIGHT 1 
VIEWPOINT 0 0 0 1 0 0 0 
POINTS 796
DATA ascii 
0.4543642399843293 0.2076273493288454 -0.0494993654436513
0.45825506124072035 0.2121328231893358 -0.008997217603138097
0.477823545099227 0.2040132814960458 -0.03449828070648664
0.5001001826781248 0.1984951038790541 -0.12202967495639427
0.4725861141136818 0.18184478612730004 -0.04246189462386951
0.4803153913285314 0.14907652148082207 -0.09818430764534014
0.48291654414617824 0.17942004792408284 -0.04851186088606596
0.42257877996812 0.21978108392545437 0.003829315102024111
0.5195093745008421 0.2598815915667103 -0.021680048220247272
0.4393658078521412 0.13233165036588446 -0.030749339235484285
0.43759214306766125 0.20074867033346777 -0.05742552556347391
0.48866636067151603 0.20407538229343913 -0.04961642150260559
0.45735973591811785 0.1931161516361044 0.005699246668967817
0.4573360948029688 0.46654875845786137 0.030411757338498546
0.655592323542578 0.21095069484090345 -0.11183549970922968
0.38811605555207507 0.21474633547038025 0.032644105380484234
0.40893161359738883 0.2279169366845366 0.06244243721690168
0.4370562318481177 0.2168560041220502 -0.07005150239123736
0.4637267944898724 0.19362918687593833 -0.052795491395016825
0.4684407214316195 0.19906664366939708 -0.03025598738857127
0.45030190867751685 0.18732280139668944 -0.040416275238584376
0.39870169697988445 0.18296438497158363 -0.004237036334373556
0.47570336285718895 0.2130341750676621 0.019504456013152094
0.45256574030082675 0.14125404508152428 -0.08175425449775275
0.5674933078224171 0.20109906185416548 -0.06656861562171912
0.47029032206924626 0.10223707920735592 -0.11198492975663044
0.49362073293016806 0.15005915803145342 -0.1364611038485748
0.5078130374564012 0.19575044684152942 -0.07468002268990404
0.45259684639435704 0.1857174997896891 -0.03316696002252684
0.44047282763006024 0.2389643485840054 0.014268338062123576
0.4634405641400292 0.18766460778651606 -0.045357795372950704
0.4900306626690849 0.14931786479016296 -0.12942188441476787
0.4199534033390364 0.18193410889440997 0.012913232130259189
0.3617724971548171 0.13047672316417902 0.0030606279581064655
0.4746992187872081 0.1959955318496327 0.004273366726096128
0.47647036087903416 0.19401037838343882 -0.03879969541243611
0.5061686539899313 0.1924171984445593 -0.05301365934229807
0.5417407501816172 0.23057040801469952 -0.05245539928336029
0.4244983244777245 0.14045549529484447 -0.05523498511374214
0.38184532593501785 0.10382910441482807 -0.1458808928745441
0.47699059618665274 0.21298552190640407 -0.042161599343131684
0.4448271159693604 0.17408248948473215 0.008239573796345212
0.44435958009185583 0.20711138263374096 -0.03187228385931462
0.49242281310029057 0.18809962789933365 -0.08821533093271228
0.44909254453713743 0.17760074371376788 -0.06668947600854835
0.5205191553600628 0.22700382558075205 -0.05317443950494294
0.5194824408370096 0.1818241181264284 -0.09737738277456742
0.40770109483852934 0.13136732244250027 -0.053232794900750946
0.6079190756477999 2.5959844072259557 -2.1063066177475207
0.5200501170300527 0.1787931748971232 0.007816318466282723
0.5522015779654055 0.27734635223465887 0.03360691260530757
0.45816393029178926 0.188842470869929 0.060373479675703834
0.46441208639907927 0.24814378825726635 -0.005786178760473604
0.4819774054951438 0.15876740761103747 -0.1126609291317493
0.588478176358791 0.23483723226267728 -0.04183138507451645
0.4242830335781207 0.19253492077530154 -0.029825865784602
0.4266804713873569 0.21988718061473378 0.07750947943023334
0.5005429822415124 0.21787014043857766 -0.036367047927981844
0.5206829699021398 0.14372282107080991 -0.10860895616565358
0.45405997325525504 0.21989941379843003 -0.04059041664154961
0.48946090804250275 0.31703609923812337 -0.05163205965627071
0.4548286291727095 0.18607719341223117 -0.059524157443718195
0.4506100301842082 0.19055424846317237 -0.08782634226250252
0.4525218980105592 0.17715752460134127 -0.07130053344501164
0.383358821103144 0.05922059360067067 0.0037961796569732087
0.41546726543111845 0.1712429275935392 -0.03599595368852704
0.36674274710119903 0.14539495514812018 -0.05482750740830511
0.48594324606426653 0.2064873320195204 -0.0983538778051809
0.41889317565374995 0.19664511484208447 0.0039105952159559365
0.4522797128788625 0.22857544816362463 -0.000804724037465121
0.3944495363559497 0.17784914911801764 -0.025874528395917196
0.5119307768798649 0.19510572951236327 -0.09729376768272857
0.4804769088212595 0.22170585903404572 0.002467709120821837
0.4665399859888453 0.19558743607281315 -0.020453156151575058
0.4668784906779422 0.17594438828859893 -0.03390530987360307
0.5629949497698021 0.1474194100687498 -0.05562079909898898
0.4640181543726669 0.14050508405675544 -0.11734089588003371
0.4838551833176723 0.16353067888108797 -0.07872753752994299
0.4079834892821168 0.17573086757559508 -0.0013057769861006818
0.17722619251262017 0.3275889755285277 -0.019706534889621707
0.5865804099362322 0.2261741950701719 -0.09219733641103289
0.426228814612017 0.11901705709732369 -0.053392736752442715
0.4734780791824562 0.2164868049848394 -0.0022030818922473827
0.4592527760463838 0.20150199939729418 -0.003962698901659678
0.5718226436540306 0.29208905944116736 0.0006750949472973389
0.5016187375290997 0.21969441411422963 -0.02329634862445573
0.4489567109410473 0.18408802371287436 -0.009858836015126826
0.5551081152508743 0.2757407795660072 -0.014689078506080477
0.45645494305713896 0.2203704825791135 -0.03415333582378821
0.4673618233240404 0.19790153313843462 -0.02142249887521075
0.3749465209038476 0.2116344600339346 0.07761260409350257
0.4768384703749575 0.18649040007335316 -0.01033452540542612
0.4321586304888001 0.19794378828746062 -0.0020740205372931086
0.37013774035955294 0.007632378685414665 -0.1251845913271552
0.4894726543120669 0.21195491934109612 -0.035970243541683544
0.6147508398337038 0.1465040836683471 -0.19759208096688496
0.11169083052601536 0.2072650312501878 0.014632003018846262
0.45964865017455736 0.18074672035356798 -0.06316490650340256
0.4873524007285823 0.21596772932306862 -0.025913650780836406
0.49856827943483495 0.22268694749521956 -0.19943650604858476
0.5080387514920801 0.22837640192797437 -0.03146253871204863
0.4560879514501437 0.20675303040979998 -0.04513563051884262
0.5457863272160921 0.2699587075566683 -0.09639715510238034
0.45969400723578246 0.2495849696015 0.002887112167655914
0.37714296792489677 0.08189876788631523 -0.04141278084776445
0.4516993097716977 0.2006813157492502 0.0014621374372438822
0.5420416933999377 0.1554408886095331 -0.08987082351633546
0.4916248498370237 0.1734420365594076 -0.016737383378114146
0.6855739433206338 0.27959383050246345 -0.05412355737510666
0.44544805652938635 0.17468191258093668 -0.07920050923652866
0.4744090737872 0.20531062894278307 -0.040613072956688256
0.4344362201370302 0.17905099251393608 -0.06461202978118763
0.4631521607667537 0.17975038376394536 0.005556735647019195
0.3977851608049434 0.07880021644081125 -0.0811121073932668
0.531857773042276 0.21880002758112482 -0.044741567803868065
0.47250692646926495 0.19646902980164782 -0.006925656710734529
0.4247650146484432 0.2332242365070698 0.0027754506701853643
0.3735936787398373 0.22256165470432165 0.09630577780248473
0.5946495965688996 0.23615057270237116 -0.11438454313805835
0.47225854460100436 0.15381032352101442 -0.010414859913950636
0.4399714401139647 0.17078105487379958 -0.02819317875797367
0.41689901194300205 0.16389183253338047 -0.04310175850001485
0.47504774946807515 0.20864511531456742 -0.017926761708963568
0.46094801593650914 0.18817973910351782 -0.04877462825865564
0.5247933446658806 0.25360711723990903 -0.06135554500403373
0.4542032766515831 0.21029595561610392 0.022630465033117275
0.4893378168975744 0.22041093037806547 0.00473878820292839
0.44882040441683557 0.18734259074577153 -0.04347034434661623
0.7367478143713129 0.12103946319034264 -0.0524914962145715
0.4156854741464997 0.13338793629540646 -0.07483537865201129
0.4386679868520673 0.1800826631055088 0.009920559784390548
0.48361476692409155 0.21777410906418027 -0.10781335990363061
0.45980629476309787 0.21275814508382496 0.024707379262707718
0.3763176342245913 0.190242575791018 0.0824798014384811
0.3798992800298038 0.1102358970352526 0.021027039769762723
0.44164195099662606 0.20722373999558386 -0.017122116292711098
0.4894948090997957 0.17220379166280964 -0.05930417859320869
0.5229074601222692 0.23208888392056792 0.02915531633794899
0.4951857495335048 0.1684070491122327 -0.08677327114659761
0.44641129243899513 0.19519335588009312 -0.018713737696913313
0.4448505028076113 0.20540911450774502 0.057298642755284845
0.5175610198567995 0.13181633370797385 -0.10409837230665175
0.5065042371631705 0.19516358308057136 -0.07595132006329663
0.38975686205475313 0.13530529649635525 -0.13346076448232225
0.39104236355785815 0.19563413098725846 0.004456933858648426
0.45892305593650917 0.16112532525572476 -0.13519642825178835
0.449940109692335 0.27873040690170114 0.031544845179823255
0.5632413250167474 0.10453773678099765 -0.26084774929404375
0.4481110509398434 0.2338307945407081 0.002947111768889954
0.43655479497090255 0.15841387509772176 -0.06660984455614027
0.46138734787194835 0.16464563066392657 -0.09092036245991153
0.5131514535665929 0.18695583464685228 -0.052357748847697394
0.4688874505521312 0.21928051449167185 -0.01642067906512068
0.4813727356616937 0.21131978079105807 -0.04294309117503303
0.46380186181878 0.12959592283755228 -0.12993917516871534
0.3495032035077372 0.23120359135171498 -0.09134697955428805
0.48121398712348196 0.18494642979825926 -0.04407265148518036
0.2824497062262026 0.5240646416686161 -0.19180843816862136
0.44344265389881343 0.26369974314857814 0.01740232363965788
0.403113650967839 0.2092820557116113 0.10483944862913575
0.4701347333113972 0.1878215868107702 -0.09329156233368963
0.6172021205358078 -0.02188043006161422 -0.09370835212928341
0.40080732246130424 0.14804168924797523 -0.035095873687566836
0.46998611171358107 0.08764308500227003 -0.11069203097900981
0.4937724811043438 0.19642116572056523 -0.06771722689686044
0.4483461419965238 0.1985839284134414 0.010173268103756072
0.2684104107196106 0.2650359309639043 0.08055831802987257
0.4519133802944566 0.22545479980290395 0.02793119302864966
0.3514908250306803 0.14036805467181068 -0.07656083585224849
0.4714992506773683 0.1906421772643796 -0.018733835568752966
0.4196095801839306 0.2252663739017038 0.06504579520350262
0.4964155152622425 0.20538505134911134 -0.055242666686382336
0.42040965781836803 0.15286111671858293 -0.011336864713882733
0.46184973189889433 0.2103067054806047 -0.02542854980160314
0.4705906922051213 0.1867613423883654 -0.03561569627692052
0.5299050245383228 0.17324014495463302 -0.0822243396960971
0.4790149941183586 0.16575130999228804 -0.11359285555423071
0.3863482581346318 0.17445663918419996 0.05464867065009571
0.4890905800604912 0.19624952741206414 -0.023912528821654178
0.45443503744323266 0.14195118969723808 -0.06972836944659377
0.5498043135544606 0.13645664242574185 -0.07877239097572897
0.513655900648132 0.22844027087879226 0.004828405823957382
0.3999400681110217 0.19340758912747447 0.04433632185148895
0.5697941154557213 0.18491468291722413 -0.056581164392014216
0.5152785465453746 0.17156159200578713 -0.10530943184448915
0.5293409776717795 0.25483541187062997 -0.16974045993015352
0.522022694300091 0.1548189017336341 -0.102843677493766
0.5280144996920626 0.17931495454793378 -0.07200393715461928
0.4627460883782817 0.16533058436196768 -0.049379804808495464
0.4034281007259892 0.20348122383822442 0.03605398348426547
0.5127476339783357 0.26263103600632576 0.019421062845466963
0.43060995573137006 0.16789152522837014 -0.04168720071578491
0.4645695974959949 0.2187744351149945 -0.0061826650406970884
0.43499696998912896 0.16750463018274786 -0.06052418678035565
0.3530166335351623 0.1581722993661998 -0.023019829335353847
0.5455941597773801 0.2217487528656079 -0.09797859917046026
0.416428004400899 0.18378666536364108 -0.09177507193037115
0.562949242243775 0.23030427410162702 -0.04829563387394842
0.4775249292848116 0.16408632309816085 -0.06944464332022449
0.43990556373660183 0.20876667652305514 -0.07031814228537314
0.5178106219840117 0.14408352852591122 -0.041515123467462445
0.4319357328686806 0.16055832015496208 -0.018799876964322948
0.4644156733522493 0.2035160184833842 -0.0064046861783566555
0.40681794491072765 0.18780722061676158 -0.021319017656679762
0.46423369881486565 0.03671503749569638 0.032802457112566685
0.46820959802926154 0.1743038850453047 -0.013794178324928907
0.46837259799667663 0.10118994450618857 -0.1687280828714961
0.472278320071581 0.16062574986466416 -0.049301788527088775
0.43648382662885865 0.17086726572695454 -0.036684345007870434
0.5171599397817488 0.1841720452020752 -0.10274237750988391
0.46333033974434557 0.15631498395188714 -0.01569278805773422
0.44516540997187803 0.22466159413198739 -0.036023215186091306
0.5837807567442326 0.28405937564913586 0.06742787505586989
0.36483315173657616 0.1256454339077493 -0.05379012317214915
0.517401718689456 0.20978037698228036 -0.13591462583841007
0.49363264126174045 0.19176352792605655 -0.05603704401505638
0.9758724093431681 0.11304044692997195 0.5793137817142053
0.48642363664180266 0.1841233168516112 -0.06280239293276679
0.4649046834809383 0.23428219117384685 -0.031985940388707945
0.47336084229519315 0.21885722678396746 -0.0045487954264160635
0.4418713220439088 0.17937369037181838 0.012155391560270346
0.5422312401534839 0.11763353864907344 -0.1357950268557886
0.487131910711355 0.16726043265538237 -0.09105701334314631
0.5251363364388055 0.2752817435145545 0.013470775219218467
0.4403458869051349 0.06905755131762703 -0.12996046925391624
0.5420075346805504 0.1774766596260946 -0.11001694268655626
0.36648524823243633 0.14009128523557024 0.023050876013542165
0.45098633525987 0.1661337114075252 -0.05469884729978958
0.5742026442710824 0.19293965556047965 -0.14191397987950438
0.4777459717972192 0.17458474249818323 -0.08374742171673688
0.3902534434500353 0.17770358764258276 0.052320193600380094
0.24644320521778695 0.45279789401392634 0.0675966713167071
0.4624244617594684 0.18951660113799562 -0.04681623278099778
2.591994010041361 0.39965128288420715 -0.5642128838703258
0.5126656869148576 0.19371514774421428 -0.07775800783952036
0.45187949062540156 0.15811021387162327 -0.05118455126554977
0.4869199116445486 0.0950663937645686 -0.08301487574406963
0.46763513040343696 0.2444112732084136 -0.11231417221321749
0.5546887358688934 0.24806432079219576 -0.05933356745799756
0.5339958427867373 0.1722034365101024 -0.12176859142013541
0.5710463540387138 0.22058237122129754 -0.1362387485595633
0.4748362668019581 0.22115469085881045 0.01651160124831108
0.5376988122627893 0.23857276848539755 -0.07182920256437342
0.4196402400633019 0.2121615875382048 0.06258987023122131
0.44041185891168766 0.14164976875501623 -0.03976945678786592
0.45185001498279576 0.17749790246990926 -0.042174385679018656
0.4919868093168418 0.16378995850948286 -0.08202596080411695
0.49901375424701655 0.16765176765636625 -0.08425353037938521
0.4944549310233981 0.20515381503807362 -0.013114407583088905
0.47427468167737175 0.19130994378500077 -0.05312532621132959
0.445874680232464 0.21898110557631867 -0.0016876135286452154
0.40054700865246673 0.21603307563870544 -0.0622215874738572
0.4398081081581324 0.21839037788021187 -0.020316347907680665
0.5194360236033901 0.2353951930258802 -0.03203883762222404
0.48502900425350504 0.1966098034939705 -0.07410828177923179
0.4525263783566231 0.2710134072697912 0.02722128994739137
0.47752914653966627 0.14918449840033077 -0.11367347258544669
0.4725198527860073 0.2036333481514987 -0.02165148275662432
0.4693769091729507 0.1801955228284271 -0.026384579667137587
0.4544746832947908 0.245174733103795 0.044873455041425814
0.4215614866620001 0.14360778970548438 0.021881513630290783
0.5131900752597858 0.24468759233020876 0.057425080113759464
0.41393832188879287 0.15126072557228554 -0.08430751861368435
0.5186382062957193 0.2105121118587192 -0.041603607396822895
0.4802876627777266 0.2244170807675232 -0.02990917755015232
0.36070997370998725 0.15268353716543004 -0.014648737775303289
0.4069391248840475 0.13384011014588282 -0.05238897759642214
0.4037795231286623 0.18520482724585463 0.004301898327838671
0.41363207978068317 0.207157309296349 0.01685850948291545
0.5445581630444565 0.23595148237058083 0.025366431919650267
0.46498489238967977 0.19466900265749132 -0.020770506016987156
0.46478860020135926 0.3623853976204714 0.031241072118660895
0.46947649259507784 0.2278983914617072 0.007512032270682312
0.5388152017223149 0.17214370233048726 -0.11182823110320328
0.5707239771866739 0.19958707653648844 -0.024322380456382575
0.3879724505611648 0.1311956980809157 -0.0022174290311340883
0.5691168784815659 0.2765079172228013 -0.131370040529049
0.4829014454154219 0.2028027911985646 -0.05341284882953801
0.4776581234076218 0.1848115310845344 -0.026956892208701788
0.4889445740754752 0.1636335029261744 -0.09033896748761094
0.4058013033090049 0.20321173808170556 -0.013630363582393556
0.5199132296405082 0.25575105025963296 -0.08068340147343633
0.554627013712917 0.23361923267751195 -0.057441058064725325
0.49085878556323337 0.247144876637293 -0.04750568846340286
0.4604452028190451 0.18043801805421822 -0.018708502920901537
0.4430703181508875 0.20284470584715564 -0.015666945408952415
0.5181458884962069 0.2220341465764335 -0.05632196152861013
0.47213669574551886 0.18263266080185758 0.09915122211785388
0.8052929388915686 0.9611199853670769 1.0426269858368755
0.4329281720602012 0.09554555873272363 -0.14001504505350226
0.46022621403059816 0.2104103493858389 -0.010634621514341802
0.5533043386035672 0.17971297557005528 -0.1244593497451234
0.4603582282996399 0.2211771649172647 -0.03745243718297786
0.45310607251775536 0.2039171034145113 0.008967111176730214
0.5120735419103539 0.2116799825180209 -0.05633270840468185
0.4761429782736002 0.18574153785337444 -0.04737938793171281
0.4548744394297728 0.23667447240981687 -0.023269467396119126
0.4832212888698848 0.1486297742256113 -0.09955282605963589
0.4633336017884062 0.15434271304583547 -0.04865787243144837
0.6024461733274222 0.15518090943287177 -0.04435441124914519
0.7674554583376221 0.5483631484396483 0.10861157556297485
0.5093677803596393 0.36268070529294505 -0.050061339476712874
0.5812165276058465 0.2136568083267747 -0.034492207357018856
0.45696636822989944 0.21983681386720377 -0.017181082665928216
0.4656640283954516 0.14172816286290413 -0.13341638427624503
0.5073239355958208 0.23323366729886175 -0.02278658459428584
0.9179425396108911 0.26912695466768355 0.19157537504966626
0.4589233677579898 0.19540028475978488 -0.02575699079881133
0.48226736677381155 0.18852083517742813 -0.10264325439013078
0.3526883063484263 0.23390312756994547 0.01261903512275353
0.41966853322273323 0.16134688592059376 -0.07953839295822718
0.42709419113921854 0.2249921824822536 0.04102291896325028
0.541085897657382 0.23201101312861283 -0.07819193541911318
0.05844118340851878 0.036611378571066666 -0.4294309680176269
0.4888019254618712 0.17009006851957054 -0.01979237681425161
0.38087116991897574 0.1796271888470784 -0.00965108562068906
0.46615252226663983 0.21256049626305185 -0.0025061602885045886
0.47105481151837125 0.19856601079970915 -0.02377302937563286
0.4357528831131674 0.1892764353459313 -0.03572527226060629
0.5513232016516838 0.3024324401056049 -0.004211406479740276
0.3876749852108219 0.17115408387833497 -0.014436574252840728
0.4349083769736808 0.19929815896716718 0.019608732619744274
0.405205380806251 0.22099554567120094 -0.006636957371313201
0.5632207958042272 0.219042815037497 -0.049270887688209086
0.464406245153981 0.19923879978894377 -0.03857483395250938
0.4922894147799468 0.19146950430433662 -0.0519814284405129
0.4087103687043907 0.2246955715169605 0.012293929499421097
0.4564776455453057 0.2072625258080052 -0.05575155159429812
0.5496504577645283 0.25324248302862884 -0.051433865735504014
0.42988000755255484 0.19811978262592334 -0.023751438968872662
0.5723758048772254 0.2349662874735543 -0.06874578608963589
0.3746261314837227 0.20150341046755216 0.051578647008796
0.08306799647047569 0.2607805791050737 -0.44953637786696277
0.519124104903284 0.18850678763644169 -0.05193392045549672
0.548942977494562 0.24438903405228984 -0.062126855808799064
0.44314362106544536 0.19380779400302117 -0.026998389394265132
0.4241746619428852 0.16696504737848272 0.008962849874578183
0.49415732995126405 0.20706651492560013 -0.05262136658485872
0.4917202789927444 0.2209066872551091 -0.0036092255191988443
0.46854790939170243 0.1499463145727873 -0.09364146682148089
0.48778209113939397 0.24788734194504514 0.04786965159934198
0.45466048041896556 0.20060705371815857 -0.07394901970278056
0.4141981264021979 0.09670559285025604 -0.031764795985594674
0.49478860585776374 0.21747866908592073 -0.0007319673277237371
0.48057779687903235 0.1925544796657448 -0.06509154246110427
0.44139438998780633 0.11002808638599504 -0.11820708957557713
0.5161902228139752 0.24518288122644094 -0.028957378398615674
0.450992918742287 0.20389028225375228 -0.029883678114671852
0.46195226066080863 0.22474639446271283 0.02731319190843351
0.4661895918180221 0.22164347359162662 0.02986203052276437
0.49371749248561514 0.18080938680681413 -0.08335375186703686
0.4867477127662596 0.19971517379659076 -0.08702630447209003
0.33318812873113757 0.2033451709671965 0.1760102341426233
0.46982175107365265 0.20680779618220413 -0.028862744218344005
0.4690729750692242 0.16555531642762844 -0.08138354107995838
0.439115994746345 0.1992351379269195 -0.023127699102985844
0.38346538453447465 0.19249772878991678 -0.014485400576162988
0.43670414357353593 0.01525586623081665 -0.01444939834615866
0.4946370580662176 0.104916632401995 0.2758420159184567
0.5618466685533008 0.2621549099209659 -0.05158847619455287
0.5129671512432594 0.192490457634392 -0.11184231141899659
0.46959394213575933 0.17470949846305928 -0.023938902278459295
0.24761658661947195 0.3136076245821897 -0.010903113053927882
0.41550802781475227 0.20351508614683667 0.01594143523441005
0.40379462858791726 0.147627152022892 0.015000602581238809
0.44159217785735905 0.2158449600546959 -0.029068409723706168
0.42238495242099816 0.1621380557492671 -0.09656085339868525
0.4683353629004614 0.18164363002793493 -0.06181061493037987
0.44683976293038086 0.20115780567134323 -0.003782632059625257
0.44348591291694106 0.27501675125304814 0.10128261561234808
0.41513515319860517 0.19660949884027445 0.004346817085007615
0.3429746617132423 0.1356184041285644 -0.05406246017773242
0.4737310870152953 0.16819436012178812 -0.02503048227633542
0.3510934680727189 0.22185390720312625 0.09331917108730181
0.5030836833846877 0.135345523051555 -0.081999814486025
0.47391057327118347 0.1591053599816803 -0.06847300359777364
0.45166228214719695 0.2303376546868492 -0.035197041954816655
0.3792331671004092 0.11491029209751957 -0.05564975530373317
0.472346297540696 0.21863442704812996 -0.022058404262423892
0.4281791647393618 0.22817436645422617 0.015523218764172952
0.3881316509801991 0.1418439907867537 -0.06519516178440199
0.5328746071203909 0.16418552778573314 -0.1145316415331763
0.4883538528919189 0.24505361778588508 0.07361780067026302
0.38638296959084073 0.13892913307802246 -0.0925883891090109
0.3183618056125681 0.2815974449255947 -0.12945224560321833
0.45677457089200857 0.17744145994279847 0.032471557473897406
0.5042677175715653 0.20811539507340626 -0.07384700125183485
0.4570517600240578 0.19371114212475504 -0.040148424285860074
0.48383052797467485 0.2189556257346652 -0.03900868352261
0.5229908653389543 0.18368538276828872 -0.11469221784290085
0.40939934402931044 0.16596302317219624 -0.010047482239428973
0.4534627470205237 0.14284263278428 -0.094691119762075
0.6008078936024503 0.13559178594917398 -0.14749583699568802
2.843293973301826 3.3626099620818763 1.3222955424772351
0.1465645854499371 -0.028121817920776948 -0.5044847135695676
0.3439321180146635 0.4579636331409773 -0.16481697469825463
0.3796634490039992 0.15986625685492584 -0.016821755252777848
0.4061505611271343 0.17395978864819028 0.047845503510416165
0.45282775075452264 0.2228265340660016 0.03364683635300025
0.47235145116471244 0.22988459486181512 0.0020086020974190433
0.4343486322988497 0.1976584012818421 0.0034105275626217235
0.3954000032298097 0.22853623639306875 0.013896150338425173
0.48611750448591806 0.2012860100805085 -0.05627920137118281
0.5563822066544333 0.2180042488232914 -0.13421545500922605
0.5065084433697109 0.13809215018579835 -0.1309393448446201
0.425865501490307 0.19932241548787033 -0.007608405921118333
0.3679974222031319 0.17958028127590353 0.09187924687608984
0.3606480549655089 0.14521235183057968 0.008936719216293909
0.46082339270012085 0.1924120362823203 -0.06383463236647913
0.2442316322770921 0.2316658462537191 0.08399134253514262
0.48456046724155044 0.2338176097973701 -0.005711801562895857
0.5509140257619833 0.27220641133234835 -0.004473302867097573
0.36260540105141104 0.2101508784587054 -0.010349064015386489
0.5065431188407956 0.25792049524491745 0.005865897287662847
0.4867920839990916 0.14812020772288292 -0.1349659051867178
0.46131213720352093 0.08792495835217551 -0.049147168718064904
0.5049567918734112 0.25085862867634035 -0.028919035715034624
0.4679189736560545 0.18934464990994115 -0.027729182688233323
0.523611571268134 0.16622444685685878 -0.03895693837610281
0.4541962933286072 0.2070267185045509 -0.021090270027130487
0.5536054264221093 0.16110762036916526 -0.06091603687826819
0.40935935206940144 0.21487923682406063 0.025424346837837675
0.4756302223641171 0.18413150080920104 -0.036706833337717626
0.4562782425356602 0.18364467794981465 -0.022369343874714787
0.49390100030348094 0.23683375763135928 0.06390064937890827
0.49584638364623856 0.2654651291046548 0.01662538400542246
0.4552576322714117 0.12551149239455128 -0.09386632952467266
0.35320054940615364 0.12705148918666964 -0.014137349241622132
0.45104076506538604 0.20916219295686744 -0.019463219175619884
0.47597308260597515 0.1405908366633355 -0.10411752869026714
0.44202312714890013 0.16671393194235407 -0.05110853529041037
0.44398671632677633 0.22399109454514132 0.0040258455090764755
0.44270763270495195 0.19231104983443004 -0.0015376118473966471
0.5458732916451368 0.14138150132089322 0.002350384949039608
0.38291420832678114 0.11380773178976256 -0.0841576356097562
0.4456214333896753 0.14405131320690145 -0.06138495105486186
0.438564404927007 0.18411119426099276 -0.031579840011858096
0.5085938418119724 0.2460684019125381 -0.0440863245522678
0.5594849326065514 0.2783864336975199 -0.02975230299944087
0.4634550205259984 0.18061374601286673 -0.04523532893352922
0.4718971599649251 0.20783431918320616 -0.022514005203930765
0.45532460960163235 0.06806974128008392 -0.14630244796012448
0.5098360728980253 0.25484439533988734 0.02190678870749707
0.4705428216882126 0.20396989682078015 -0.03139471230065283
0.45840707080037646 0.22714361092107538 0.0038437370449742048
0.37445947729537465 0.20314185423825393 0.05607389479462199
0.4744679194917296 0.2223627598685738 -0.03583132668799749
0.6062147833236509 0.00973809817547533 0.058930490382522294
0.45762246096796844 0.21888890893973212 0.026489277936576627
0.4912627108838308 0.18545691946413 -0.051327452970852505
0.4599929494991102 0.24661177536484047 -0.03613304946625817
0.5037523442770748 0.2721856658823185 0.014348928310880638
0.48018951128904064 0.19931248455745276 -0.00018129956279722137
0.4788108105818196 0.19966126582792754 -0.038661067689588435
0.48596757323784345 0.19945838270399463 -0.033983759403469094
0.47231116623342473 0.18319365359734263 -0.03727997755885326
0.501463509377146 0.21217700506824144 -0.0472195764350829
0.45527633498912223 0.08212024682259766 -0.07198206403671747
0.39365249230709765 0.14334959647310086 0.014599540665159338
0.42302646741742933 0.2134391140662899 0.028550951736207253
0.46736632037845993 0.18662995089115952 -0.03683399462175885
0.4792296955874349 0.17485086878357947 -0.07021506313580517
0.4758521136366767 0.21892481907545402 -0.05666192587243302
0.4735145239493761 0.22981366034409234 0.03771251633580164
0.48954773832531373 0.22370373892231044 -0.0038715645144975497
0.5187246508102987 0.2145745292488641 -0.05878659609396664
0.5236880508625745 0.2595182523018593 -0.0010673795067788205
0.5693888338098816 0.24996377055357755 -0.03892419258289692
0.4418367468939266 0.19618337100669692 -0.06579896297732546
0.4136540267167561 0.23289132796367085 0.0239522318808838
0.5688372242518369 0.20526917571122283 -0.09809511227422263
0.4951821155853793 0.2745881497659042 0.0935902499833361
-0.130595041531393 0.22651163025838628 -0.12991825255296874
0.445704692630045 0.22088312024527568 0.022277670385960846
0.4594359355641018 0.32827119888398215 0.015814645939826733
0.550576773921847 0.278468945208985 0.06460303658090538
0.689463602309047 0.1932562727215128 -0.13127948539217016
0.5516980370227884 0.22773335886282098 -0.05378100195068214
0.47543650297490103 0.21742183691563355 -0.033279923174376336
0.5201221584843552 0.2541531610079062 0.042343087343283514
0.4981441566649494 0.19637795263741964 0.0007790415504302928
0.48714596884556727 0.20349663516790883 -0.0382282834022476
0.47112875732287307 0.2509751947641945 0.054695453444054465
0.5583699445583932 0.19662495052206452 -0.0583994156640415
0.47281460935471387 0.11895444284569123 -0.07482811043546178
0.4994736327979581 0.25262248345811145 0.02463922241499006
0.5499702236478186 0.23391980893950404 -0.05502788478665366
0.5526683198470721 0.17248468671917294 -0.1549567602465629
0.459887631958793 0.16138707483264625 -0.10154057319479648
0.508770042218373 0.21130119981302187 -0.03595408509903564
0.41944141799623935 0.21218620037751634 -0.0016299709632789927
0.4359592917977295 0.17827400336020105 -0.011740304640966315
0.4821990868404953 0.26561347450665096 0.01906708093946463
0.49806064854118404 0.266583097154637 0.051874002693594434
0.4497258990708133 0.14025115649486963 -0.07637961342146582
0.3998024045338582 0.1441175725695416 -0.06414911777405052
0.4683106905355885 0.23019316765646636 0.007225701102541393
0.4962477396167344 0.2381498360175982 0.05027022891644606
0.46866870227128743 0.19459452542476185 -0.051373579796049285
0.6032493659888871 0.06469202614292158 -0.2823162355807938
0.4547797313090882 0.2083123215971625 -0.017969198585447543
0.5092082137460352 0.17364478146120632 -0.003742387214089149
0.3892140668572779 0.15544720943361767 -0.03460025520772092
0.5690306618618592 0.1688776860814869 -0.11893963584603284
0.49318839127539604 0.19881891485279368 -0.10325245715462472
0.4962786036022919 0.2136585331243026 0.04121085974959726
0.4856324737659179 0.12454846675365161 -0.06541377018885441
0.4711997225518303 0.16999136118658953 -0.056620865740001136
0.5497564403652007 0.17643405252184152 -0.1366362569449251
0.5378862911426268 0.24117773027009548 -0.023414847467563504
0.4932320605701648 0.22315380393010287 -0.05969467488131386
0.44141229936565196 0.2147095028943795 0.02579524600228922
0.49623291152587967 0.21726381794940153 -0.1193371756529018
0.4204062930288046 0.17470917000485997 -0.031551609324580454
0.4997898203884006 0.20562574848250392 -0.016485199536262485
0.47859530226836 0.19167671941772824 -0.03938249741202071
0.47876861937615445 0.24197162681305429 0.0775456344782981
0.4164002565753151 0.13756872705756962 -0.1102201624188126
0.465399886802885 0.25605578843691035 0.04059013863596306
0.5116522594678656 0.20025043446111113 -0.08060108125043541
0.47690537454724335 0.1977690783046313 -0.02747112370897753
0.46362258540020207 0.19289812630171355 -0.03874034829172501
0.47201824580548646 0.17949053093657596 -0.039931737830784186
0.6662526833497111 0.04456438978193944 0.47661970198866754
0.5842658616830079 0.13225887697183225 -0.0373183483019659
0.46396007713337895 0.19141936885702648 -0.05795124330592216
0.46143071589898454 0.18158179754419734 -0.031939642631442666
0.3947880146036198 0.2857165030468849 0.19352636135457146
0.4905150804797813 0.21178749063116697 -0.0821470448319701
0.46644456725488226 0.2014534993033692 -0.03815341922330617
0.4872905154749958 0.20563003394946122 0.009768413152968947
0.4393108045860572 0.12985523003371213 -0.12192476917343242
0.43603208035247576 0.210439436061705 -0.009137177396453922
0.3942518196023457 0.2233239059021912 0.07279622061855662
0.5261312289343607 0.13351890147711742 -0.08617437259206895
0.45695530867763523 0.18007259442134682 -0.012897867605019542
0.4769923629624202 0.2715522618051551 0.019259943246339617
0.4684478185816374 0.20261603607562506 -0.035184535117224414
0.44577497651638964 0.2955157828398285 -0.007985557041479296
0.49416794400343633 0.2799750627279849 0.006574155168408424
0.3701758490603595 0.21524137790942177 -0.08736867250732416
0.44246197597146875 0.1866276480247393 0.013304184492085369
0.49720000644924767 0.14894470680982863 -0.12255159384342562
0.4672387525767192 0.18698357612652217 -0.03536644625856411
0.4668377261890271 0.20875154730410372 0.001790410280307242
0.5008350526106256 0.15865606731262005 -0.07966808918392587
0.37625619294504986 0.12266115866881933 -0.16136476181688408
0.44390505324670926 0.18656067335965076 -0.009165586009970639
0.48904540205214175 0.11158808366954531 -0.14025238789113814
0.4519614469890314 0.20415645248401404 -0.0104883927638042
0.5295543018225146 0.24708332430657265 0.008392691044889489
0.533476814686253 0.2508868025652191 -0.09575080534466451
0.42110963533426116 0.2339712136220271 -0.017299915541627797
0.5163062501969193 0.2053654041786359 -0.0648575102112261
0.45924694834471325 0.1888784179736831 -0.06466029170631771
0.45412864739026304 0.1600178451312786 -0.1942961536445864
0.7278129934400113 0.24543235268137664 -0.20766000875998714
0.4807926609548474 0.19021236128355667 -0.10768687492392814
0.5472709545690293 0.20211450535033748 -0.09630773263003789
0.45156799238222334 0.17581691313037595 -0.007005929195827321
0.4549235824528637 0.17667838626130106 -0.09246610545406497
0.4022767312319786 0.18260267463558932 -0.008544284327371088
0.46247903368902143 0.14820697346377187 -0.09181940494379148
0.34623209419657996 0.1927159280478179 0.06039475219471058
0.5755581064292983 0.2699421374864954 -0.09491891548699982
0.5023499347449274 0.20612349491835857 -0.036615944160814706
0.4754196564281017 0.1612107619916685 -0.042691849233222
0.4762284170869293 0.19350503092343274 -0.09418714547847173
0.5461725834178992 0.26571794972181806 -0.018421041368412716
0.4647379187708509 0.1997843197386402 -0.0304380325801219
0.5408362815045678 0.20573001280712333 -0.08667392334902502
0.5464375680245439 0.28338819769915347 -0.033010781425190316
0.4611131261216599 0.19507410291319616 -0.04219171763753593
0.3934912931540282 0.23119642808245544 -0.1708609554672904
0.42093820345743893 0.24102558676082708 0.0027446061791067677
0.6021380900949964 0.22759774136133615 -0.026436322268779122
0.47539330816380243 0.1903513466484128 -0.05311825564434969
0.543283464103439 0.16717372798837005 -0.10536198432873789
0.4815162524463119 0.19945224849169563 0.030244003122291474
0.5754129381948019 0.1509926057373434 -0.06416634487391093
0.5368386924409947 0.28414695835930104 -0.008112120655795252
0.4618356529491905 0.2305648401732583 -0.015027508871725104
0.5050170603024924 0.21117231424886995 -0.056114175654386145
0.36501126612128587 0.16471527619185622 -0.04982279914000287
0.4466391862693797 0.23648373213781326 0.014645456645496324
0.5123474405262414 0.19903208142625317 -0.13992321596172985
0.4860100947799424 0.19483634648059933 -0.09686726344398267
0.4221153876068513 0.21727531860886984 0.037139573450176044
0.4887031422409507 0.1880968829737526 -0.010574553289387723
0.49848397422610446 0.15766762214683183 -0.030142045532642214
0.43365798596047966 0.17615193777771765 0.05521684959599327
0.4413878487698071 0.19081619861317733 -0.018616114065366673
0.45655805754205403 0.1933169375219279 -0.013788633616314883
0.42170487861082506 0.1795596346946553 -0.02044963123681498
0.47601748800209975 0.23766767019053248 -0.037519085079850356
0.42762130128315334 0.13399440503209803 0.10679099078225818
0.46616748637808314 0.2051408671619015 -0.029170255562974035
0.4714716012907729 0.20707882209447348 -0.03557339441192653
0.49462175915806483 0.21032079755114808 0.012905022865453475
0.48436811907529886 0.18706263796713074 -0.06002054373932708
0.4679940499523241 0.1856236762765633 -0.024577302746877194
0.515248524399567 0.2177503633012634 -0.06560281772792109
0.4454044373472641 0.17581323847767294 -0.03937295513928518
0.5140627885274682 0.21070305355090113 -0.06687805895634824
0.4271438012478086 0.16849444965541238 -0.009517039380213532
0.4554722838589669 0.19058127532818503 -0.02953625888147826
0.4835710544966787 0.2121915996447825 -0.06875971012431137
0.484584260178309 0.13564766033196918 -0.06054025551483733
0.5056646598697796 0.23631870765024132 -0.03078179068039333
0.545241510506969 0.15965562411088285 -0.12297841556599565
0.7559274939262366 0.06309229979831343 0.007218377006552146
0.47119907923899973 0.18963442975916678 -0.03385703033433174
0.49022572928262775 0.16783397487643015 -0.05934543082111077
0.4698108942420163 0.17220012026200493 -0.05615342294919401
0.5347113133450137 0.4886632017970953 -0.15390195081874936
0.4880227281309999 0.2481004837625136 -0.07342345127995031
0.45922925116298074 0.1862890014640186 -0.031255210598345684
0.4634975357485587 0.1885078663803199 -0.05159860286329376
0.4209642504492592 0.14315662869636014 -0.0640140738985906
0.5720010191423341 0.1820301636403343 -0.09697905817425578
0.5083398683398741 0.19215180377815955 -0.05641286966545067
0.47223819012737067 0.22305397548441874 0.017420318296359483
0.5108352424375084 0.18193244746811388 -0.08102072270946792
0.47236238439151634 0.18287394783180844 -0.0446483319133506
0.49584722706799766 0.24347750098638699 0.055451166011508235
0.5303190841177354 0.21314999475067964 -0.08827199465156355
0.47957232994099286 0.17743308783838074 -0.035764255071455864
0.4889670323613018 0.1819577227303455 -0.046259433541706585
0.5047766295756162 0.17868958520932665 -0.04333806147883479
0.46080606266099267 0.18337077294641801 -0.03677475706997768
0.39218892254163507 0.19852314348693767 0.03566701005320283
0.47618054454869707 0.2229952228780121 -0.00551226687659323
0.37074280194491394 0.12546187341638415 0.028500540293379117
0.4595942604417189 0.15089768607293763 -0.07552994051724227
0.49359585502367054 0.2417719251251924 0.001265565780144584
0.43940649008138166 0.17863636977742203 -0.05533924827838632
0.6920194832457014 0.08843698576876591 0.6356698662905984
0.5174626633819912 0.2005451584988407 -0.07290058662081833
0.5487677101954773 0.2325629287909976 -0.08855057622122331
0.485295455902957 0.20850083401022346 -0.026722280100813123
0.4098560773862232 0.15005251375188777 -0.01448864213537604
0.4687185791207753 0.21515873276945285 -0.013407642680775211
0.4898517927881585 0.232943933337026 -0.06440684549684761
0.4783992034451501 0.19785179920675944 -0.036137244538124946
0.4595178814763585 0.21327533109251817 -0.007360490509995543
0.54730635578224 0.22934829850728988 -0.1191631548728651
0.45790955742126016 0.18764881546672996 -0.031249758376802106
0.36722867898811273 0.17188587822818135 -0.04577608716135728
0.4154670807314744 0.19175129645907418 -0.01920780872404748
0.3665294237902401 0.14808012916685698 0.0335887325814781
0.5326988400840946 0.20227817554959415 -0.10483386127640415
0.4496468312023012 0.15379769566420975 -0.059482940779872706
0.47831359205673607 0.20805483630118715 -0.015448066849245379
0.4082619007470214 0.2193621355825428 0.008194510751181383
0.49996816529917965 0.16974620077020575 -0.1199244727258133
0.46536637800844005 0.21007885445885677 -0.04165441747340992
0.47751180031812623 0.2305399221442883 0.008527851617699866
0.3766317317325729 0.13649374377317258 0.029940204853375008
0.42178883135215983 0.18462299293597084 -0.05150553000817126
0.5287303225447886 0.218151292921533 -0.07362211317317247
0.45642173694045596 0.1749530669803505 -0.07879499700189285
0.48860497427631344 0.212377415066328 -0.03985104488452862
0.48779904431179943 0.211009695793706 -0.010311425832213672
0.45795811010665943 0.18900648777608353 -0.04175835584619847
0.4021472470777212 0.17991088353576856 0.03537667516822296
0.486163786589799 0.12616770231174712 -0.17552409922967627
0.49762701816675303 0.21470173928473457 -0.05277641902449659
0.3761748553684754 0.2010066338220753 0.017464654992636497
0.4976425435783085 0.21669262419553093 -0.02578958301391765
0.44749372924920294 0.1697357937016477 -0.07174141061575767
0.4169312864179915 0.22466258720584165 0.036784054020415624
0.4326977495963149 0.22058733161790656 -0.015433931438167292
0.4967864727010749 0.18139183184469232 -0.03642239355585275
0.4470078118172012 0.20284104217185472 0.027696279253660805
0.5468700773263606 0.3245774336130154 0.09789337060649927
0.49181708716139383 0.2431818678414146 0.012121544665546935
0.44960575289223925 0.19235102610139165 0.027117179649167156
0.45952938477307725 0.21427715297488703 -0.06427818623424741
0.4834693602271898 0.21556720433896714 -0.06379012960726982
0.43284509093834345 0.18351680953620075 -5.677277836468875e-05
0.4818324490999544 0.2152107358326134 -0.0689253664687044
0.45253158671394544 0.2398404745059679 0.00966337305086995
0.46741461798384876 0.20580325293521184 -0.03274153252743872
0.48104130899261577 0.2013066526972409 -0.03131890604501564
0.4649614048729802 0.25742619277372114 0.017080693899998778
0.4101417657478521 0.1556262418563108 -0.011311377460231142
0.44515632756053947 0.21518438503944992 0.0004016721129147527
0.5623160088586303 0.20057484167114126 -0.044933521378794694
0.5257817954878305 0.2208524054743748 -0.0768547025923283
0.49486155543280574 0.2724212487948421 -0.03424836089604355
0.47859837251712634 0.18067742647255614 -0.16343196854870712
0.5856257569741672 0.2060492230463069 0.08564525056343086
0.38236793710422035 0.2343066688399631 -0.04991595218783118
0.4716054550984268 0.2139416424712408 -0.016694511064685003
0.4436646664912587 0.13702415609182594 -0.09695145851986808
0.45435428465648897 0.2133174212517872 0.014190159685512072
0.456095433884542 0.19817531490629392 -0.013773197823979899
0.4586484772289623 0.18374919822089453 -0.05288920514983886
0.4859896714863794 0.19645585054121284 -0.05750603651117103
0.34209067281821604 0.30400553324678015 0.13228744852258956
0.42118446915375785 0.20623115976293604 0.0028152145785895755
0.47243699499682634 0.2102591588270144 -0.041698571436853626
0.5264648168510178 0.1980750791685182 0.07098965774821409
0.5181884689438618 0.11364957235807083 -0.1052645660687972
0.47783944359196084 0.1948790457971512 -0.05921297640536238
0.5473966530323935 0.19906690687331263 -0.038717060432134076
0.35810447388169564 0.14656277262048434 0.014237788324365397
0.4756519283135958 0.20572058705954532 -0.048594388311101966
0.4585970160363786 0.19226945156808029 -0.0629977907906607
0.47794739679346776 0.21923963992693984 -0.00048304598817594524
0.48405197474548345 0.21598975319491842 0.0019063589817562843
0.43976042990612996 0.189652226406281 -0.029660902215169926
0.47920285127551665 0.2032538472063834 -0.019153797729856592
0.45971722771432155 0.18700053404832317 -0.01659706792167981
0.4463217515184965 0.19848694774913156 -0.01599481211934517
0.44288680869965447 0.2181571745832116 0.04518528072978256
0.5665869251876643 0.22674856693561196 -0.043212575406286646
0.4589496060299041 0.1926458755124827 -0.06563107397280987
0.4458629573668702 0.12204714785875126 -0.04136166067664249
0.45263944703054904 0.18972013296493628 -0.016009227192270714
0.4679358748831248 0.1989064291049658 0.016626254300035725
0.45636328999316333 0.16357018795865486 -0.07450075174014614
0.510830081887832 0.21513708636014428 -0.035707471277092395
0.4453664973700029 0.2066745395598275 -0.028910433707011407
0.41209279330973914 0.16871551249599293 -0.015479780953654654
0.40653860502470707 0.19524247751557766 0.023385461440383892
0.5544230518133588 0.29044730856263357 -0.02575222061429372
0.4308998163120066 0.20481429169635135 0.006223731362368312
0.43812207909698486 0.16268194433678218 -0.025902885637435702
0.5080989511332064 0.21919896893491853 -0.09900237743437401
0.4303153186660609 0.21328650237592228 -0.047934045599134834
0.5417757552654052 0.2017953188740762 -0.0197620272318062
0.48151510120968055 0.1687253251660934 -0.08928601463622954
0.4500824643454564 0.1833066594676609 -0.02913439229597259
0.5603828561611977 0.23804070735832283 -0.052825106607244265
0.5487335195350909 0.2525288505999299 -0.05939835062483212
0.43183888990756714 0.19293150337688303 -0.07770287937081832
0.5383477256623337 0.21725899096543344 -0.07949782682368323
0.4786288189164054 0.18127832021231427 -0.05654404145204239
0.39870718860615284 0.2057951591660867 0.05164950358366127
0.472084543466849 0.1812701231439604 -0.012005465309300689
0.4703798239623609 0.17549962046686574 -0.06476990261178628
0.45751101024919194 0.25357412751594666 0.0036282788296375657
0.5055630728915048 0.18656746061505203 -0.10089860734984768
0.462694840737953 0.213179821640324 -0.004627638466430994
0.3518336538508038 0.25173335833595445 -0.0010377627416744417
0.44359742770038224 0.19846238531047788 0.00531726810331179
0.49220905635959866 0.2076753268529501 -0.0951378838198309
0.5511275966178459 0.21558371922563424 -0.11043067980705246
0.5228462802054992 0.20169626175294297 -0.1147507858206609
0.5512035753898772 0.1694476353209069 -0.1437061591603026
0.5215209090148676 0.24437368397690307 -0.012855359399907229
0.4870092799385759 0.2737588072161259 -0.002412061293540546
0.14545597989069847 0.19943959814419543 -0.4770750345586805
0.571078263110536 0.3274136935085181 -0.11460009102110291
0.5077659820179292 0.18203883364427043 -0.051432229652306205
0.4762623768128549 0.1828233418889198 -0.11243997529395244
0.4532595215928268 0.21177776762164058 0.008626299378647673
0.37227381228890977 0.16118630901732445 0.005008901568103852
0.4418658273952758 0.2194861433617632 0.0036945158824437385
0.5618748478650559 0.139418586997067 -0.2408213190982451
0.5128136789336679 0.2143476464837022 -0.04538617015413138
0.543908006473373 0.25118672372582296 -0.06013531987073861
0.5272158087707055 0.27236607157303183 -0.016769845957156804
0.48834614485335237 0.14451138818313325 -0.08039152659151227
0.36213903271521986 0.12973238081463023 -0.06772467379094849
0.47511619952419437 0.18975200571247797 -0.030013791751770214
0.5033915907626465 0.16469945489146198 -0.12572774110920193
0.3947354699238588 0.1593917690099289 -0.11541675870464019
0.4673670944017374 0.17706179329972827 -0.012328594505845558
0.38984283421069676 0.14995045575716404 -0.05806585089491989
0.4987007666000238 0.2454827362127645 -0.03753746073533648
0.48472704922110665 0.22451619078583462 0.03016262675335213
0.5676659987379651 0.27680029087972 0.036020232968468235
0.45527400932326145 0.17862251390270956 -0.07102770589104068
0.5368618417009259 0.22841016157317995 -0.045786480371901916
0.3855593065488847 0.2123293248007201 0.08985186398663814
0.4580928582794854 0.17914578183973617 -0.04101694180188531
0.49192216050508364 0.16257833872732874 -0.07908531583159117
0.4238632452885156 0.20200986846634805 0.013432578343667956
0.2908993506326567 0.28798104812419467 -0.09933003553098274
0.5211268838906449 0.21321712775250035 -0.05250514515324767
0.4547252051515329 0.16203918500927728 -0.069884676101438
0.45326123254642425 0.16656487953096644 -0.062458023199525314
0.367422027403876 0.16540340247763652 -0.0682050272676662
0.6810090299974263 0.22172405074640267 -0.010925199258352336
0.47798327642090044 0.1370196927709202 -0.11085871929697078
0.5746309302907378 0.06916061604462698 -0.28869202411645745
0.4608803078104131 0.20925349641666458 -0.02771215759348422
0.42358175567935064 0.1773569417823495 -0.05834234090936263
0.49315923025224606 0.2391925122655607 0.03808358912348808
0.481449045781261 0.16780850106934508 -0.03425404218711492
0.39905537124658963 0.15180069559080778 0.05050686778020008
0.45873907238495804 0.2694123466033034 0.025493130829147503
0.3916711105356967 0.09726932659482657 0.07369671778950249
0.4956109587704418 0.21251145052512754 -0.07130165727555493
