# .PCD v0.7 - Point Cloud Data file format
VERSION .7
FIELDS x y z
SIZE 4 4 4 
TYPE F F F 
COUNT 1 1 1 
WIDTH 797
HEIGHT 1 
VIEWPOINT 0 0 0 1 0 0 0 
POINTS 797
DATA ascii 
0.38010310777167433 0.25420966581224036 -0.10686470079150467
0.49724779708138556 0.15787735993920649 -0.09478603862419277
0.5178492379089761 0.17938719057528374 -0.07631118729770492
0.4710196322029532 0.19916686689845164 -0.029095516549830336
0.5621058354307849 0.2459041512187099 -0.08677249980701163
0.5361822772196234 0.2304979757474257 -0.07330310596702816
0.42183285954187966 0.1900518700527698 -0.032055286325473276
0.4944558520458031 0.20538495566873394 -0.11480748459992185
0.47023338799991166 0.19680000420751753 -0.03640661806404921
0.3995913504185893 0.17583157455715082 -0.006560074217986767
0.47760932929136857 0.17825517625257703 -0.04685254608105538
0.5682747420673309 0.20731207232586257 -0.052693451630460686
0.519331667220726 0.23087329861844808 -0.09433016246271109
0.49145562699409595 0.2222276875178011 0.0546710269198627
0.4822999018319081 0.20927843720645 -0.039149879867437676
0.51784214393345 0.29598725495344524 -0.05340301127864677
0.42944138053633196 0.2070574518465662 0.038504387014427266
0.48355405596032597 0.25085433158119486 -0.05359068350730922
0.5067775915506729 0.21324552500723826 -0.06021854360616885
0.41655952860277523 0.08433608040081708 -0.08977308027823483
0.436342348981654 0.16448755369549417 -0.04014325145340081
0.5266718796552823 0.20741577361377495 0.0003993437858014204
0.4588472387323037 0.20461273415696724 -0.043069239762260736
0.4100630181640952 0.21523893210384415 -0.003651940900937234
0.42706266016271854 0.1655639764138357 -0.028097147699185143
0.5156066801422412 0.18003782725674 -0.05368461327233831
0.7615390376232796 0.1185327792499038 -0.30241439769508816
0.48377244899373295 0.1787598557462502 -0.03733803093757615
0.4832005336080414 0.20745406769083274 -0.05571596674312218
0.45952857905116673 0.2033755335625358 -0.011896569862102524
0.4623277745397729 0.15502336032474773 -0.05619797751222677
0.4067979884990649 0.16005530044576233 -0.06619931528931033
0.4329127560207411 0.15967570242835905 -0.03448037714682073
0.4654084888029075 0.14128474960089932 -0.11239194939255981
0.45835576175666404 0.23442231274432856 -0.006510753633975241
0.5794308323505533 0.21061987554065809 -0.06956766007149895
0.5256550776649931 0.2270211439676757 -0.053149592448903604
0.4036750716086317 0.11856281606138452 0.15037903315807455
0.44641230822874434 0.1536253411631492 -0.008187037404752573
0.22661759418892302 0.16382613813165392 0.11951489125445391
0.5087408155802251 0.08891136437128466 -0.2505567031165583
0.45490231938997283 0.28864532233089335 0.07663781530195024
0.4733025479501549 0.23689302013892188 -0.02218516166303175
0.5524586812295809 0.24646537977844218 -0.06764675507778861
0.4739649310927945 0.16540688634241008 -0.06122608358907655
0.4900267328576575 0.20257061117203534 -0.05223719378253122
0.4755098742574404 0.21192706832357544 -0.021617292409416677
0.5321441227075496 0.20797423800887316 -0.03251212195887376
0.5904317642153387 0.17082752552651925 0.13514407935380746
0.44463744961508667 0.23092097088135688 -0.02561058928087334
0.4627397292788231 0.20242598289664215 -0.024184070711200434
0.45031389732383786 0.23508192048554122 -0.0013223917481184344
0.4980707521358454 0.18690647317576747 -0.031978256449363585
0.443629833053393 0.24101837122448444 0.01029519170234039
0.42155167159019413 0.183617685603906 0.1063725961930686
0.4448151659808133 0.3029538048254494 0.08226985555273814
0.42249507041911727 0.16968241721411914 -0.003291824710686342
0.4698924712646715 0.10630873069355573 -0.1412381541023393
0.625276681905774 0.18740372361044422 -0.20259109782624307
0.39527087227413915 0.20458177318619164 0.046015932076244326
0.4268323110447483 0.18712817942747506 0.0022533100829633668
0.5208108407882435 0.193002378241232 -0.07897517372487073
0.4986150621126342 0.2387070364488011 0.004277713298051822
0.5158375280114598 0.1812387887996465 -0.03487392516416321
0.45298124651782246 0.21214906986770643 0.08249616921355596
0.5939398503578559 0.24464891510876896 -0.09612276247371199
0.47418230815405593 0.22303987214942822 -0.08286683484689661
0.5101853210622949 0.1738435767212394 -0.08248374332376329
0.43649816990981094 0.2263972336762663 -0.006130851399404946
0.4233971100270111 0.14811859920266102 -0.045792302975740995
0.4941754921379129 0.1608827267629067 -0.04864212321317041
0.4378162867314188 0.20657779143382982 -0.039063423356026306
0.3974818558185831 0.17311771163829803 -0.1053432194298125
0.4556622173571867 0.16495184416784525 -0.06314793342694713
0.45275213805645365 0.13660294370836823 -0.0620387652468537
0.39890376908560654 0.12152197513060514 -0.016045757434199004
0.47550090000503076 0.2759860169779529 0.01609709461038733
0.4879835257807912 0.201339698714051 0.01982887268704303
0.5680257668378204 0.11890065747590484 -0.20599123773877182
0.49455755679289837 0.22480215856657537 0.029317859605313856
0.5231792164788089 0.2634677107240577 -0.02875191155287382
0.36579580464092487 0.21553663379805243 -0.025498272236305297
0.5451482102282768 0.1988913073493137 0.0002722842996405461
0.4564652830153051 0.1870726863324279 -0.02990285469931564
0.5183152717200556 0.3205318529817589 -0.24600341708026008
0.5110489263641824 0.27439750978363975 0.0422925124273803
0.45927633062235884 0.1997058490642587 -0.04188962081856573
0.5150843590541427 0.21379050872613448 -0.0450944472074184
0.45289105731515633 0.2079145320226985 0.018962512192416625
0.501525567417076 0.21258820846749416 -0.02980900252592278
0.4444445679051654 0.20988511651790986 0.022488127518855094
0.37314821477184523 0.15666049395653658 -0.0011966548968445068
0.16817997827247666 0.0787040380616304 -0.53280079180972
0.41176248145120553 0.22753138407453832 -0.0019864343945101837
0.42464599738529785 0.33451595028526526 0.17163106983531407
0.564650535991575 0.16770620005448222 -0.06577744027384824
0.48651327680349254 0.198039961229739 -0.04448889347438012
0.5064960878664095 0.2303417711315916 -0.004908684632241034
0.46909505330610557 0.18680742104211845 -0.047508351511794444
0.5239866296967222 0.18007875440059706 -0.08217736436979806
0.5412286727553663 0.15450239852702907 -0.16913619212924402
0.5217373445590141 0.13938063299821124 -0.04498098401263917
0.4947422667984256 0.2044239877788101 -0.06862615655802529
0.4926523089238657 0.18050994146624078 -0.0672789126947464
0.4791355729906144 0.20522703146323806 -0.008365960131769157
0.5046405566136087 0.20727070134491044 -0.11159115903409145
0.3983227522538755 0.1721082751134304 -0.018664231354037497
0.3777882637045167 0.14683877568162984 -0.043699983400912856
0.5570493084253911 0.1679508833298371 -0.08395406503294112
0.47239013925671713 0.18705299427665523 -0.04696235829004536
1.8690370808543975 -0.26848388782677546 0.40647310274978565
0.47661312179988613 0.19257904327008646 -0.08738464323401729
0.4743506557003627 0.197123862536003 -0.041645944725530626
0.5032569123346491 0.20233068258454523 -0.013148539212011201
0.40894348203084974 0.17583235485454907 -0.010528300937863833
0.4597138845260105 0.19974214540803814 -0.05268479378845825
0.5658849985636891 0.21346793361853145 -0.03013909069653664
0.5712096338496195 0.18203596463270344 -0.05287607252054727
0.4942534284045337 0.17577487314369478 0.013577039720104267
0.5190775184574505 0.12192110504446418 0.012425943580325338
0.484335539065782 0.2401588329015567 -0.01679694909068985
0.437576990827921 0.2044233444866279 -0.039260677789940246
0.48565167342924553 0.18055613860838093 -0.046546795870341384
0.47667244562899214 0.19711254712808568 -0.03507134638979892
0.43041962876689865 0.2180834337923443 0.0360783792521886
0.3344656495891911 0.15614056976868085 0.04670649763795609
0.4577817873424834 0.24734384415845057 -0.026799484736713453
0.45483364154760864 0.17342781219659287 -0.051531060923139194
0.4555127296122521 0.21522964479467532 0.013051077932374255
0.50067732952283 0.2371795339864491 -0.03260618499774637
0.4840688012377967 0.23806039286992586 -0.016616704736961196
0.5811331585499033 0.23120478590021776 -0.03850388019266404
0.46195354610884465 0.18815467370917816 -0.004563907046573945
0.3911311630636902 0.1643281321256893 -0.05538853396257082
0.45146609803285287 0.19643537872431693 -0.018983903696693005
0.5107511122230619 0.2941535201235581 -0.0049390111020386485
0.45415392389165277 0.16788962368613625 -0.09080622417596373
0.5000588575527729 0.20312392343303998 -0.0400659491746751
0.4896959999331756 0.19439227799225023 -0.05886717351080506
0.46833557820788485 0.18577798718496297 -0.04072940998290164
0.4965270075004611 0.19402983041749167 -0.09573727035893853
0.46397680981996814 0.19874390369253092 -0.01213198287183559
0.37181701289900104 0.17829305003198215 0.07433512062148395
0.4447918058221916 0.1877622154153471 -0.021825825018268574
0.4685780175811516 0.22004230114939105 -0.041737069645961355
0.5952489576688862 0.3685485722138253 0.11110868191961742
0.4583862913451071 0.1903364722141987 -0.045305805514942676
0.5225410000871733 0.19130311733582062 -0.04674607449574353
0.4690840314171254 0.23086476049066107 0.041991952152429235
0.5436470044605386 0.12113145324366315 -0.13144801109962145
0.46311608051361475 0.20921761419484142 -0.022955988391430537
0.411308922371191 0.2750665565864665 0.003065695000984192
0.4159567693828592 0.23150217161774833 0.027277940022543135
0.5542135389419798 0.288258961908582 0.05466525570011527
0.4492408509747321 0.18005490122260426 -0.017155485444789065
0.5051768503753351 0.16328667169486266 -0.018844044681145533
0.24127707152015887 0.24200535351582175 -0.18626138372808043
0.554818594264006 0.20349914301496597 -0.05438651739814304
0.47349343570790836 0.1957648892143311 -0.04082948964708066
0.48969578120357937 0.21862285638681556 -0.02926841048991946
0.5010479173502205 0.21711847873901036 0.017724902820958732
0.4893693283894436 0.2243560061200185 -0.009045376223696167
0.4343412382996803 0.16033989506942703 -0.0052757711467563695
0.5348816448948384 0.2184564237467299 -0.02625478291490424
0.5286897898233605 0.2501406608558767 -0.04174671439405131
0.42278514265235856 0.18314509417835723 0.006220000054213415
0.37881972668081687 0.15155633065901952 -0.027742306716191933
0.4867610768925914 0.18220685954949545 -0.05235779319805545
0.45012347037216216 0.1769993152360314 -0.05010866681627135
0.48723183316144514 0.2160740433626529 -0.0431009754534557
0.4760167164851623 0.21297728840917785 -0.03078919223980847
0.5135132655046419 0.0940414538511618 -0.11753637694245356
0.4499252216293428 0.1730903551500944 0.013259566692255476
0.44842369840608853 0.19384536732965785 -0.02945936790030146
0.4718093275378976 0.16360325503697482 -0.03552966450027384
0.4485355151103647 0.2834266620126016 0.07662714762220446
0.445149738386732 0.15432607406103216 -0.06605476539468214
0.46932525308618267 0.2102060253676541 -0.006957872337196136
0.4850993892674609 0.13558196321159244 -0.0831825021646182
0.4987404241718565 0.23929949138008055 0.019185414822402436
0.46049680162805373 0.26345323067430115 0.09183466891873593
0.4356080134653695 0.20438349953997204 -0.010471741443126348
0.43312215468114346 0.19253302733969235 0.004194481109735193
0.4713029349433526 0.24367177877232393 0.03317566689594287
0.5092418966074916 0.13774212328701196 -0.09119696282741074
0.43317427387242446 0.1474336318369467 -0.0740861639945507
0.4628027730618385 0.2274304471808648 0.012941673731958758
0.4701923254516913 0.2086445811524129 -0.031770075174193835
0.5609556282189345 0.2801057637928466 -0.12033714728885059
0.3725600901054662 0.16062404592031498 0.10539002121805652
0.49464340971189813 0.12541016504128777 -0.18625263815866333
0.4427048767595636 0.16368124539832252 -0.11972673072250473
0.5556663873857275 0.46231025619030675 -0.22512386959716935
0.4616520192049052 0.21995979075094851 -0.02000718635540011
0.5148294603953474 0.21406283701097095 -0.06279632001776747
0.4483028095902455 0.23677134909377173 0.004995792019684586
0.4187335075568228 0.17881276036285954 -0.024706296312317022
0.43646712140990473 0.24332465503096046 0.032660187605372926
0.6845158634349673 0.37939766838019295 -0.08736575185042739
0.5501106539552154 0.19712883911628865 -0.08154332376778939
0.515491313406784 0.19739594639094094 -0.015994848931143224
0.42218163604299264 0.21248941152092016 0.103863734711922
0.4823326432125583 0.2604072776691879 0.007322644766986741
0.4235806428467441 0.21847468366095768 0.05053462060442371
0.494007065701922 0.210758481887936 -0.12623911410423716
0.5192953372803544 0.2560826198681525 0.02049722701679002
0.43871898000148235 0.1400187515997544 -0.07615441643635279
0.6408172561556142 -0.08839276455999823 -0.3711652129669716
0.698833917217712 0.18607272333558456 -0.14325788691589025
0.44249588130190887 0.14350217808237176 -0.2432248001964723
0.534851754822256 0.1487408745128107 -0.10365931902281034
0.4987197458499679 0.16784513350967245 -0.035550506762461964
0.4884620082064117 0.20148234707332335 -0.04817680676771374
0.4400692086780822 0.19590033669749118 0.07650776155611538
0.48057235050966085 0.19095670452676927 -0.07283453108053095
0.44068092424407723 0.26952340083519744 -0.004352715967513632
0.49276500358345743 0.20366535317461398 -0.06587649877133117
0.4526479483461401 0.20755265416448765 0.002070055654968428
0.45871134882125375 0.18191815999774974 -0.07048161193812064
0.5036902148316074 0.20837922118663244 -0.08491005384388473
0.39707806863354733 0.22658131929628667 0.035186812927605615
0.44482603182488845 0.14613284650432945 -0.007549177795482365
0.5033666125288363 0.21007028997044586 -0.011059767754019845
0.5796247106308385 0.27563410697896984 -0.06692645155946764
0.45107615762231035 0.20053430592670907 -0.0300167225935013
0.41107872063406603 0.11646043367503012 -0.06780639590394344
0.47728813818036997 0.19936519801834152 -0.03866561313168404
0.41731437627903745 0.2518518313622451 0.09871798035898394
0.525662842061152 0.2437615640669577 -0.006271953961999088
0.49920718189065383 0.185564459800176 -0.006077282010551244
0.47091983469155707 0.17300607761643505 -0.051326910910773904
0.4245719920259461 0.18618229855434265 -0.030548086923602114
0.4981040401496841 0.2856957629010708 0.012611036968223743
0.3835464702856939 0.16145405567326065 -0.018030378887772258
0.45506339649928407 0.19999164948795567 -0.0036530885077468156
0.4810968397685116 0.24855468179819695 -0.0304180296712957
0.4896259870621691 0.20883691700022666 0.017204630748352656
0.42577171507454636 0.19274614699637027 0.021333132995664528
0.45573203924112704 0.19565527498053825 -0.0045745617385080095
0.48337506902561245 0.18708888525679868 -0.12062131041058421
0.5332328806724433 0.22312226385022882 0.017002210693732422
0.46523286934674957 0.14916128173079812 -0.054279945745790315
0.4415234363401481 0.185875895850387 -0.007562959967998495
0.4443438735824685 0.1815995650778035 0.0074099412940995535
0.45754424509874525 0.14253730892096428 -0.05469356418809923
0.4943887311906394 0.18568348170032323 -0.06943525538640927
0.5751399635579588 0.2334982275520474 -0.01688053556628688
0.5372720509760853 0.23183861587494903 -0.13297378585632202
0.4692511535995578 0.1919549268198466 -0.02670601173230125
0.4883505133282995 0.2617733458954774 -0.03557164969549831
0.16142548665959566 0.017248025397563538 0.004486375037998869
0.4724974080289286 0.1790022043029751 -0.06146762486613966
0.47746510360464356 0.2267560125101653 0.05424332556199829
0.4329532831286116 0.18792182176983374 -0.04698222978089461
0.449884745716048 0.26181804664926744 0.04254588541542148
0.40315554015299426 0.24310028647059312 0.03927484828656702
0.4543740960655498 0.07227423548866341 -0.06374808447992564
0.464914872643476 0.19521649237653094 -0.06553940344326747
0.4850582728985131 0.14415779385009841 -0.03618243004230237
0.4608989822420284 0.1753212504880679 -0.04480157393123818
0.500897074174091 0.22835044036361296 0.011076575712223757
0.6008299252579263 0.2062376052652155 -0.2112321173595575
0.3911039098460236 0.12699583827165384 0.0014279525084646139
0.46574547698844526 0.222383723882416 0.02854467611105349
0.3902417928497073 0.179481222544581 -0.09334727720059277
0.4790560898243541 0.18382118632666788 -0.04062646693390093
0.49290701298257034 0.17476870045014437 0.008121729848966197
0.4624682644118394 0.22339132626316882 0.07508467628139215
0.4529395674278476 0.18192190065038005 -0.033244653675012614
0.4480190423490029 0.18118617824384842 -0.00908503826738638
0.4414560018977767 0.1718278688461652 -0.06029783582400228
0.5173576988052702 0.2286725628546975 0.022589824758028954
0.45374059053587246 0.19200267986778385 -0.023472658916972478
0.48428918975619695 0.13423430554892946 -0.11323317816945178
0.5219761554494795 0.20437119152684602 -0.07146021351368859
0.4764436972774746 0.1565671842519123 -0.09767924951438545
-0.012446487292976371 0.24189013440073381 -0.25094627993914287
0.5187158106856486 0.2937175434730932 -0.016491672307154204
0.4325720226958225 0.17325818690545702 -0.26237435092687633
0.4262697902119754 0.1877957239842658 -0.04649383650368577
0.5139793676285791 0.16411180459638786 -0.08793772945443834
0.4838086865822646 0.20883513668488263 -0.03922100538932227
0.5421302798506389 0.10398888195655331 0.3853911286407339
0.49377002036128204 0.1720188566548586 -0.05060171991323159
0.5049879903319123 0.2275105849841168 -0.04677652566795132
0.5184507828048908 0.16721762624631253 -0.058961923211541034
0.4215145959440605 0.22736752231381274 0.033922590255912155
0.42831475186302725 0.18705353518333823 -0.030604096607618203
0.4747443518203056 0.20204779181375443 -0.05596914691494703
0.49333743072868685 0.16167637101555954 -0.04944824143922233
0.5206441726191855 0.1960658948405296 -0.07648021042436426
0.4654533450799079 0.1820545563947178 -0.04031891083930361
0.4730091184842564 0.17604147033631534 -0.09191643825369056
0.5077362115562352 0.20195106711059907 -0.06178245718052722
0.425446835391341 0.18967076361066404 -0.020680415780162775
0.45106212319630856 0.13415485196750865 -0.14946464870064347
0.567158672020895 0.24620487164898464 -0.0022570886401354073
0.47908579633985937 0.20588315563176707 -0.03736726588562078
0.45879465046887447 0.18122025251943796 -0.02834390676177634
0.5420168333556603 0.238392946709169 -0.033503752461768954
0.4497363384515012 0.1850625799202703 -0.007609776229827503
0.48444867206647757 0.2189092443125844 -0.016982731408944574
0.43702715558555383 0.10672481406254519 -0.14263064365445643
0.4484350316643031 0.17022239752569135 -0.0419440915407705
0.5583797000973192 0.2260629506400278 -0.17477078829469406
0.49392782014626846 0.2603706949391551 0.07179523045121528
0.4392955276723711 0.1541534499953201 -0.09372845346891268
0.47535703174921196 0.19946006001137562 -0.050781592302485024
0.4524675267292366 0.17112053038152908 0.006396288860855748
0.5409740869013291 0.1642925125267709 -0.06922287866976262
0.45265986642509404 0.16038707283780695 -0.0863319437403618
0.5219232509501381 0.2143196492148718 -0.03738408920776237
0.4949483772171135 0.21795541543244212 -0.030247321487905765
0.5647519389228819 0.2525968573136481 -0.028508343906494815
0.47082452847359946 0.20970690391159508 -0.016002214210317334
0.5122073534451204 0.16443733963140517 -0.03973561713863205
0.48185607080679915 0.1964396930357566 -0.020260112795199348
0.5000195341910967 0.18665143735597667 -0.09152716747098566
0.41777218122589943 0.20049591407230594 0.030147463246890993
0.4774450046698888 0.24858434544896113 0.028472951084495435
0.450045326497559 0.15568895840544883 0.011560841004239819
0.42755197901499287 0.18671295730590032 -0.02587920547219369
-0.8303332073551246 0.056792939937906795 -0.20548461227348014
0.475891663104278 0.2098346554547561 -0.020711535780918666
0.5172445768568963 0.16128140726169704 -0.10175300303848189
0.5041195927337299 0.23175178737247393 -0.052647690274596926
0.49507803260382843 0.1821727788925216 -0.08580067215933695
0.39045066186228894 0.2839901169031691 0.007566655693381108
0.44446128493564174 0.14684907045186435 -0.13848209902802466
0.5161922505629377 0.1875384902521091 -0.042897721175592096
0.49086614852394916 0.16340143528961448 -0.1281542121553514
2.5964054831927115 3.1542953265241636 1.819802878846005
0.5080462721003727 0.24586803806028001 0.08092594586258883
0.43495238156074834 0.20160364783021123 -0.0879286596335902
0.4266066801342703 0.2179309078742051 0.05470628956661017
0.6164136424103503 0.36262397094155574 -0.01737288143780802
0.31866385061186975 0.2208885049672915 -0.03782215701184555
0.4977825908475211 0.2604024428321168 -0.002272501373752789
0.5030324633815724 0.18723833158577463 -0.02297262699107705
0.4674446383699262 0.20895919191914913 -0.04539483661324084
0.5078474305442171 0.10383280764648362 -0.09351305198561022
0.4762568243369003 0.12002708264716944 -0.08947608364331927
0.4873674568211044 0.17824780189738476 0.09635617743262515
0.3805893060133059 0.1551158064745124 -0.12327706487063494
0.4562917285817747 0.15169874257934168 -0.1407602168271751
0.47175834245214787 0.20231822030649482 -0.017153925659897595
0.4239529100829884 0.1799903212941132 -0.02223107603536789
0.46312202515012757 0.22913307495380764 0.04098326846161626
0.475207460548873 0.17104767269201204 -0.05347924792290826
0.46510420575688727 0.20398182341909887 -0.04787437644782244
0.1725663874943706 0.44475140574957095 0.12393888329717129
0.4597658830986546 0.19091683959162253 0.026465623418616246
0.49621564178447386 0.19787089531567403 -0.03467832778930813
0.46099861896880157 0.2046561548917225 0.06311184515033119
0.4791123110248918 0.22649495865982772 -0.03540743480913022
0.5049183132520909 0.20490102927762166 -0.09497561642544383
0.5687644603335542 0.16599312180854042 -0.06322464616937395
0.511081520489725 0.17551465294317836 -0.08483773853050991
0.4726885786088246 0.19662760998291162 -0.03998598582469981
0.5361054008114507 0.18625257907595483 -0.10590020817869572
0.4379147375774721 0.20292603758716155 0.016134476656716856
0.39932267479936456 0.2099467360257279 0.00559639062083761
0.47173968828748514 0.20098095019554307 -0.05089934974590449
0.5736653725503231 0.21208717734100446 -0.05791821319951396
0.4790541442402372 0.18692696516612273 -0.045148399157483254
0.26605393505167285 0.04999385540554613 -0.3854413184584331
0.4835208622619973 0.17617603082828737 -0.061261070174793986
0.5377738702742931 0.23300395393353313 0.0053604048092665835
0.45287397276634067 0.16204609385732738 -0.042927238356071484
0.5128036022695284 0.2553045884623657 -0.007365407194768636
0.46313116760632056 0.17311958448028975 -0.0494990962430677
0.6039331649798072 0.3076804804549198 -0.007932948141416318
0.5002857463865666 0.1534740505371417 -0.08879514307346881
0.4891146464936469 0.21792218428885235 -0.07400826989572806
0.5162829460406329 0.14190170863327012 -0.04298658693127777
0.45467701683296013 0.20371656781128422 0.0044754172130296865
0.4395919535316608 0.23206182266879694 -0.003018622481263833
0.24862487511404652 0.1192322275769584 -0.09942562400175348
0.5037299320602955 0.1939288601388398 -0.09326513101035516
0.47003500078000116 0.20991406008366198 -0.055636517443844014
0.4885229714213182 0.29773273401576716 -0.0959434705277431
0.4837477027680279 0.20622586259366926 -0.052065661914383554
0.42525341814767614 0.25117165178670575 0.05666260498877307
0.6226509850189927 0.1520811943738778 -0.12309291371389008
0.5077655255391278 0.23032935134853005 -0.010726753214015616
0.4533531973422811 0.23920841747411714 -0.0023763109601731003
0.48903230081153026 0.20885408440923925 -0.036442600491724875
0.390413795632071 0.10050074472763981 -0.06343385647997479
0.4834189378467073 0.19504580569373786 -0.08547496419362233
0.5089272991356921 0.21953522895429955 0.013726085036950053
0.49010314450444525 0.12590869989465148 -0.10519923780717022
0.448858513564133 0.1598004165339546 -0.1184609509178216
0.45357990488759015 0.15801589924843995 0.004790639064992774
0.5246844652098019 0.11496745173013778 -0.017086096131549766
0.48386709089430724 0.25328644012446944 0.04906673338615519
0.40679784504757777 0.2699600195545315 0.01599422851765553
0.46149681373573515 0.19845600713742328 -0.04393384309894088
0.49673353403355236 0.21653247733280523 -0.0356940070572449
0.5318902695728411 0.17722232843684083 -0.0836242434373844
0.5720235994612466 0.2027595588326676 -0.06820216463816564
0.4426011070414688 0.22406292025597452 0.025088780821363343
0.45900355057104036 0.23562096671210497 -0.0660558835417362
0.5146341265264596 0.2579565233726129 -0.04941278592585263
0.5870354750759503 0.2439549579088407 -0.12377336658894933
0.3649650060911682 0.17548824100964566 0.17041638802260195
0.5068390820092787 0.12078451292238412 -0.042800717812440325
0.4877346760761583 0.22432452421347193 -0.003190488264948499
0.570751221333893 0.1172574913451001 -0.19667103262696628
0.426595337767651 0.17343568604013626 -0.0306813227670375
0.45716394559704554 0.22684843340708483 -0.014160179939196382
0.44141926691879974 0.18635178763614135 -0.02123726888044075
0.41985806951115023 0.17230712764791178 -0.02766424672434198
0.44657622901171123 0.20134817996330412 0.00014353512374043476
0.50373050145771 0.2292989403918 -0.04117477054811047
0.4955352394432282 0.21349774508806263 -0.03406014514439448
0.475786569891099 0.18314601436071598 -0.054006390436370566
0.43326780703957013 0.20252643611803478 0.000457810662197744
0.49929905169031485 0.20502029146192058 -0.09726388679111153
0.48256653984265085 0.24855408388677347 0.025507065078045343
0.44970161019720933 0.19826182453348906 -0.040360870226408
0.48698724784074443 0.23965429937882732 0.020331849863310936
0.5500222209772119 0.19744868620352918 -0.13406807201428705
0.4826213383707767 0.21873802667710152 -0.009764141829236905
0.4461649861440691 0.10018919381982982 -0.08676742897026202
0.46633258356281715 0.2064704723044315 0.0033425188874360856
0.48803153246807085 0.2432125911815035 0.017649398762500823
0.5424035435448218 0.18159105169358725 -0.16302014032558532
0.4781645366455507 0.13873235572754083 -0.07988949091389941
0.4894403299597059 0.20668865722390706 -0.04505502431445052
0.6337627018802863 0.1381178938523675 -0.09809022430368941
0.49306321041804324 0.191585375873899 -0.050132747023326374
0.5208306576958677 0.2564502653296472 0.0016295289075713981
0.5275739152697696 0.18542193843177301 -0.043050422640931174
0.4693515110681261 0.1996845754512151 -0.037146974629152396
0.5371206164646338 0.3445621134191583 0.11261717534554805
0.44396149743951696 0.15523761454525697 -0.03349200804274233
0.4937672059841276 0.12183429861153172 -0.17791496131130202
0.47137320394259064 0.20486415233881416 0.001857193401491486
0.4701910835101586 0.19939808249617386 -0.03872722531033901
0.42773333949254777 0.19623893613987775 0.003305524677585936
0.4220951325684581 0.2282501994622521 0.005896423486063895
0.4610545909702495 0.2876463576715764 0.031069157911773004
0.4379335194572178 0.11860962217990334 -0.0823758878830887
0.49280131348174905 0.1734627431074216 -0.042990783559559986
0.408134034525105 0.12127274728030102 -0.14241658435537374
0.41596125810171714 0.18820124908555158 0.003303401649930038
0.4678864577482358 0.20343797324517254 -0.016083202474845848
0.5866340178518072 0.1633701421853715 0.0263380645656639
0.5112025861649272 0.1795908207384258 -0.06905277240076657
0.4555614912529933 0.15152238161073228 -0.13890116633564276
0.46780728889307 0.22349283155688227 0.032718046389476285
0.37569881581674736 0.21406607220066576 -0.043550719397856597
0.5055279942776139 0.21033276069560713 -0.05985723658096731
0.5463487748077966 0.24180259929420345 -0.04642217903756318
0.48085686745397993 0.20605894760325327 -0.042673402850226694
0.46645388900533646 0.19951237639600095 -0.022946731567984102
0.4656599328128266 0.1651215037035456 -0.059275992826485435
0.44900888617921453 0.16276814224173108 -0.048454731834496556
0.482990946436189 0.18885593947094037 -0.028929431248855053
0.49439278700488387 0.13739579376104416 -0.05922144223538339
0.5269325232971482 0.16683128527699864 -0.11945608675431174
0.4850302439080991 0.20679218854243686 -0.025406525201333352
0.48692519553308955 0.17064030802876573 -0.1285655293391983
0.4257812804826955 0.0642177873918115 0.037418034819936
0.5114225014507241 0.20469866905312983 -0.037901584325496174
0.48269884985124634 0.2573800731141489 0.052473676535157665
0.478541750549212 0.2042393553383306 -0.003277327776174843
0.4821276528812177 0.22456541059119672 -0.0033971292956778143
0.4685034824315011 0.15698693193479585 -0.028587350852603777
0.3819872765672727 0.0971742037889669 0.14103127262004023
0.4681788072447688 0.18508779459281754 -0.026704385489864535
0.47221722503735464 0.19669872967735103 -0.05391348018616782
0.44343298105133044 0.17499169102700307 0.019179413156791725
0.5535821539424006 0.3394668641555256 -0.08564152379659618
0.498347324943893 0.18451869583321923 -0.10071761172105198
0.4801847151515801 0.19284976236968987 -0.09352000310909148
0.4761574211693045 0.18176923111072085 -0.06005304819981916
0.46219811601305594 0.1391513938181106 0.01079969942121295
0.5163422771683202 0.24977298564668615 0.06056362424200756
0.44836296685586774 0.19785445528663104 0.17745658984426882
0.5395235698175611 0.24916209575019366 -0.06287290754275432
0.46860285327215934 0.22793454667146307 -0.050233028464759855
0.5210087528964351 0.2098426880003501 -0.055090749995571286
0.47566238437688924 0.17943515154041734 -0.1382837452641894
0.544388503434817 0.22771587807906712 -0.03328060339103445
0.48401929962793133 0.1964531252281887 -0.03332459895105444
0.4368715977575448 0.16125071364538712 -0.022574778586331945
0.46011323804256676 0.1594499916935206 -0.0722498149748958
0.4782902976014327 0.19452633252363682 -0.02066712836627005
0.3167645822937999 0.056998351408807935 0.02258662280007684
0.42716084773552154 -0.004536976867143494 -0.1504995894556913
0.5631042711832208 0.2849144752181303 0.0052570304094956555
0.5110398448916555 0.205813400550241 -0.07755489448805974
0.39625047039891115 0.18509735826108908 -0.00906543628357781
0.4645994264888458 0.1969763534105482 -0.011782394508117022
0.4850515675427687 0.1933017648691191 -0.09923646649572504
0.45205821227315823 0.1951670045693561 -0.039241667448337125
0.5644954511670193 0.13985977713164743 0.10480777777058847
0.4235214167100878 0.18816907211316902 -0.05558113034095413
0.4718654887685574 0.19288700559184235 -0.049958381437932076
0.4408213531774692 0.14143960173689152 -0.04294245808166863
0.46595152816469465 0.20421047949636773 -0.01791062176351943
0.4508122890415791 0.1887623400133691 -0.025931482511964532
0.4984427482056475 0.20716826573917047 -0.039394639804015696
0.4946403344352035 0.2187794789393962 0.0024610327234171336
0.537367893030634 0.2090822079360919 -0.06007101794295977
0.5677683052738587 0.19733972414414325 -0.05839410245637566
0.4327835454280802 0.15971839224852147 -0.06890804319067456
0.33968508812814946 0.0690530157689011 -0.29586353283627886
0.5100206025499006 0.16773606403401686 -0.05953755119266191
0.49677997268152296 0.17698023054580858 -0.06576140220940374
0.56670214473057 0.21936297308852204 -0.07406924944095294
0.46498772707289504 0.1591020689073872 -0.009554175431176759
0.5076497806344804 0.20791504495934987 -0.04202164489785787
0.4256394183427403 0.07104736754443763 -0.18426294528603648
0.439001079798615 0.18163839968943307 0.0009242447374049334
0.5107593806718285 0.22110281666547849 -0.0044560777157869325
0.3862394959136992 0.06569119209524388 -0.10061447153765357
0.5253310223014154 0.24173930669724086 -0.05852212846042448
0.48878564094158605 0.15559726218668857 -0.08207817220134928
0.4809884191187308 0.18459023911439942 -0.002285015482826225
1.6049905950301309 0.6054370924595673 0.49292719072263935
0.46001352163240483 0.21526849569983142 -0.1293847829874437
0.47899426898523245 0.24767567126443168 0.008666450076702858
0.6651680739958863 0.2939922141185889 0.12527804251463692
0.47315129505079767 0.2064898833793336 -0.049230446187138455
0.3896460453460122 0.13726974794673197 -0.04425988415083282
0.4856980160181763 0.14632781864303013 -0.09812584240492583
0.5459055132035076 0.19936376929840094 -0.08053270998833284
0.4830223578427706 0.16489122893186448 -0.04079435574831791
0.5362935995869691 0.17479505898714365 -0.0886859593702809
0.4733829311438029 0.17232846688781933 -0.04815209918510277
0.5050748472076947 0.1607708298101329 -0.08592248918117207
0.4495579809522354 0.24481018535118437 0.03724798101200122
0.23618754866923553 -0.025177377731807837 0.29509498810290324
0.5589243312488037 0.2429156660224976 -0.02947283263489453
0.5707661927161354 0.27103412128602145 -0.016958199168755073
0.48186331488193446 0.15974004960685306 -0.07816791579696769
0.5487193721697281 0.17852283348355513 -0.1443798234046767
0.5181754808482992 0.2106046408240445 -0.0915176285509176
0.5429790498282898 0.17259237961631868 -0.054412056361485384
0.4773404645827526 0.20895001872590058 -0.01591552816614694
0.42846450643757805 0.20825505204093986 0.03853003128990906
0.4733836666525093 0.1738663662136446 0.04377327121360963
0.3987367991600621 0.16000776746597012 -0.08735322018961256
0.5203380328698017 0.2530407895307434 0.02212686513151141
0.5430528048490544 0.15640401872971665 -0.14803293833622888
0.4786942013366229 0.1387599776869024 -0.09839151927130274
0.45433208987807916 0.19707438350879158 -0.004848047943312395
0.32801406132732325 0.19962628274187466 0.13867338809782837
0.5974231248381301 0.15295466406564628 -0.008587863420061126
0.500778280437487 0.17072776239224652 -0.09320716611759394
0.5408604000240018 0.1920573426261285 -0.14229750506768823
0.5126891533634108 0.22073242086786138 -0.0037494166810745355
0.502980795553853 0.19025001018486876 -0.06193671284501079
0.4057009883115512 0.13474399904862366 -0.08360565884592575
0.4543495836675362 0.18193029454373288 -0.05947338699357374
0.41146398434537446 0.1702062354861198 0.028559858705961005
0.48077136455033553 0.20759614985638564 -0.014433022725938827
0.503939396193914 0.21917383763774012 -0.0363659238287255
0.5103639694255548 0.2811869274598564 0.04758798394672681
0.48704900345622093 0.20909587260803164 -0.04419832944020641
0.16622167561455115 -0.11132197443157565 0.10327568021443767
0.4846450709514727 0.22494830055126158 0.0025059984123743106
0.4942105611424523 0.1913192979648386 -0.25242841576550745
0.38516143736414676 0.1385786268251934 -0.05662578062114676
0.4418991060015003 0.22282633076167713 0.020476260812458236
0.4783027796369055 0.1778678371169491 -0.08395835075862124
0.4390601066093467 0.22369227462806407 -0.13244503157446275
0.5053425956622277 0.20224185472416423 -0.08262291872645733
0.46174175604235757 0.1609194823586222 -0.03264223414524281
0.47636829984361384 0.1462299965706393 -0.10494026469882556
0.4778056976259961 0.2021593065428533 -0.038165097497682154
0.027460631937657354 0.5754602934804609 -0.2236618372463397
0.44858090811577256 0.18820665633518274 -0.03274762896147365
0.4714550080545905 0.1980994985292739 -0.029412931294999112
0.4825181490505486 0.185474030341652 -0.047457453959594886
0.4841581266752968 0.2328896435528236 0.01308298898422322
0.4771577485029468 0.19593885738183303 -0.07902536178133346
0.39769995568697425 0.261494108504877 0.05075762502525549
0.4388263277965194 0.2260177991002763 -0.016566286462193602
0.4994296764178898 0.18827727895117619 -0.027053870572672167
0.4563084818640135 0.20134679000175026 -0.004243110206772371
0.44087739497480527 0.18707525328881047 -0.004223255898210709
0.38424929258503937 0.1543563654251443 0.023761132842679444
0.46389186849023645 0.21266831333079494 -0.05358369565280441
0.5207400937608213 0.23002557809067525 -0.006473515632933413
0.443699070324584 0.11595960027042906 -0.13354272423083557
0.4546861199242471 0.17172302413092666 -0.054614916411509284
0.4718421042907295 0.15777007697309386 -0.08492419993720546
0.5256859884403724 0.20838090131988452 -0.013740977775668739
0.4345163528332705 0.1607033509402669 -0.07108929877448134
0.4415130810339747 0.20080081737364708 0.021386030677717827
0.4712384202256601 0.18912666694586733 -0.08686693094514908
0.4930897588600516 0.20789922317845821 0.010918221413675155
0.4821053012658325 0.21799767510657375 -0.019452440814603733
0.57836322672172 0.15943552034832464 -0.11142881662058812
0.4323050747335486 0.176648025666168 -0.03686009845716853
0.5381973825296029 0.2766603876610674 0.02985109750525794
0.4408777925420395 0.21923868521932377 0.012609310123934847
0.43989882445880824 -0.22690810740823508 -0.10916778570478414
0.5273095671603443 0.2042893399589616 -0.05990535423850929
0.5022391617886228 0.21767422425116933 -0.0013864456693113425
0.4578951613641209 0.14613832354400813 -0.061117239358054576
0.44134653651497047 0.16740695588451615 -0.025724366521359343
0.4360032058698238 0.28330412473872 0.037252466121174166
0.4593522284185809 0.16040775881987202 -0.06586138149421572
0.5573512338653046 0.21938749122632828 -0.0541130498448581
0.5275712347568202 0.2268753973731208 -0.05734676821896301
0.3695657736287501 0.1398117589611445 -0.011755539577237073
0.5017913196041661 0.18810659761533088 -0.013047705606510362
0.4712957985972537 0.24997823279332465 -0.11080179488234876
0.47557923334198904 0.2815732543646732 0.03493201906931631
0.4948890995770654 0.2140246931947445 -0.0300586871791495
0.4942837054951923 0.14435491743088846 -0.03542120639242796
0.4229785244670836 0.12076017441650322 -0.0825125781817917
1.1123688833659457 -0.11684858844110124 -0.368683658708747
0.4596108842738431 0.1920925679339689 -0.05465686599369235
0.43977221934646593 0.13892577069526624 -0.08762333175393167
0.4813804596791442 0.2117191610763598 -0.018545807337503106
0.6062180540270816 0.258323938655721 0.027113145233613523
0.526410378756637 0.27076005949115256 0.026190584596619715
0.4963080520529388 0.1914185889826001 -0.05072033755617156
0.43678700633708445 0.19703622356291817 -0.011195540940718729
0.26872681344694627 0.026174226315106353 -0.07067325312692674
0.5119686305469457 0.18917321302234313 -0.03180295349005746
0.5292622335618233 0.21785165835157727 -0.14898610039136884
0.47266415270661355 0.15423986974369086 -0.02648035680516614
0.4688881736094572 0.20247310186508116 -0.018280146760943694
0.45875661669293777 0.16250543972682863 -0.05226596256058258
0.4630146861274085 0.17722703944222928 -0.06421432215827849
0.4558280726461419 0.3517405306589012 -0.24917695744407808
0.46392159357318974 0.19548090401087848 -0.016332942714115006
0.5295171396930272 0.2919005306082738 -0.03756157452070852
0.494387010158178 0.2185026908788359 -0.0030550502437165505
0.20366917805742446 0.2172103406457495 0.07210672586516864
0.47515367651455165 0.2055425588859805 -0.028585639026346144
0.4756954726283311 0.19196302703576862 -0.047432140241554066
0.46729069147031055 0.2033631256434063 -0.03725744963207944
0.4859744779651862 0.2231842536921249 -0.004631614134481765
0.5048845222166136 0.2671080129277925 0.05956453151770802
0.5182213433059104 0.2550965099368483 -0.06186349324927676
0.48171053566468913 0.22358715823708053 0.013187537310187736
0.44658260755555546 0.20579775920427323 -0.00128481105798528
0.5083868284292947 0.2596164344120666 0.012626684122565734
0.48830936419318505 0.20223910669824363 -0.028956053705258
0.5123822823197912 0.19941417593761912 -0.08280962608917264
0.46045422334810837 0.11837312060426086 -0.14958572427559602
0.5306560353842826 -0.09158061440410847 -0.01140915674049836
0.343521265605645 0.16115267781700027 0.04880595806019983
0.4894225466008493 0.19085271625959876 -0.09774418464607493
0.43166386595419226 0.09409148179459237 -0.14081644466348564
0.4839379169927014 0.1689523969309903 -0.06408570208225228
0.4335446084753727 0.1984153904348318 0.030922298030503725
0.4691567780343604 0.16192716330178314 -0.007187509131895808
0.6105040186243684 0.3287177490859392 -0.2455063080461457
0.49802683828843897 0.1971625452698902 -0.07440232084691445
0.2048832669756422 0.19985615997987338 0.2388118331572855
0.4734153453307641 0.21828054599862412 -0.024762177440905475
0.5265989708504009 0.23657686149020662 0.007325822082833611
0.481073178898356 0.1488727432258372 -0.11602085565735365
0.39025704651486137 0.13790903702252422 -0.036121599499225
0.5292499550287317 0.22512002206522652 0.004875339486730468
0.37542625250236483 0.18422650049534184 -0.007578241896112559
0.502496127176542 0.21545743198763034 0.013039114252876516
0.49932441102039604 0.19896189938488362 -0.06347063781097972
0.42214852694247895 0.1661839926526909 -0.0038079459286848305
0.5209751813787165 0.20915988793966278 -0.04542798208946408
0.4568058675251194 0.10243190252322165 -0.12147695495107769
0.47914841060645585 0.21241492820028895 -0.037113104235146466
0.5298237999686819 0.19150197896149734 -0.1527716673747932
0.49706282095530696 0.30721526388740017 0.06880355896683454
0.3858374736046386 0.23366218207246447 0.02256173519742788
0.6370550305899911 0.23269126772026993 -0.13188735275795693
0.46460210460476503 0.2097774199987157 -0.015382789565904886
0.4998305018599183 0.15385184433702648 -0.05995828813956905
0.4801225282942738 0.18351780938161255 -0.033321399588785994
0.3376594264050965 0.13792391605821308 -0.17284898219935485
0.4503170068947071 0.18318698632097608 -0.018316212819954103
0.4379911253763282 0.1869289742652427 0.0008617633414047532
0.44600622778476406 0.20065193295336314 -0.01948761689948242
0.46700399603942344 0.19063493054400737 -0.034023359444006473
0.50277546039311 0.1775889054421924 -0.04559419359716799
0.41756629221016794 0.1435207311565847 -0.09422483739173515
0.4198704211464275 0.17803495462288765 -0.009284030514606911
0.5471592681971771 0.23055792093153116 -0.09612456191854335
0.4153922559505361 0.16454262061172642 -0.009095124214979933
0.45585322695275465 0.20166999347553372 0.026565057333073128
0.4644441083641482 0.1720307946027333 -0.023335177813748942
0.45790276661045937 0.162949700245008 -0.08123743949838058
0.4558150355122308 0.18390573659850418 -0.03894211233401279
0.3632339863540892 0.18320413923311207 0.09533822571304995
0.480240892567636 0.21955200488611126 -0.012927046960186317
0.46301694872315124 0.19227895307639642 -0.013712033166967785
0.3911410764571599 0.1264082845185328 -0.03679238144968622
0.49660074972656787 0.23730940216756835 -0.026182336561035413
0.448500851844571 0.17484467105947488 -0.05713202077799906
0.5159343102201603 0.026809233874445226 0.06991212607377406
0.4951338027763086 0.2605430072102024 0.019201633455054434
0.4688402162645531 0.1762596311379241 0.012424652666595648
0.4667856583713359 0.2039378599407371 -0.0367808637054452
0.4814526586731631 0.19986459930967726 -0.056391991231976135
0.38820358750528783 0.18035937371084287 -0.003169181161112533
0.4392741615675675 0.20176690905850592 -0.01680611646172281
0.41511605490512693 0.2023459846308242 -0.009588548929826857
0.4693691742398869 0.14315050948280827 -0.06877835129022003
0.5771129959162664 0.2216208490912095 -0.06578144136739184
0.39053616588934403 0.14717338028492577 0.06897315443349328
0.5192196610387612 0.15848416706299417 0.016977985657632644
0.4965743946728338 0.22387896534166885 -0.023192185667141985
0.5535423543880427 0.18865769490820128 -0.12901207857370878
0.5050143775940938 0.16596521509831064 -0.051236426285584
0.47716719622926007 0.24348835699103688 -0.01212701170234709
0.4627649630308639 0.1883102773494585 0.024537946847544845
0.44076525061286986 0.20406681773988566 -0.029127517943564385
0.46864821215027064 0.12518571664791978 -0.2096601675332579
0.49073094577549625 0.19173032564071946 -0.052847663687785484
0.5645205991375946 0.2746186366717751 0.016514669152044803
0.42909981896677607 0.20129048415340378 0.036716976884321184
0.4500668133016319 0.12498980640907575 -0.03380594247708757
0.47589623076413545 0.1826756594402923 -0.044005742196219444
0.4537839980511933 0.21254122267271214 0.008815792668798395
0.5690285217355608 0.20507065538430425 -0.05727274081681344
0.4729626424104083 0.16826914156962403 -0.00829324593605918
0.5514306355256196 0.19677345158126514 -0.0706227981770553
0.5742954075935671 0.2095689930466733 -0.07640958123252517
0.4916396942310399 0.17624868433645702 -0.07890368066375686
0.4513625678725788 0.19459917154685513 0.023709121566639624
0.481128634737658 0.18858267135323104 -0.02813590690882961
0.49159155804538557 0.27983211597356217 0.0142648940929746
0.4698528725576949 0.2516349680551002 0.01446025445963528
0.4688889661359781 0.271039650775009 -0.013438897143444706
0.4853643583577991 0.19137275314628255 -0.039086976009855334
0.4093535966892148 0.2503141640394233 0.004651494685020907
0.4952487028260748 0.2503314371362819 -0.23692460421011674
0.4749446310461849 0.29626050901318024 0.018073260377889255
0.48345791493972 0.21537431541634078 -0.06789295869178602
0.5027475421070449 0.21037350823687007 -0.02152893724127125
0.3937615692224057 0.1357656197374979 -0.015793899312626536
0.47271887149302927 0.22288541033098852 -0.02869901466817737
0.4380277915207387 0.17579253014959306 -0.027730392593795727
0.3906896486532645 0.1360016403832276 -0.07037759824432044
0.46908356096582793 0.2113859520337371 -0.015898239481344945
0.3381923493837462 0.27104499960789497 0.03231513701508959
0.49970357744660987 0.20588139728984345 -0.10690271906187832
0.6501907838524374 0.2181881610953127 -0.09120815613647437
0.5254734782084256 0.15661621381045165 -0.12345695502509102
0.4613910069624154 0.2610186182739369 0.04763745897903959
0.4697618421107137 0.12158901044784898 -0.10757186990460355
0.48308624039979975 0.26098716686567514 0.004892186513146157
0.5151466879043198 0.1750915310951484 -0.03860673331078601
0.4482809800308303 0.18502919308946275 -0.025718629521819025
0.40578300254414046 0.18616699938716863 0.028751957269165018
0.7573570452135812 0.1598636627917216 0.6336349795822258
0.44953135056800875 0.16943451031650625 -0.07980143986655719
0.4142972573166901 0.17946508094522073 -0.011602487595666844
0.5194945682394518 0.20425301873621038 -0.12145080404421549
0.42496636144552724 0.19335654077488584 0.003329683813774409
0.5458874175480446 0.24255495042771713 0.08139573112400456
0.5472182761275093 0.2404469308843744 -0.007847003405487385
0.43661066050883335 0.20581016856331757 0.006007171218286089
0.47853555163025874 0.21580253859303866 -0.026502219379665348
0.49319114040521583 0.20128124720848461 -0.04599014572552562
0.5161726583881006 0.21625146845516952 -0.03669508427543633
0.5133226362957686 0.26297687390353985 -0.03527326171149525
0.3214521042234111 0.20122652085399295 0.020801069382429205
0.4897346637848017 0.17713794623412582 -0.0837451035817054
0.4768776932396719 0.1705088507454633 -0.10900340293338218
0.4089135501716754 0.12312690878064814 0.03991969927142236
0.4135773006497203 0.2015824078475248 0.051106503657379676
0.4386966034020361 0.1624777837574527 -0.07573760419379028
0.4281161682798853 0.06949520305221313 -0.05606188662993361
0.4886155530485041 0.22532632029862043 -0.02324902933204953
0.41411277704807503 0.19350619877540964 0.0072291464055496135
0.5124906935242706 0.16806671731092138 -0.044688697935612254
0.5481974898520718 0.17943456910072086 -0.04096499382217189
0.46400221180208234 0.21935865351136385 -0.026362885485781362
0.5131117736522981 0.22791271651084344 -0.04662830675805196
0.5320942545950942 0.24980802845762184 0.028384414639930355
0.4845436968407597 0.2123450408095522 -0.05477421367427837
0.4912170284168127 0.197181228911532 -0.05002185269417225
0.4653169548932965 0.22980709853013082 -0.022920193146688916
0.41140550796197317 0.17140418762450338 0.012946767228939393
0.4504485679242123 0.17762110793110253 0.009537648037778013
0.4462914662132249 0.18927841499908027 -0.05707032158289849
0.4484353640348928 0.17022360907164114 0.026293513694270132
0.42721095905511675 0.17933764429083965 -0.05896998450270985
0.8688177971096422 0.28864337813377006 0.38319376961305807
0.329883894916037 0.1531857035123494 -0.04033340382272854
0.46764864252777727 0.22738443139299136 -0.01792368886327722
0.49333501008298697 0.19913574759624453 -0.05286095974554428
0.49203021450445306 0.15129860181963295 -0.06881691700702675
0.46731783782411185 0.17613035416459866 -0.036776969557365646
0.426121753570186 0.2135305746929106 0.01836045834593847
0.437264250848159 0.11078592656073738 -0.09821938931307272
0.40359557391695944 0.1490591065252005 0.04207572709540841
0.5093165768362837 0.12378858583520014 -0.23104515305780637
