# .PCD v0.7 - Point Cloud Data file format
VERSION .7
FIELDS x y z
SIZE 4 4 4 
TYPE F F F 
COUNT 1 1 1 
WIDTH 797
HEIGHT 1 
VIEWPOINT 0 0 0 1 0 0 0 
POINTS 797
DATA ascii 
0.4457686841306838 0.17358038472612236 -0.12129230573150096
0.4945031833892841 0.1899905810805933 -0.07967195056110654
0.5075816588608575 0.18212337403411993 -0.06248750526492586
0.4844101943794783 0.18588191689630662 -0.1221986700182498
0.3973478871328382 0.2055675245678117 0.07388383364576612
0.3912366513232399 0.1517215947967827 -0.0364658635969306
0.4893452561281322 0.1745997035256437 -0.035396183529911696
0.48753944670131943 0.15264235792369618 -0.07738430992370127
0.4514441576019834 0.1355101780302732 -0.008143914475738256
0.49244029829367264 0.236789125297733 -0.19621902065135544
0.4816755615091779 0.1934809903663961 -0.054731314171448275
0.3664632663073064 0.22012914371020997 0.05536427800797128
0.47446162804139647 0.19464268280799502 -0.026948378548695473
0.4339996411673468 0.19681394892489834 -0.03930296919722309
0.4628261641213385 0.16688953692013797 -0.052916448691846085
0.4272687572016025 0.13032979692235358 -0.09942735607006625
0.4742217287328714 0.20709348410747452 -0.04809297982696137
0.40306190296708166 0.11646112534783981 0.04387430607249598
0.4218231690615397 0.15791377611897417 -0.03570390075392993
0.5243846155765084 0.17446925715036343 -0.1302898856706065
0.5632820983142892 0.20001240475468762 -0.06913580406356346
0.30830984483291957 0.09173836630239407 -0.04903050393158992
0.48127046433161524 0.2136027586859086 0.004979597073884179
0.4838305858812646 0.14744502997956488 -0.10244266741420915
0.5133492138890716 0.16746454241720699 -0.07250700904761231
0.5232222952857768 0.16953757900020605 -0.06503718847949358
0.5034727016559088 0.2630480358677545 -0.03186089647903145
0.5099506181163491 0.2483800647097496 -0.08471741850715375
0.494183486357727 0.19560649151972598 -0.04050503037382214
0.48536166609477505 0.21989860032641673 0.025135360359911374
0.5013058296091657 0.2280049846040555 -0.012285572189611571
0.47029113762545194 0.18933253754467216 -0.04331280285180128
0.5343953456471695 0.2503367830603054 -0.01801432839111783
0.45522579583565914 0.25456209495013127 0.026870203518470248
0.4762326684122087 0.20052344318274606 -0.03284927185373476
0.44781866334054143 0.2533233441300524 0.08854193941706967
0.5639858347512074 0.24951784027243207 -0.01888122361665978
0.4059900893022501 0.1888072648428505 0.025450033764116142
0.509947709101894 0.20287274021754342 -0.062417416221194344
0.5033297887018477 0.21751335879119438 -0.10491678660164894
0.520383699838149 0.17941890728570797 -0.06486760490996346
0.5122834055367065 0.18009307298724764 -0.11429372274207594
0.4187309549933218 0.15807120992280943 -0.022446861533921947
0.387847090351471 0.18013673566420607 -0.02131853320480559
0.38920876768814594 0.20209764030869337 0.04649604288921694
0.4463022233500311 0.18089475406429756 -0.05380870140372451
0.4609872812309703 0.17719196440519625 -0.06579045656953042
0.5978958314630773 0.16866921743155672 -0.17098321939513994
0.43550443883876255 0.17312661786687045 -0.01712092467582238
0.4598745905914967 0.22198000085504077 -0.03666624383095041
0.3105243205878878 0.29655431659250553 0.18630513555882544
0.42030627104276164 0.22960243130060576 0.07096613412019792
0.4825521195591591 0.18935496639082317 -0.02903917770629505
0.4706761172999876 0.09835579494185254 -0.12815756380283005
0.4730290847223273 0.20142345917886928 0.034394413368289634
0.4777770886834958 0.15561114395814002 -0.10114625755105067
0.5561448681570766 0.22079061011677936 -0.11002757961787779
0.5292451697351481 0.25373656549351153 0.015129602407370157
0.4811515961614674 0.19903405289123555 -0.04750722106220451
0.4537275376564054 0.2003277290364025 -0.03080848418339599
0.04452405962588557 -0.027045176289789197 -0.09081765936525699
0.5368206137959532 0.20590834462427665 -0.09772527771839634
0.4346253827001476 0.2115834944830226 -0.020272094221908787
0.36393765309064463 0.2557191339164575 -0.05061578285358337
0.5158672212612316 0.019041502609894678 -0.19672923599397052
0.4124133328505053 0.2329173760937806 0.026128605006647376
0.40844994461255624 0.1503295102493496 -0.09342418381407924
0.4211341669212487 0.1345377909456431 -0.06399767364052877
0.46269662505085307 0.18125461588697078 -0.07223383235640313
0.39617320865366423 0.13836039598405137 -0.10519610781912547
0.4859130800726348 0.24656590122185662 -0.012938350539457133
0.48331022705016835 -0.01799996238915469 -0.026019341578944477
0.35409492471771387 0.21880657368362222 -0.012503995574888904
0.519492809137958 0.25383246580926766 0.030204071711665392
-0.4763390621741621 1.4388739149056846 -2.045809197882079
0.4956357616452891 0.21867229810918332 -0.01858492263843914
0.3934813067388063 0.15715753765043416 -0.16520881096167273
0.5116102536518525 0.21963798774481802 -0.012064163434587272
0.49583754261115587 0.1729830764245861 -0.05219035707682451
0.47426109073367684 0.22353656076290918 0.006361439857244022
0.5314628569891653 0.22165105645765948 -0.05166801284391909
0.42318063584535537 0.15289894112294178 -0.05176767915634173
0.44055110954809606 0.17624254661399164 -0.06100955103345029
0.5024784419634756 0.2988531530157559 0.0017563553663677567
0.5158500976595377 0.24551964912248536 -0.01254859041581824
0.41609026522873194 0.2407745510429038 0.08035882654507986
0.463986216364205 0.22849780702198075 -0.048333513579351006
0.4819916526587775 0.20545224812457263 -0.06404682829509056
0.49929503426449173 0.1944683658518045 -0.04250201473729476
0.47403018980675427 0.20267715039422285 -0.028318209077113465
0.5038561168525888 0.2387198515281881 0.031390939488204594
0.37843721992658175 0.15838117807315655 -0.07258599331136395
0.3739566272632544 0.08869160236682205 -0.02703055082108108
0.5786833065191388 0.20603379292840884 -0.11765113343051326
0.42845896157189145 0.19261044815316097 -0.09091503845330351
0.5006398319197416 0.3282442659540692 -0.3644995033666305
0.4622441580724228 0.20846377275725558 0.003372983038261168
0.3937665121560201 0.0659360935077018 -0.006255757191667044
0.5085534305102186 0.19801670549428252 -0.06276257810861807
0.4437474981869798 0.1785053917065511 -0.041350133395425814
0.4737667212680776 0.20113455582134065 -0.04331454061309614
0.49753260851746006 0.2195251149842079 -0.09965206524955761
0.23345627425601378 0.16016577756704464 0.031593870220632425
0.4760227046490968 0.20127827612228089 -0.05113098189647758
0.5270714861507457 0.23807179603448958 -0.007240552188619631
0.525614450540445 0.2209755359100143 -0.029848477168087584
0.49802974890245366 0.18385093373514394 -0.1526026086694685
0.48143644622858517 0.20658903360413206 -0.05419255433902492
0.492081076248823 0.2419615675414235 0.024260739790648245
0.4865441325569009 0.20649001735912975 -0.03603984855308795
0.4909064900092801 0.19149212756637723 -0.015765845282615487
0.5035746478469889 0.21401215172768673 -0.059560633215141934
1.2791217056069542 1.1386665411873054 -1.0894499139340326
0.42218333428758115 0.17439058376062633 -0.04921938098392786
0.47574696587014387 0.19583617180848023 -0.09083776120996845
0.5419699103261308 0.24667168857905608 0.023868925020678944
0.4872378773814745 0.16113695353224955 -0.10037851243399132
0.38085893656686665 0.24527428816791996 -0.06933693072350877
0.49791144280584376 0.221233075827584 -0.05049965591375383
0.4032532992596316 0.1394971975358743 -0.023310376231080454
0.3983549750536781 0.18309842098321383 -0.004110197590421194
0.426477305634279 0.2588621407957703 0.04307745659471607
0.4029272776391508 0.15250560858899576 -0.02821162401988886
0.44504257767158606 0.1965463185915155 -0.04153617977338797
0.5094673129291607 0.36500160045554253 -0.16875037387221425
0.5189345906179454 0.19069502266368943 -0.098659850145836
0.4242292166867543 0.17133031627831485 -0.028841811427540165
0.5294868136085142 0.172691104784775 -0.15295968679713212
0.826911270872003 -0.04315044298564885 -0.08681392786348852
0.4837096880541907 0.20898562351749206 -0.025121146444604392
0.43003782513068245 0.10882159127169189 -0.17324601656039817
0.4838716014961335 0.21316113626019728 -0.04484167035838027
0.6407311612148305 0.20318374773952996 -0.09295086478834946
0.4710164910918735 0.21803389939287854 0.06293637688338549
0.4915308495695001 0.22767307826509864 -0.024326691366127307
0.3643296634989497 0.1487706779874287 0.02190270462256194
0.46985298382125507 0.22794206576136844 -0.03037940119133964
0.5330403243495141 0.2145763032977328 -0.09350891022323538
0.5087568908004698 0.2733614666025517 0.01261402718473903
0.4714295608813046 0.22238229045150604 -0.018968542736899963
0.568546929471168 0.2022062252521124 -0.10661624159544658
0.41009556966513117 0.0998680452416636 -0.07203202297290545
0.519014632836658 0.16164936269254326 0.03341774578896661
0.9515446047342522 0.18001932162835033 -0.45747084197202526
0.4916033850015822 0.18165097978837252 -0.07943691819710352
0.47648079427543166 0.17678382004278603 -0.08745399834052137
0.4016063178753768 0.14371258186619684 0.030784139888083928
0.47035098096415595 0.226540680386762 -0.06042874386636754
0.5581240601019317 0.30335083075544844 0.0033518920188271295
0.409402108397785 0.15741805417970056 -0.09325147306425663
0.4842189164621544 0.2288075076641718 -0.03631846495471791
0.47739463361541823 0.24058869329698496 0.016975491028176748
0.47476575241172725 0.21797126521957466 -0.024924042585070083
0.8813895636127711 0.17701811890543695 0.1719941514597565
0.5102212863624942 0.186448626675201 -0.02122252951372161
0.46212688905744415 0.20744365625819228 -0.09628437077060426
0.4480000447927637 0.17188186801234906 -0.013903709827758348
0.47270882684090054 0.14199513443598732 -0.026276575854581097
0.523340416269491 0.23925646629965058 -0.00448663991602416
0.4607401313752746 0.18096080829081984 -0.014920612526907462
0.45654212125423044 0.1399966035734792 -0.09906400166380536
0.42654299295030285 0.1630214924427804 -0.0820423143996436
0.49306690266921294 0.17536059361501088 -0.07349256054496323
0.4914490666699294 0.2296733982583703 0.0014118246102725607
0.3641585779020602 0.1881033727163981 0.01698431418577684
0.5027206643245847 0.1712598100389755 -0.07405078393310305
0.4897213567064824 0.24396132671613202 -0.039252518175658224
0.4480361130148651 0.2518581145874208 0.11117573659772972
0.4412015122382513 0.14584728181293372 -0.08037509801687293
0.5254914114204468 0.1951446875378764 -0.06157206066248477
0.4575877583048822 0.10008112770131561 -0.05751052434742121
0.436042036384066 0.1503162649478611 -0.079071567690562
0.5285954670607964 0.21355423062739476 -0.03826520730834204
0.4856836022768789 0.2056169875145173 0.02123559038601286
0.4531735975911886 0.16397836627695028 -0.0430695214303114
0.4865712827961488 0.13257169257681767 -0.12084168457792543
0.5077080986427944 0.2244911803722971 0.04013101661178098
0.5235736057091884 0.2148072379111312 -0.0860691710082051
0.531821024836276 0.201572493005159 0.010273118474216858
0.48564314763770255 0.17833917555850576 -0.06407502864439607
0.46358471583546645 0.21077709254922183 -0.017123908329836013
0.43733625540099297 0.1757977347851778 -0.010873176266542828
0.5523600341789887 0.24558697118206396 -0.07145764161442969
0.5186461673687432 0.18827533258979656 -0.06688622389467014
0.37736839262200306 0.18549352671615793 0.07691747744593158
0.4203754337957122 0.18198275157260468 -0.06944093693431341
0.5071215929965831 -0.006697482687599177 -0.01908669746404712
0.44801826587361404 0.15155884070446746 -0.08792577234868304
0.5887784405341563 0.5441716960850158 0.1397882082948172
0.5037593719173685 0.2120322222658899 -0.0970471735703029
0.5117832807716667 0.2083837754913418 -0.01958343440465171
0.5523297079110847 0.18017109758604022 -0.14841472988450732
0.3875961102324226 0.21269704745711238 -0.04400773395596502
0.4681441394022414 0.19479253441153332 -0.07923590991620699
0.5103459365673473 0.16193844291404957 0.007348001412196936
0.49736198850499136 0.23119753237733676 -0.054509151003884426
0.46854677659837307 0.087971303067917 0.6120730678263158
0.5426096971006729 0.18560322494145964 -0.10927501656738059
0.47905258423152475 0.17050891976782623 -0.06699076943692717
0.4459182347835764 0.20686832140887645 -0.02511802417031106
0.4945222724983722 0.18460563537365715 -0.014097406386554212
0.430266646289013 0.13982996015283788 -0.03665955291941714
0.4951961815446708 0.21850544199686794 -0.029622690500232807
0.48449465534714875 0.23697065649285776 -0.006444386655260814
0.48075365265755465 0.14823707531917307 -0.0892473749791094
0.48251737885225054 0.21422839728654708 -0.019673897217643344
0.42724276806566763 0.2146312435078528 -0.015513256126524766
0.5327023010839724 0.22577789176276042 -0.018682778698206448
0.45492562885165455 0.2007278260345231 -0.055474064720812066
0.5519533791756572 0.1789882270303309 -0.12967546274558117
0.4599742952128736 0.13957008399151505 -0.06473791538383011
0.4328425818209354 0.19275065663724433 0.07702142102462517
0.5075096222616793 0.21567342518449095 -0.05117106217727496
0.47292755543892895 0.23008817574097407 -0.09104419763536953
0.5021860822728286 0.19792052281854922 -0.08554193567849211
0.4291816060610216 0.15699977883454608 -0.0410720902415278
0.43401507535419626 0.11056815181767377 -0.004560799520817227
0.48911554968172766 0.20543464793671262 -0.029980685287796405
0.5408970745422437 0.22794234540222647 -0.08565672107725675
0.5610922278616925 0.17925719234507653 -0.09769988692188747
0.5575722320571685 0.22769769774131987 -0.06719502938472033
0.4856867603520669 0.21567381744253566 -0.01990059316399595
0.5388138047936906 0.19643072971855702 -0.08434389070222892
0.467457931480979 0.19334330896448648 -0.05285206087296501
0.4840357463739622 0.19355057479126003 -0.03290043148598443
0.5657697535715016 0.24068784287106837 -0.027656207234471708
0.5001021366666834 0.23699254429931216 -0.07624796227804609
0.4725428995151759 0.2145707013929723 0.008111384442130998
0.3474205957991643 0.0031016140876971576 0.09972475649738044
0.38660223464380294 0.18116187800427497 0.010789091098558856
0.48463428769069594 0.19010152411107129 -0.06213412539386809
0.45746969563850826 0.1857286970563905 -0.03673096069088899
0.5411878617551196 0.1968779284464688 -0.13890210317364904
0.5214694373804889 0.21847972260007964 -0.05555813965975176
0.48625967551697613 0.20480999740320271 -0.025554020962431423
0.4673184297252533 0.19151823388008893 -0.06054476682581367
0.47623634404558857 0.20079938645376672 -0.014088623748108375
0.494958758136093 0.18426828474296997 -0.07047837208995134
0.5544465786401958 0.15560682374928092 -0.08959189782865451
0.49145166483917535 0.23694066638468314 -0.1025948736055966
0.4596428409090265 0.2510897094575739 0.001377743588804492
0.5256035943807831 0.2445128606434963 0.01629908356730425
0.5575766242194078 0.269500762158259 -0.027204921290277184
0.4559532978553449 0.18173398487232362 -0.055594881554640097
0.48165519831917436 0.19349514825822212 -0.008988536876103126
0.52684504223798 0.21200555311912694 -0.08406474385708407
0.5065951932418926 0.21165516429232412 -0.06664239615696488
0.48154243800991026 0.19722985776814994 0.01857825606333563
0.5311186678548125 0.1835531663245149 -0.08349306717724403
0.5168671884121636 0.17260386248740645 -0.10279785933387586
0.534145845953347 0.23166014050636363 -0.04557052953435914
0.45240275634256477 0.19084800807817714 0.025934493590909824
0.45252298361144483 0.1778944812459713 -0.04282608860609116
0.5043306843691227 0.17498463807103803 -0.07283242240566778
0.4176329099231708 0.1984818133973505 0.0023004652322100583
0.5062855926138639 0.21310425055203552 -0.033520634195355115
0.5792072792125538 0.23339776156001335 -0.05054994329911722
0.5038812275494848 0.22704799376330698 -0.005622816748598325
0.4843913917539453 0.17808114218942706 -0.0004926115001637754
0.5471019543519731 0.016527496470246206 -0.7380083996567919
0.5734272150913 0.08197411595064352 -0.11592224413165297
0.4808402134877241 0.1748668112599887 0.003386420330485862
0.5165687138867696 0.24031723522509196 0.01029316393740487
0.4253870897614007 0.20212013969918985 0.07250756678691062
0.47514475002003564 0.18612952256228255 -0.029257210204946205
0.5191797877791231 0.2260560819447477 -0.059416342023297375
0.4494079485399709 0.15052857482713478 -0.056060298162876165
0.46505703416514166 0.2031911811943985 0.024790169690319885
0.49229164861425545 0.188443694806665 -0.04779072445280974
0.48347122551905386 0.1987926750003055 -0.07744519573220998
0.4636856443003694 0.33821035712925607 -0.02074146652145714
0.5104300501124186 0.20641119027800414 -0.03754321342859157
0.49332602171755013 0.18800154655787082 -0.048255967563747504
0.4557081804126 0.16404008155120664 -0.002066045098018776
0.5761065849031155 0.2810256265946407 -0.009135250381845594
0.49271180048623364 0.20443059681011277 -0.055060347231005835
0.42222929119691344 0.2721092075267393 0.02736529302302415
0.4854898193872117 0.2155710504134163 -0.08286766105392473
0.4701061449404733 0.12314860659037663 -0.1190881996005686
0.4384918316579842 0.2028708909046344 0.021377988595432384
0.527004542232774 0.1934270779266143 -0.09077119556492619
0.504856188547123 0.19929596721777898 -0.09525396902603234
0.16536365839745315 0.18856435589256648 -0.015683847051491284
0.4058998234631872 0.22272048178561477 0.03415479162558199
0.4604780532761339 0.19776951674211318 -0.09242164825433008
0.5154626633571411 0.19219692303734348 -0.07372519267622124
0.49876225946638897 0.2328998252839085 -0.003347712686718296
0.45091347692351746 0.12227511270707225 -0.09685588985098548
0.4604453229512586 0.20327073790753047 -0.03510455435865367
0.47245241247183856 0.20448144178186567 -0.033927489541
0.503387457120283 0.21688503855361319 -0.03310266867870837
0.4499522567141696 0.30013605350804085 -0.008785286770859102
0.4947684332575477 0.23619269179954472 -0.03256528653803059
0.502111753769725 0.24859093940173693 -0.02525284876158196
0.4760630023796324 0.1985486237120142 -0.01493502367772237
0.3948755777708044 0.22300223093174054 0.07957734570422303
0.5061401016558875 0.22313269432797256 0.012989466883453815
0.509253598982923 0.20633578333530522 -0.09002224658883051
0.5266773722714078 0.21693230279069553 -0.05618540303106556
0.4126229746008505 0.09608883391210554 -0.14681476174109775
0.46256591217824905 0.13168611715164502 -0.07197089824313707
0.46013248844705856 0.2050843448878652 0.015905489672263684
0.4764502525826799 0.20303113605876888 -0.051409588573889664
0.4618728256971565 0.24522174025005938 0.008619988271306056
0.5549870889514068 0.20581101944662805 -0.0513655383448679
0.6890429823794051 0.21371590850567657 0.1011917899186443
0.47303479554669536 0.1773155292522972 -0.07148619572821246
0.46758882302897575 0.17251747254000804 -0.05692980710134066
0.5339423988775707 0.1773826308023274 -0.12236098777057691
0.5033358938776757 0.20483603135150474 -0.06326911604527652
0.5290309459113871 0.17265042062608416 -0.10308328799837341
0.5416327998586752 0.23590926684784108 -0.02183282315274937
0.4828357332666542 0.20419675658492054 -0.019626449211529007
0.48542952482371504 0.1983709083843337 -0.072306621059397
0.49120085258627455 0.21206341842537313 -0.04201871407204294
0.47647206371296136 0.18468884860322987 -0.09428098634511173
0.3551098868186955 0.15701677215270138 0.05080041247812517
0.47108751683254013 0.182333515952962 -0.06875838380094024
0.47657624004972376 0.20952528396230718 -0.026421723812404707
0.5097977239840503 0.26089362162477414 -0.038968617271166295
0.5184235296490982 0.19418996236491637 -0.06772038027548888
0.48983588630078145 0.16627365013241047 -0.08053598497187409
0.5419697260046519 0.2336118958009621 -0.0352200335465227
0.5142281400078161 0.20528448649531583 0.017524547967553872
0.5213695842576413 0.24015013554013365 -0.021540543781839006
0.4384327857704591 0.19857125607123294 -0.018396272363304433
0.4796691874098258 0.19891718622713483 -0.04843707293051125
0.5575903612038786 0.226202570806322 -0.10746809507097055
0.5310665166979192 0.23361169260914494 -0.04071229799311027
0.4226053426778691 0.13603747157213775 -0.09416913055437703
0.5462515880997074 0.22689921159921767 -0.09634719590775376
0.4666720859481046 0.1470880155877552 -0.08719556911711379
0.47262623375685564 0.20713191147575571 -0.04503445106715276
0.41295151199291524 0.1700428723340366 0.028206178992149944
0.4259294243734786 0.19864122850115962 0.010645006431900583
0.5465656293964258 0.29788074037711 -0.02604884733634094
0.541378270618651 0.27908949890655776 -0.019961109422396817
0.4678079466837062 0.22112518776270917 0.05583695926301857
0.4832484870112381 0.19705207708180694 -0.034036420096200004
0.4877425528268162 0.18485694319045365 -0.0541155836583016
0.40200726250994023 0.20225350232837513 0.004026414507819709
0.5548449879872095 0.1725460830320742 -0.14494338984650312
0.3064517500208268 0.0833811868093619 0.13762896700356464
0.46866908171566024 0.19618921552810775 -0.04033475930009445
0.46884007542726636 0.17780817099779256 -0.10219204426067563
0.4622474407638464 0.23457649618070775 0.027522832965146904
0.5505752862730446 0.23740449320999346 -0.01680469825414832
0.5504207750750112 0.21217950709265665 -0.04290169027547108
0.9433346460440788 0.007073495507796679 -0.022035317694090395
0.4750973594737502 0.1844846711990158 -0.022013214248005397
0.48502084075413165 0.32658024578915956 -0.050467853274682284
0.44320373212779884 0.1955995723261168 -0.010324887972672059
0.37901511548302835 0.17990431200433932 0.03042244428084473
0.4841015470046841 0.17959938004824494 -0.057616308027093055
0.4684336145743231 0.17649995556331532 0.04782789659881814
0.4547795458527304 0.21741352242200662 -0.024038935029636832
0.42674788518361595 0.14875890735373787 -0.06815433189566988
0.4556642869116416 0.28304098659134524 0.03430459123755725
0.5666723204524686 0.16171990246189694 -0.09790884153753154
0.48803973462517547 0.1981300273641864 -0.06988826303236806
0.41761781368951745 0.1647688656281332 -0.009193189698066817
0.5455492584472665 0.23140458230150784 -0.11031552527632016
0.5998341937160916 0.12262132215940369 -0.04559074717491285
0.5133257900160402 0.20890016601667583 -0.024350643742536704
0.5384415330435814 0.22324555607148966 0.039888727063697615
0.4962925531858957 0.2026640356534415 -0.08838109286725171
0.5420560670894332 0.1767915884352078 -0.10033821283917632
0.5819789576863883 0.14284869852735937 -0.10700207687951035
0.47062147908850704 0.21584974246684396 -0.04311427706460336
0.5129481655615535 0.14046774822321595 -0.13129419785494179
0.36178818587477224 0.17133815178650025 -0.0209832111059427
0.5398867738752813 0.2854900424733273 0.038414647793786116
0.4772598257014806 0.10877694338772415 -0.0894914023422757
0.4784240862555862 0.20058712674571666 -0.06076177283563311
0.537491001275427 0.20833506698137683 -0.003743361079457941
0.48735521778526447 0.1888869740729291 -0.05644759687309886
0.4412016671806356 0.2853126430477744 0.060294802445696405
0.4725981041659395 0.19054049643719395 -0.058388631252441314
0.5131260981554107 0.16880528581467047 -0.08021763941862048
0.6075344760813834 0.22379649834536508 -0.02251637666734041
0.45867960325691115 0.17573156696644787 -0.08944710336604089
0.4462130332896379 0.2175837604649189 0.012988011053650439
0.46568882389215105 0.17407000057085042 -0.10951998231311677
0.47196752279246823 0.1970127470038392 -0.012183575802367841
0.4212468688011768 0.22250045963346565 0.0406287023610048
0.4287684016505011 0.16322692799566596 -0.04264364972956969
0.42552469583806385 0.19418981263166302 -0.013183071413465086
0.5167866901858105 0.16898054252712313 -0.07027808963781013
0.4459754491468999 0.22690946178899196 -0.00042240553300132433
0.5098485358477802 0.18568955368121465 -0.08247249233382092
0.536589509187607 0.24627920899808942 0.04015190369619859
0.41936171189395566 0.18174198052516033 -0.02445552868337586
0.45212268005134604 0.18938082427995084 -0.05367819413956454
0.4949379421186251 0.18231194223032787 -0.07315964335684555
0.46231750823379514 0.15390113758039092 -0.04405058731703093
0.5458896192058802 0.24853715417465594 0.01127211148285312
0.4521602351222356 0.12805380338298278 -0.09240491441937593
0.4905361910160906 0.225290003079067 0.11386837072582523
0.44711528927182087 0.19652862792108294 -0.030432137115582236
0.5202075177149368 0.17709385219808382 -0.10709580307053557
0.45542777588434546 0.13782141634294476 -0.021434818545273515
0.4969471610682916 0.21004520457557874 -0.01851170043040895
0.45988072849864636 0.18674442699483507 -0.052628030985147234
0.5126236127702839 0.22656735988562104 0.00984616177632347
0.48794409432355224 0.19251032726464246 -0.0380569909867603
0.4648110893077444 0.17716251302277897 -0.07527163112999347
0.5152912404077625 0.1755567204667159 -0.0829979545959958
0.45780818639165943 0.2783898498481676 -0.02856140328992751
0.44927720018942807 0.20585303091790763 -0.028053219749139657
0.4933394233990356 0.16473574225193488 -0.0849670457384093
0.5376536474896199 0.2024080791173617 -0.09231151706158869
0.40342896674476947 0.15962018217297214 -0.018308546093862788
0.4781336432775589 0.19018265859067185 -0.04545193958264804
0.4416371613389316 0.19249664679347234 0.013524691564839486
0.4772587857561348 0.15611191259593227 -0.05378574864494112
0.5080683884275032 0.1831178540074916 -0.012803236494136172
0.4213312670939615 0.2739420293970909 -0.11922850100161497
0.49116508086086696 0.2547002698279073 0.02589341504267395
0.47949049177661607 0.134198491211734 -0.18436270765809581
0.4590089420785688 0.18333513785304945 -0.03348308811538914
0.5697472098367626 0.21260248715364582 -0.216092848210252
0.5129963833951052 0.18060547099429414 -0.08559898146341993
0.55674635810891 0.22984559472962474 0.016830299848777486
0.41982541911134774 0.2986599370876206 -0.012901945479512733
0.46530074662017284 0.14172115486027792 -0.06275727362407224
0.5685094922574336 0.26694392905938 0.03467336772490626
0.4480489719899907 0.1504543234870681 -0.02173900477072266
0.49271544089623376 0.198603359619824 -0.0708388403642175
0.4775515805655175 0.15458459313504136 -0.039538815918405135
0.4514577538060536 0.2102443060953192 0.005892328165529648
0.46848312820631577 0.3072117706580997 -0.013695292007213311
0.5082895879464218 0.2224059810161947 -0.040541476521099185
0.5333842108097286 0.16232259086923762 -0.10147550740829558
0.449429098480735 0.21928490825170854 0.0015592533417390086
0.5062052578970224 0.24497535876921006 0.013143728340509142
0.5184595591521628 0.19497493193523496 0.04499360342373393
0.4607156749910928 0.2025201527422098 -0.00042580647999557186
0.5592727404582689 0.229138341609314 -0.08750544192656662
0.48418807892356597 0.19734396331182325 -0.17503888099730602
0.4969334610652538 0.07924053682344834 -0.21190766924408422
0.48499133836314456 0.17747874579944778 -0.06867334769634681
0.4693698762397389 0.2930695988179366 -0.030360029528623045
0.43348626684446856 0.1658639369385071 -0.06016782642420537
0.49478508878328853 0.21739769142754994 -0.025502813952343217
0.48529774333231046 0.15171647060091686 -0.0814654438680833
0.46433833198358343 0.2357439098241798 -0.057384270056374476
0.525631171632071 0.24922425037553353 -0.002298796758182675
0.43668550306692566 0.13825487265488334 -0.07401752820737784
0.5181835888927537 0.25190085383337646 0.002058736377051673
0.49563139331547745 0.19543666215315625 -0.07207200062913444
0.41641635702833923 0.19354476292696177 0.07255753886992977
0.4394644004512003 0.13713624491327892 -0.09474863337030115
0.4905176768791648 0.19336140693144444 -0.0764767255670904
0.44953553663727064 0.13815252233405317 -0.07409118176082075
0.5000955301746899 0.19131360733913993 -0.02041586748202917
0.5159298331878404 0.21071184380967622 -0.03954730308409182
0.4991149909787822 0.194430186240794 -0.04139955137503648
0.49105647626183213 0.20489256998342853 -0.032731996345034986
0.3979673528205865 0.12311864203161349 -0.0642894262546605
0.46798217838318124 0.18182413769885386 -0.055870694462981874
0.48882638105997955 0.17373975750412285 -0.05076412636009309
0.46139271568731033 0.1863322749003089 0.0002460781131503609
0.4881483467504495 0.14561217898065593 -0.06409082535762423
0.4062324041637595 0.19173062690498455 0.00933541906928781
0.46938373457817306 0.17853303278778299 -0.07272688244343328
0.4347076551140532 0.22849231446895146 0.11740924266874231
0.4785632623467251 0.21792240269962804 -0.010254448219171763
0.4773689682499196 0.21234336971895118 0.0035134674906913688
0.43937330320304113 0.2918061109598682 0.21214257576326645
0.5362426047512798 0.20741562560235138 -0.11769745049593894
0.44682365124585033 0.19757917623974208 -0.014171520416539352
0.465740930903209 0.14863924830743258 -0.07733831312783934
0.4871179770103282 0.194979280604187 -0.03310889426415997
0.4565691360062658 0.25076763170034155 -0.025974208502901774
0.5139309121326363 0.21693798362426264 -0.02253684362656827
0.47114050470294444 0.19291219477022992 -0.0784044347421684
0.3861382370303943 0.21497547638070102 0.08311119708619685
0.4391667690123455 0.169787826613927 -0.04763693588230922
0.48753360982011884 0.23464646566998226 -0.030204728992657692
0.49194331873201236 0.25522362623435413 0.022484799358920782
0.4192809719978783 0.15290038445380105 -0.046088491080325866
0.5406247352284481 0.2170541639650878 -0.004162021211442379
0.4051834497530109 0.12215601221264194 -0.04206771490134997
0.46167995655325456 0.14864044770126839 -0.10875597969649675
0.5045976148907556 0.2182410816498077 0.050073394816024575
0.5180563526054698 0.20458958946559846 -0.05688832150622147
0.4621777518331953 0.1046357028329794 -0.16256984497432825
1.8995899681892467 1.0777669135464407 -1.6269166590059285
0.5289668307297575 0.24961526157343883 0.044026909429533134
0.39483882371641243 0.17217553905261695 -0.005947050145863386
0.5248806230068084 0.23414474764854276 -0.01002644455198265
0.46610405728338833 0.18823014867939492 -0.027101861431248153
0.48489403053456215 0.17766251344127681 -0.06199024123387176
0.5118589508557108 0.23796902182144208 -0.07176604632468297
0.4999116403369612 0.16931741897839458 -0.1097596606984581
0.5198084315459823 0.2693296071327609 0.01952445530949376
0.5543043165274355 0.19699584581363183 -0.13631611357416773
0.5137612167199848 0.20520076520023167 -0.05124231940558843
0.47861986055460193 0.2008961571221164 -0.01600046223471452
0.4480429397578405 0.19577919344690997 0.0161771199294094
0.4020225984914987 0.11406315329644201 -0.14339678996276461
0.46616182583997556 0.19697211785168633 -0.0247192065267825
0.47523714506192505 0.25002442618298915 -0.08712234125749774
0.37511028326863993 0.15108113473503693 -0.02879001016808047
0.5583200903502643 0.2094650955670545 -0.015480108656475977
0.5575972595809446 0.26004060488151026 0.008598838171991474
0.3520165798571355 0.18984753541246846 0.0014004640129030577
0.45077459341199244 0.1498805322610508 -0.0930525378092284
0.24405983323092073 0.39157139534580665 -0.08280362165314159
0.4777673400521252 0.21266882019440914 -0.025962799373530743
0.5290399876490142 0.20218989253234554 -0.09774237804515451
0.47010336336103364 0.19375244309037498 -0.034055624013745955
0.5928798931686714 0.15992048618338117 -0.18185480472065763
0.5402654565883722 0.22336580747146684 -0.11223571738736382
0.4849800675548721 0.17891349981866256 -0.0518619023451663
0.5283159810309854 0.10662500771238115 -0.2036937221494668
0.3985964319149957 0.2584306529147682 0.007647208410759276
0.477018244263661 0.2026499780917561 -0.17078660292833092
0.4466785321834834 0.1551682545283768 -0.061840472975859484
0.48836538054231937 0.11281022727618506 -0.10280572373140728
0.3970883075371745 0.11596111626809602 0.02571241663544299
0.49668718722101346 0.2474793297398037 -0.017294337628754874
0.5131258007762796 0.19224103545246862 -0.09399058916574177
0.8131333990076968 0.2649446385391343 -0.20156279604933047
0.5656114178856768 0.2867697688795374 -0.03412196054611627
0.4640256199485151 0.20237536784063082 -0.04909286548115688
0.4443570833532817 0.12539827274052584 -0.09222623351566028
0.4711685586765384 0.18818822778115418 -0.01799853427868925
0.49382316623739086 0.20105324171362327 -0.05047984248909643
0.5244770039116702 0.30266343778239957 -0.08750591439789446
0.4791812979944865 0.1560320949820948 -0.06155774419835325
0.5176772752673884 0.17333006674454055 -0.021593562057859117
0.4063392929785863 0.12240087922597809 -0.06587145652852655
0.5283599140905295 0.22103357101255483 -0.07730772446814171
0.4633282256598079 0.19731012153380334 -0.03074023586921726
0.4475679655053142 0.09213409119266203 -0.23505819590039323
0.41900879211077324 0.19214919797852303 -0.25014969724912817
0.3823694582980721 0.21445585862814198 0.32861655213761765
0.4856004531060307 0.1778644221835748 -0.060588352223419406
0.46281930126301063 0.1333277599001974 -0.020504545471141
0.4501192474505302 0.17103192023293445 0.02422949562020449
0.49314347138688674 0.18626556737345368 -0.07548820245540355
-0.10536159257088684 0.42758995834574876 -0.33344121273496796
0.4704571058581166 0.18740531106270453 -0.051412339975712484
0.5151878282288891 0.16667246755494602 -0.07057957574885165
0.5164121158601489 0.3066413480176493 0.05549768572413427
0.4595442160140948 0.21275219452968486 -0.03948451755655924
0.48813646848206815 0.21653508925436427 -0.03579969956359719
0.44192243276242493 0.16670041591413565 -0.021394208141259696
0.4565202918539768 0.14703509424919048 -0.05836449746517758
0.45997448924194373 0.04424997933622876 -0.1097889466615527
0.46172618716191494 0.2100740149963798 -0.026593392782046976
0.5510864472805395 0.22353380632090136 -0.054765562735070716
0.49362763839525314 0.1898902283641064 -0.050832508814878
0.4962000824795183 0.21568596888099023 -0.03782580130237534
0.4183796328584606 0.15664126410993617 -0.0858588914451417
0.536148137358353 0.22890640233956105 -0.09786303533343244
0.4773512391321759 0.2362337372698846 0.009641335990266953
0.5371792606611905 0.16765769149637322 -0.10227551611561125
0.47051312899829156 0.24782572891314203 0.023315024828860942
0.5015351211001899 0.23862589624545194 -0.07194070864404978
0.47080316650222187 0.17687172954521202 -0.055339989760113895
0.5028998863255083 0.2099814548631258 -0.044881746700426106
0.4057799211681612 0.1109335571827188 -0.07488736103073279
0.49094044478434284 0.2267437187893364 -0.26751049540544614
0.5159325980038574 0.20947820320071742 -0.013976053679471079
0.36282878411500974 0.16645628600052476 0.04934546126607131
0.5266763018948097 0.19649620428320702 -0.09262162002096375
0.5003335746037436 0.22600123294847663 -0.0357153802954997
0.4201041264724097 0.2642990446322955 0.06537899761458732
-0.08452940129622277 0.38570851966420605 -0.3317037308489006
0.5473403315375407 0.21117062428581335 -0.04914508062454104
0.5206871930128898 0.13610636913537633 -0.05005985771768451
0.49614427306784137 0.24967888468395927 -0.030439812276625844
0.5492447027767184 0.18248319835171856 -0.12241243209894037
0.4005897503391509 0.14074205356865832 -0.07958569458912734
0.6229011422818616 0.11064455996002209 -0.20559227630715782
0.4709023410585047 0.20768114167745466 -0.030465209469070942
0.48141284535712714 0.2334978378041228 -0.04285290898795324
0.46298775662997116 0.21013620241251374 -0.015434389679768401
0.574209533669972 0.11080867066519318 -0.21345932604083373
0.4364389322288815 0.1450676636038679 -0.05771023054576574
0.8050250035316537 0.31462149452042354 0.2626716129949358
0.25878293790830753 0.4472963091622262 -0.08375711524310248
0.5022859022102324 0.21436941816925525 -0.030014874795227797
0.5474975167378631 0.1598813580129388 -0.10652060189583779
0.4787240004667268 0.2215870397209585 -0.03953421032625215
0.4432901427572773 0.22446995308180817 0.008146675341492937
0.4413930359024505 0.1946260330636136 -0.015693288199983613
0.49167347037507625 0.1918899769292466 -0.05687007396835497
0.5000850114148818 0.17465756520434184 -0.06838427489128662
0.4848484041396688 0.1770349970502707 0.011618913928600705
0.4864170547210733 0.19758715140125105 -0.04366713543062417
0.4608576264872397 0.19070855783866136 -0.03140195822524561
0.5051156560025163 0.13327581959877932 -0.14700776265688376
0.5252851037005399 0.19790133419360245 -0.11520523002023708
0.4650286708716749 0.16512801910172925 -0.04004667898480818
0.5008324619565059 0.17865040999397763 -0.05391244997960598
0.4886397570713683 0.19983001085853402 -0.06646387400728315
0.5934410050277137 0.15242762166305113 -0.08549876401195888
0.4438373966466287 0.20061229373955314 -0.011703789232669237
0.5096268755960836 0.23760367098093127 -0.03743846523387617
0.5457141526717635 0.24610847180137796 -0.025247288614025365
0.5323154054644732 0.28408233177543707 0.06071765391050121
0.5627575348188003 0.2576274034562971 0.02943131254932041
0.5272909491701938 0.2702507000296066 0.0235611279181569
0.4551231558692308 0.20828080879562094 0.05112906807804052
0.5354571444562168 0.245239139801825 0.017708794091760183
0.5877446425303532 0.18836834157349358 -0.06488588496158343
0.4584029628455255 0.20321054226073443 0.0008292576419677289
0.4390902635293088 0.20358763179801542 -0.008098053837613861
0.44838193987892794 0.1479369540235922 -0.09015928925146
0.4617570650506053 0.16763653612632368 -0.03800557454223963
0.48200425583993933 0.23508206945550114 0.06433136157062336
0.49355481414795577 0.19717734583180402 -0.09392002149829182
0.555826493098678 0.21901062604882782 -0.08018570845962358
0.5341620308414861 0.19451168241354821 -0.08286357990527904
0.44595825976171 0.17508778007143633 -0.051480529001722175
0.4728272907840818 0.17837861729439908 0.0021968088769455107
0.4762772229233434 0.26771890672020504 0.02516406847458086
0.46117627654952287 0.09222066607394197 -0.11705083565976793
0.5766062378331611 0.1959268549085067 -0.10009926789794577
0.5132555890813677 0.19647306019129473 -0.1438325616782663
0.315817518227675 0.24750269859389107 0.14705830118342078
0.4591321909895214 0.2114590770770235 -0.0020121574666660536
0.5418211225593978 0.18861005908908623 -0.03906199950685618
0.5006309496361325 0.15786133949561076 -0.09829031188453996
0.48058230896788245 0.19299933739765152 -0.04094499145546138
0.4173519071102163 0.21911561292867532 -0.002210786559231792
0.45625309669860314 0.11368657676955252 -0.11514940969752274
0.4641115348216971 0.19200174673954962 -0.009235935279946261
0.47115441473106046 0.14737311859366287 -0.037108202415424785
0.5557709255186154 0.3206673341168482 -0.0713063659468105
0.4989881725031182 0.2508586986846666 0.08138578178360945
0.5534944152653622 0.10190502442692662 -0.1506425864031229
0.535659843174713 0.2523864106495495 0.0624741737815242
0.47704493264467374 0.21633025376902992 -0.023325331423862394
0.4647817430955996 0.19130971435865263 -0.02703547586375521
0.47539709294100874 0.19165404334569303 -0.05567089878221054
0.5002588010655558 0.1859997801630442 -0.06188407505226223
0.49573241291308534 0.3081610395057055 0.07621614498310691
0.5669900468611075 0.24019276037742543 -0.017262458286239735
0.4858279724703749 0.18554076134707032 -0.07060100713728445
0.47432397281629335 0.16386617015703564 -0.019019902186755644
-0.11303392975587201 0.40715901509923924 -0.31035092973331757
0.42212329893759204 0.09600429632126861 -0.0285009365234572
0.4026211788329732 0.19184545206215375 0.01629566845289787
0.4947771116119384 0.1746072392154332 0.2689938356521395
0.5370782256569697 0.17383361619754112 -0.0668492566915262
0.477833087176748 0.18465566706760228 -0.043762390983573596
0.4784308268981192 0.2245936574290539 -0.022248725500503497
0.39763823032552637 0.2262537138340548 -0.022165598749197102
0.5135413378550169 0.10238857711064497 -0.23099126739307962
0.38555181445757114 0.15843800946622366 0.014103635433144746
0.4897052097575454 0.17906330734703602 -0.08502309091099391
0.4769367379270477 0.21052954786395617 -0.01879250539143129
0.4899281010432617 0.21686047040016376 0.07783779599489549
0.5556340282135039 0.30472476541233107 -0.06904987538368346
0.5597366792100757 0.21164640933193368 -0.0914718512095476
0.5250843084829171 0.26058642125167353 0.009603925426290516
0.3114974135172446 0.33436706911781755 0.09407541683310683
0.5357230682673162 0.22798218970238793 -0.09607356390370114
0.4834932750790699 0.16868575182164136 -0.07789942182745335
0.49889429573123323 0.18472024603741488 -0.08759027936986286
0.4833622674495075 0.19067371736073824 -0.04851329639413393
0.3587356109722464 0.14294095715597166 -0.002277890995145526
0.4720210992487779 0.19092026884351299 -0.04017928667340698
0.4734012414072595 0.1899896845908131 -0.029612539519689562
0.5109529382021236 0.19587933648735145 -0.06475677070022812
0.5202258164421778 0.22962130691414018 -0.02293656578478931
0.5057940821597526 0.17782972805531472 -0.08282713669575514
0.5128475973523905 0.27892360592684895 0.03974491114377088
0.4882958203699701 0.20600495299430577 -0.06977879899001493
0.470449793005713 0.15368331721796835 -0.036058752945052674
0.5050105948128589 0.20393698660959103 -0.049161051785887366
0.5078295001355855 0.2100119997723766 -0.1095578677030602
0.44695646323238236 0.15185133252307992 -0.05643637187952777
0.4157611633668097 0.24279001997760474 -0.03599574759772395
0.4659840202733534 0.1642680077495271 -0.06240820170597772
0.5044079136696098 0.2532696739321949 0.04488490416751745
0.4982879926431991 0.217834120379095 -0.001705383524168269
0.48267862788243576 0.1892187593758763 -0.08856025465826178
0.47461358933850306 0.1835335568992491 -0.026659564470037367
0.5147421223708477 0.1538882002744799 -0.11555229865426497
0.4634670944028727 0.14229802905553868 -0.08166940900147779
0.5184919479352459 0.23133341241872074 -0.01939489609306122
0.249643438652015 0.028223099098738658 -0.5765219299937172
3.8477797480370555 -0.7305614138535645 0.39844486945108315
0.48728844941354055 0.2868294750196583 0.04520279278276007
0.48902507274497964 0.2002804125370261 -0.02283958539854325
0.4982565754391999 0.18564198419223032 -0.0007275284716001806
0.5439421942749902 0.1812776620446641 -0.08067520868979727
0.4705638448525349 0.18379444176240156 -0.02153984363633299
0.5144537974592964 0.2411942435794856 -0.023811201757993672
0.39164926450348503 0.14386716296780833 -0.05965569468568788
0.46314802498866925 0.1969092442820113 0.015627685581762307
0.41457894416919316 0.15747036326190766 -0.003087373058875187
0.48212234401476906 0.1895945070062055 -0.0448766545879522
0.4859026331915288 0.21378334374148267 -0.09613987731880513
0.4935982449469378 0.23744739463316478 -0.0627678496152555
0.5083646765370986 0.18743264857971553 -0.10227003883349539
0.4471479656281758 0.22577872936247445 -0.0012235261661146524
0.4574596414227585 0.2065375222342425 -0.008028642092000382
0.49020837123443073 0.23756173535633707 -0.0288444441442266
0.48323188302916265 0.2544408907047 -0.07758645034490996
0.4847508445858182 0.23535982435113567 0.057580802149274746
0.5039937209190839 0.12868512532821796 -0.05134086047007713
0.5203897414883301 0.24379592676895356 -0.01253174389984224
0.420398195923255 0.18813417261844734 -0.017599592472279824
0.3879625786085654 0.15299791836710597 -0.08824986816644298
0.4111941041175555 0.16590910071130338 -0.014113486124031738
0.525834005495895 0.2535128741047572 -0.023868387800774826
0.4816952813011568 0.19417627906122448 -0.0631854598582322
0.6353307271156297 0.18458786871332222 -0.08023393550888613
0.3875489696621628 0.20934883978799235 0.03198744581166579
0.6328917085345864 0.24406061425655423 -0.015476880679813121
0.4657235445673962 0.20563749360444206 -0.02556900273799556
0.5298084677657044 0.19426763144929282 -0.04824694220951642
0.4893034290143987 0.18401972269337818 -0.07802353206062662
0.538275700943089 0.2846996478459829 0.034682226473833566
0.4199061089066731 0.20454853455157718 0.041597661627605476
0.4508817377136154 0.20938403598643163 -0.015103218577323219
0.5100364872213703 0.1976412751575083 -0.037165919961083205
0.2907294273169754 0.04430729665841682 0.024789729913521796
0.49694360259817927 0.23369329246895632 -0.011051198352816982
0.48881912998186294 0.19414466043906486 -0.0410740573743027
0.4047495734162396 0.19520157187770337 0.008184431315584106
0.9197682451956553 0.3551381652200405 0.3679991286146276
0.49473395951760324 0.19870349727501946 -0.03330320810056264
0.37963942468049083 0.20592557934685374 -0.03526633402401558
0.4333398486852502 0.23110040228075945 0.008354706808063384
0.5263836827135435 0.1458616171939866 -0.1397814139524769
0.5618747089951057 0.2968976316951455 -0.07144649905201561
0.49437469584651694 0.21954637467450766 -0.023466343135481793
0.5589732807026024 0.21793944943809151 -0.07064346587327464
0.4934220665152367 0.21563741730292918 0.14953792578100433
0.49770174304933334 0.21096900357360937 -0.023103503648655987
0.49176576077151424 0.24438681515434268 -0.019322812149511037
0.5313050432487785 0.20817933791400378 -0.02165186785650519
0.5265048743508061 0.15255081327740072 -0.04646079247095258
0.4945994259191906 0.21386747224067904 -0.00943151227272665
0.5242535424459049 0.2680346436161898 0.07120011071907584
0.4718410061727525 0.23552835435374675 0.01155091473250991
0.50028485362634 0.24256430594380163 -0.06178303633714677
0.5001902726555159 0.22838416794002114 -0.03617689079587194
0.45970407779952893 0.20342328939159415 -0.027892519229624213
0.4907366408884428 0.1903272670400895 -0.06330556688334354
0.4979909129156397 0.16218979248407095 -0.09246544772349807
0.4594849746520566 0.1898157422318718 -0.048455515469115085
0.46209217156932425 0.18374292882903376 -0.008376560752935802
0.48275194735131777 0.19860203037472957 -0.04714206541808608
0.5477022264942946 0.13941142264015127 -0.09063732002255165
0.5317776157760505 0.21760246159503538 -0.027707000341123944
0.4292746197657067 0.222544992159186 0.04748761518980871
0.5053325012242169 0.18808281678482786 -0.05707736048992729
0.4401344088419563 0.21467082280949512 0.02523855857926094
0.4875743513453301 0.185451975862577 -0.05275307281172559
0.48387888004586443 0.18200371112831704 -0.05608589509614603
0.5119549707004154 0.2027404350023687 0.051265827523963026
0.4571908361152026 0.23576146015545874 0.014094575493089678
0.500719898190539 0.20219794980678785 -0.058100351101288084
0.4716662964706302 0.1845074069757544 -0.045449774180795544
0.4786615425180969 0.22418373801161806 -0.010002006023711374
0.45328583869520855 0.22599642396598085 -0.006907305276570241
0.5701598189668715 0.1931512896044154 -0.06583691711108486
0.4903894037275478 0.1913404781193293 -0.061254398177595704
0.4329185353098097 0.17768496673822654 -0.045144323179428625
0.4970178317880283 0.1525459952710264 -0.08498019849265859
0.5426040862777057 0.26806968965017575 0.011532115817018962
0.3282786316510595 0.2956050104357928 -0.26596553044278437
0.4612537775945924 0.16332731566220104 -0.05767555542402647
0.492902358728216 0.22555044178950823 -0.01625036115792966
0.5435864425619457 0.1769378521860574 -0.11458370640661997
0.5120826690762783 0.22142860350292892 -0.03593930621335062
0.472449750244607 0.17471872785185383 -0.060212586014444014
0.5306272733885606 0.24332614827631005 0.03375369509092252
0.47657149097020124 0.31282105738767996 0.09273473807662924
0.47499525606407644 0.20531956858685874 -0.035217977157941505
0.46093124462382207 0.1501649324900427 -0.08124679590760309
0.5069576058031657 0.16961591651599406 -0.09111900017660446
0.49259152908184944 0.2217043008973718 -0.03346707633434676
0.608599751781199 0.25278001183230003 -0.07319795748114188
0.47440008880433027 0.18720345685353834 -0.04927620676494371
0.5114232113221533 0.1873996583581885 -0.06198310718804123
0.5386622600501738 0.18470248092168617 -0.08693366388951063
0.5403762803240966 0.21051731917984284 -0.039059643532738164
0.49961185576708544 0.19659807188241984 -0.044606077243130926
0.4688635739520066 0.23927856545196846 0.04491835945280798
0.4573902647788941 0.25447577322212567 0.06809981346371785
0.4343457918578366 0.16757389328350314 0.05322301125571016
0.44829655681539293 0.15701285087986605 -0.061668093624447806
0.4770245034172689 0.21878455516844042 0.01961907036474031
0.44987365443383 0.19610159223000778 -0.010244387753161277
0.4909293747586503 0.20257205500143982 -0.042037814747402535
0.3850100644494603 0.18831625524288143 0.01152456423710646
0.47849978028095563 0.18295303312991962 -0.049082632693654205
0.43973773671045535 0.17546195340455029 -0.10678872609688028
