# .PCD v0.7 - Point Cloud Data file format
VERSION .7
FIELDS x y z
SIZE 4 4 4 
TYPE F F F 
COUNT 1 1 1 
WIDTH 798
HEIGHT 1 
VIEWPOINT 0 0 0 1 0 0 0 
POINTS 798
DATA ascii 
0.48064788294932725 0.1541236418670593 -0.1335454608730089
0.5080496594322597 0.17882423036024875 -0.040290136289911516
0.38603805533313107 0.17889023443697738 -0.020676436707560697
0.45023918394349494 0.2005445355160873 0.016027664334202996
0.39390189508925744 0.16451980146106848 0.01084782824042918
0.4061857028802507 0.20011188714934747 0.03278920603771951
0.6046252672060319 0.046786719522259546 -0.0923270725758698
0.49787281260201155 0.20510213235198194 -0.03681111402184456
0.4088879949342328 0.17244327406447724 -0.030002201149073926
0.5128307757540682 0.22659395515972847 0.029036927846163962
0.4758848160142293 0.22208009103584914 -0.027221981658101413
0.6151039246616392 0.2047946285444624 -0.04577459888503199
0.48921062781329283 0.2074118284170794 -0.03933721044333538
0.4921703553761887 0.15369803143184413 -0.1313903669862384
0.40287460366005234 0.09879070794352174 -0.12822734486194065
0.5737565834591578 0.18931759134770232 -0.08463259004139445
0.5731563274315619 0.13250493379460693 -0.17186015841181757
0.46191773591662866 0.1836684106572477 -0.05129779899603193
0.4699778418149947 0.2216799558803757 -0.02356210486954069
0.4803549902667754 0.20253082124884259 -0.055449611583810565
0.45089211965128584 0.19839586210238735 -0.014880773212411214
0.4825668179172453 0.1820086841553632 -0.05948561850411238
0.43195981982059095 0.15616791907385164 -0.06788312652803086
0.4797232492518049 0.13083989045283317 -0.07612358115180484
0.5926781710441702 0.18107835145032425 -0.1508278891230077
0.525979940863877 0.21453592512924047 -0.08766945574689089
0.5857453181279766 0.22554726407670955 -0.06813941847489957
0.5004844908450821 0.2609146791213419 -0.024553329615500274
0.4951667325017439 0.19079406764520002 -0.02530281400089507
0.5106719848325127 0.2524470943034629 0.0278107546258326
0.46286137237203206 0.2057249425741361 -0.028209139133096528
0.5328505945264936 0.1950232121085662 -0.12007577409352166
0.3687036037606646 0.2118488923090922 0.046107795026017584
0.5230285564373531 0.17606106623622964 -0.07813381162443989
0.4817587662029581 0.20869782875261933 -0.018877460048770445
0.5159763492011677 0.22553879001765154 -0.01762530082967828
0.4704984316138052 0.1828107358939235 -0.028553337874541285
0.5337850849992094 0.23563232116030974 -0.11805480097540055
0.42175980621973963 0.13294212502808023 -0.041097908073339795
0.41485448773295275 0.20048420624128482 0.026433694826494047
0.4944299590208914 0.17841211948910995 -0.0632646142644262
0.47442045476869055 0.23804778857150666 -0.03067413416934528
0.5466569038630951 0.20081477054351637 0.054513291618974336
0.5065434221459668 0.21952912713808814 -0.006659618195513417
0.526556797955422 0.2194169330956015 -0.027848837772083357
0.5023080723255191 0.20364663251973525 -0.03953845798454836
0.52734722653598 0.23195797347770508 -0.013105842265559886
0.5507701723307292 0.1924524742943987 -0.0388574068325056
0.44991254304154893 0.188959831606482 -0.047116367588614594
0.4995844763070636 0.14989219334222526 -0.08689325489069688
0.5214570575233495 0.1838748991792727 -0.04530522711574747
0.47374606047526413 0.1887720783466591 -0.05709082215503258
0.4489903502870334 0.20236584153583692 -0.03798809034188366
0.5104826984917139 0.07908692868454636 -0.15639645559124915
0.47635719804010535 0.19241272257906417 0.10265393628503716
0.4758649407365425 0.14854148411673407 -0.0657961081423366
0.5141718394759636 0.20608578744496242 -0.028810709542170798
0.5396407096101115 0.15162772183846585 -0.10480091893096244
0.41296281257193357 0.1919097725203187 -0.037476949418476124
0.4724563236399604 0.1857734345969959 -0.043493147888028716
0.3977994235464877 0.2374489395291306 0.06826571108189228
0.5022368473096748 0.20676711755817223 -0.1821349201497071
0.575984364338666 0.22589133376521886 -0.019345161699334312
0.4522585476315726 0.16884247128233199 -0.11845338092507518
0.41236661080260717 0.17207980792254318 -0.021395027618467566
0.494417851680538 0.21596325105788594 -0.035188171294578297
0.55351105927231 0.18911921977539237 -0.056820619019873675
0.480292180879033 0.1911743450191068 -0.0570919789519877
0.502970189662733 0.19105224168990276 -0.049311057343572884
0.5217692117987269 0.20334399594862873 -0.10006352426896115
0.4717257220925717 0.1444309199541749 -0.03465224209095652
0.5491972709809403 0.23709613247424954 -0.0005508229602355641
0.5009884198480137 0.18088928677178728 -0.07475693439968722
0.4015968289418339 0.18818673422599375 0.017117028147978885
0.5588625320277458 0.31788157990840205 0.018641236450406495
0.49240590174876786 0.17737885125049502 -0.031686231467602965
0.48536260360651795 0.19602216188248178 -0.011157041347019003
0.4762569885660497 0.0685229837604453 -0.07237682005353463
0.427988046241893 0.15325693019373432 -0.20262659871954725
0.5175829600982951 0.2370051069448209 -0.005404463422763683
0.6330008779750926 0.22913985514959734 -0.13890253788318319
0.3799916800289793 0.24481755769701863 0.035307012415444206
0.4764153830651452 0.15874879770555594 -0.12048197974856123
0.3593899285842781 0.027244477274479095 0.13637916984222898
0.4430649685211421 0.1939957241367125 -0.024983471977122917
0.4881248301982737 0.20480904818751355 -0.05659234902601895
0.5371025707007675 0.22494403352467884 -0.0040016169711805105
0.4466672338401736 0.21413261605617606 -0.03350344531367
0.4584978572078455 0.25421896773492847 -0.02417665610950337
0.4194589706055183 0.19582190679533085 -0.05901767893229248
0.5030311081278285 0.18871012601948678 -0.055313786320397185
0.534586668929208 0.1604728952465848 -0.10106622615259653
0.4775085609781229 0.20954878633236262 0.00760690213078874
0.5440566489231315 0.2713379071286113 -0.07064069273313578
0.4870787268583854 0.19831596678689323 -0.05320135742721277
0.48304067876888723 0.21160639569275475 -0.022875417636981865
0.48902720130713817 0.20400761396295763 -0.03460174657239179
0.43277649181661104 0.18175254284038544 0.014498955028898308
0.5039782119573459 0.21351762331539703 -0.03149453445109884
0.5024766091095927 0.24722866531045895 0.016847091866395658
0.5209433294862151 0.1579183588343369 -0.1223008943726569
0.5037478404615996 0.1918386830990073 -0.04066567945167776
0.4688446314041812 0.21065814354612655 -0.03863628561668975
0.4897226219916888 0.22596972319462338 -0.015007612527966785
0.4689884393267789 0.1798758358496002 -0.046072541335448136
0.4558904033465012 0.24110355695890462 -0.04253007621034044
0.466987063404261 0.24937057825579245 0.01818845902245414
0.3739296047302787 0.28054469601269716 -0.029101830431017106
0.9312359442167661 0.0110683297871077 -0.22751316466960247
0.5288479031634807 0.09699175037690111 -0.1620182743880747
0.5207236748779565 0.2363638394120926 -0.029354281610693533
0.3919182065685618 0.22577862322984288 0.049761291913526406
0.44715699279556986 0.25478369084859764 0.0642486226429071
1.9544504086219092 0.7519500958555341 0.23801170260404092
0.5292633828723012 0.1782745468897815 -0.01906973178483895
0.40494812919114054 0.15357540853185014 -0.023398550808096275
0.41918837525861363 0.20470447899023725 -0.09624784538718245
0.5044208734183115 0.2059076193860392 0.044550803095503966
0.497922162208539 0.20187206900709498 -0.0757383184599405
0.44835863560439293 0.2261470346839758 -0.014032587833071375
0.49050991137380606 0.16472730393039114 -0.058045452636662276
0.49160141895093545 0.23852568240678806 0.029609363056266602
0.4129712582098506 0.16559177388998592 0.014715465500131586
0.5740585408010617 0.1521574265233312 -0.10778986227647636
0.5224943291263742 0.22958284888578362 -0.040357510024222165
0.50351412194847 0.1730654964356404 -0.11069189014176573
0.480951511786742 0.19770767712863346 -0.05530288331938493
0.29382315257488756 0.1781827559265423 -0.007711726998167023
0.42539912849295547 0.1704536920192652 -0.06937919810276583
0.363842785957587 0.17386469726277198 -0.017706812857909426
0.48627913915129284 0.17249917097225875 -0.0697178434888599
0.42303317676878294 0.17996136942994667 -0.09221987494159123
0.45299910069495297 0.2134318988963173 -0.005249017570349679
0.4535210633780906 0.19910952761756562 -0.02442180138331196
0.46973217925189203 0.23251753360118244 -0.04892364508194191
0.44544876779626463 0.15791502789414835 -0.041430715634533044
0.5274460696108463 0.2311658533625689 -0.12387194980703953
0.4937250191549225 0.12964456954588854 -0.034377096766192494
0.46467986781702564 0.1720021030319856 -0.052199784110385394
0.49419322768243035 0.21104134929373686 -0.021444266629799813
0.5862326281731924 0.09380791917607212 -0.1579861369751967
0.4789191643929769 0.18938271929118855 -0.06397813290300292
0.5038574141601657 0.344011488065604 0.09324036139054215
0.4997701919266859 0.2869494334464804 0.006413120791904703
0.49901233878874507 0.19389691928229524 -0.019619971183985285
0.5888129900703802 0.19586987011479096 0.15604009412160735
0.4921909909988358 0.20430525119176934 -0.11768832832927956
0.4804774768612816 0.13288137016333224 -0.06324628840202706
0.4418862367316905 0.12098908586810353 0.01491205918185301
0.5198753108173122 0.21983118764870824 -0.04896089072332188
0.4931774697505915 0.19330855186872498 -0.14408020130710497
0.5003155099175984 0.21763305548135747 0.003590476589664604
0.5274325413088548 0.1716094550122591 -0.0750227619729884
0.45272434073781653 0.2601503903501339 0.009649922639553665
0.5446910511730039 -0.0036885754135767 -0.1572836231241297
0.44777025376265556 0.1398994084188132 -0.033956249899858904
0.43134272719981936 0.16272126788720698 -0.0778263378973918
0.5194615422690845 0.2546778806661649 -0.005017619912393911
0.5020221216413034 0.20582566841493133 -0.05614824299559018
0.5279841703920312 0.23320176988322316 -0.03324393855265839
1.154485675383242 0.37679927146470504 -0.13806474746169783
0.4877471181890485 0.20465376689472237 -0.07572275995573818
0.5134902564480228 0.2129196141398637 -0.03409510411748329
0.5333131415917336 0.22438052914819195 -0.06602262174575912
0.520506372216559 0.18482478227772958 -0.05091485489785441
0.4644494292179502 0.20967203414872415 -0.005072133359448117
0.4468888220802256 0.19187279290204629 -0.08303924723489331
0.5977701581218895 0.15507590079626254 -0.10494118202433356
0.4177672961416903 0.2180984647197306 0.13533037623656696
0.3131044763478883 0.34545587369052555 0.23513256628848467
0.4643581345451082 0.2875188732859897 0.03654425469898115
0.5096540026534058 0.20528278207720518 -0.05011135325574401
0.533904764100896 0.19077778089544495 -0.05761716148282403
0.48825929870731954 0.19175587641578318 -0.04425198165095878
0.42566772955169085 0.15970385483167604 -0.07859763112931262
0.4838206694972911 0.19208618081580653 -0.030572038638723598
0.47137862543176823 0.17661423501684226 -0.0025164860217046225
0.6731508748789565 0.09977366245418295 -0.249048398167389
0.42176788845165447 0.17290115067680745 -0.03908019452495637
0.439986584723016 0.24956760945460132 -0.013551915937554782
1.15471442651193 -0.03238592200702328 0.18827366175159455
0.43707112614785615 0.14975144813371344 -0.048856089354842425
0.4528691838895327 0.26244397570162903 -0.6734242247141538
0.4529064302518009 0.1782610565835654 -0.03537459366950202
0.5275310792914354 0.19534247722984333 -0.031547041934373965
0.5511009130885185 0.22953375684967625 -0.04807840229008775
0.5055951103714165 0.1894309020803462 -0.07239362282081174
0.508050219526794 0.22560193739789725 -0.014371861385768625
0.4697611206562442 0.11761752280938254 -0.12312687522893384
0.48753747760008537 0.18840229952654397 -0.04844649212385832
0.4831107114391813 0.16285135755441615 -0.09742716733995849
0.5061014743785819 0.19672307340144357 -0.019325711006516144
0.43245602426173946 0.1719450207817914 -0.06740691698348655
0.47949383129787293 0.21159165725154594 -0.0040288416387568304
0.483138616481682 0.12646843617520176 -0.14372427365826468
0.8691596753326536 0.2505545114301242 -0.3498786622887735
0.5255549024519581 0.19727571787343834 -0.0562620033733765
0.4742226748656009 0.14003027267102652 -0.1094495081623279
0.5091097556866231 0.201616248888854 -0.06042431835848561
0.4549952375960373 0.2373906727429187 0.03896524500117948
0.48740436070868043 0.19026576674171736 -0.0438618189742499
0.39724744881117147 0.18596226728885767 0.008442634150185313
0.4440008472270165 0.27111100386719045 0.06168788280673709
0.4005087596508474 0.20598708616888928 0.012540361040194625
1.048646929201297 0.26634826288093905 -0.049423472322018824
0.4723178819935896 0.20778468918238957 -0.012783405847315521
0.4435467935541624 0.18518275795251782 -0.07631732577580408
0.4955696220530399 0.21464078887400717 -0.030338914294077313
0.4601894698858757 0.24567513670152152 0.04650823753767952
0.6028835914284656 0.019219007382559994 5.094199423183454e-05
0.39407877997379614 0.23652699025723223 -0.00999735932757062
0.48213993948090206 0.19904029340499108 -0.052170211139269895
0.48151050784373695 0.18768317471551654 -0.060720997637588425
0.46439670043973535 0.1450556431093446 -0.039255129427758106
0.515747119231392 0.20770295093184643 -0.05008837995457327
0.55010942608763 0.23512248475158515 -0.1000652374329718
0.5231396114845666 0.18817093807359697 -0.07246343504932895
0.4662843759161177 0.21790515860931237 -0.00016215231099181437
0.4715130783668826 0.2508135986914226 0.0004969412451316657
0.5237667457845987 0.224479334680737 -0.025537630832076275
0.401999530223506 0.09813684062737593 -0.11374965894785305
0.3553265920592139 0.10994775165980286 -0.012295979505992705
0.47946943872810266 0.22468492424617637 -0.03728297054557572
0.4875685542174466 0.1921264087308998 -0.043279772236786584
0.4846086044851887 0.2090636222740585 -0.011351382939238874
0.47948059120948017 0.19102682129353354 -0.04392757407583758
0.6455044734548068 0.07656632640504313 -0.3110829346488657
0.51837144437917 0.22586692789404594 0.01415917815639034
0.4694163643526963 0.18044941763135114 -0.036054957315073466
0.5066734308618805 0.14256880628053636 -0.08133324200390746
0.5027814034023379 0.2792580871417698 0.03402386243641331
0.480375533896094 0.20583295239350718 -0.02197773831991867
0.43582592483477356 0.1719791282878873 -0.053963655493475926
0.5159798864717118 0.1462114837376589 -0.1843816095770876
0.508322644047567 0.17354706307746426 -0.09412166882179918
0.5288911054646945 0.1728420065397671 -0.09442411752260682
0.4631372933644542 0.1732841502755207 -0.020240084536652603
0.472301863251829 0.18090456659162157 -0.016967833423208845
0.5143515710697955 0.09590916477733913 -0.2002278404235227
0.4016459219564439 0.12449210843917058 -0.12219576886653272
0.48469638612090193 0.18873343033288847 -0.0708880199810551
0.5041661050295261 0.22401995456660018 -0.050385343879611355
0.4650891833486952 0.24719539036246374 0.016570242707601324
0.4687695030670511 0.17396842416151514 -0.04358830845973216
0.4688515599334977 0.12645483707595417 -0.02813321791177259
0.46571424964727726 0.18310434400164866 -0.03312253866894821
0.5592876956123973 0.20484952936473633 -0.09966016349207507
0.4685462789946939 0.15102544554558506 -0.09459567583232342
0.5322242382988804 0.05949573487720272 -0.16625540280264772
0.4564581592044732 0.18325171036021004 -0.031829805668166955
0.4187119429659134 0.26173318404477186 0.040645078652175926
0.5602716765746862 0.26601650377196506 0.04392616998551091
0.3827190497692783 0.11679238163627303 -0.17498304023686728
0.5445068560815969 0.23787692479842804 0.002133901089109713
0.5907723205426691 0.2522504640226373 -0.06528833289232239
0.4675063399367758 0.20987215010573834 -0.03395584720209399
0.4563744237394616 0.208269002300824 0.0705862156025745
0.45631264451239417 0.30154466823591974 -0.025765093810974804
0.47259011955797803 0.20316758849116923 -0.062167241016112484
0.48286530666820227 0.18834488297059693 -0.05816739003641658
0.4768287015457702 0.31473962845957715 0.19709805578179385
0.503696821530923 0.21090252013263466 -0.06898539941033732
0.4955111079772365 0.2072545716142713 0.011297296702835524
0.5196358560807397 0.18306631940686202 0.0038869055082102477
0.4082632029146964 0.17294707149514466 -0.02850449655626619
0.491674055121436 0.169024130063832 -0.052677013265963524
0.5193241722450352 0.24712898720882492 0.004555267978531674
0.5236036136258662 0.2531821923876407 0.03665378998317692
0.5447566839756064 0.2186066422744659 -0.02715112547234355
0.4803360286942251 0.19765893410453828 -0.038774186609146
0.4589846629392298 0.20621209050895573 -0.035503847280466516
0.4518928175391892 0.22313577773319082 0.055897183920038174
0.6102514455688492 0.21197341224579702 -0.0032976370458328574
0.4577423052153762 0.18076473110436098 -0.084980945563359
0.509754173518786 0.14982171388277266 -0.09094980177297884
0.5233140643475451 0.243180321816169 -0.0037174914899651412
0.4545802227946325 0.19123056468994548 -0.026494197226085703
0.6337962859611395 0.3257720254424328 -0.0984813022131732
0.46649315681042935 0.20214950973183932 -0.02445456054067563
0.51289480035922 0.13828747683828624 -0.09835453251966442
0.38893722829361366 0.30911031396763633 0.013266582215550216
0.46224805473086406 0.22531416705899687 -0.01723066054813671
0.45918927005362775 0.18928160070825584 -0.024488640950210083
0.47189587011617107 0.20677307853242155 0.001606517080034564
0.697416453650689 0.09306344648686604 -0.011493844893237792
0.5027012537809412 0.19534784613503575 -0.03036345157630649
0.5148882028460093 0.24298462564563295 -0.049542188706837464
0.37375865364418814 0.17015706755162796 0.08097089319154804
0.5033019495460849 0.2147016156003474 -0.0688525716223296
0.49165440435719177 0.12437865364424283 -0.07990855370013605
0.44720427014746633 0.17199788163071617 -0.10447270350015003
0.3514030366645926 0.16898524855794506 0.0036159554680352812
0.4877876108159711 0.20942612908471858 -0.016668368014322255
0.46647977276835206 0.21269199189903532 0.01702201022979466
0.49087781217404824 0.14460422854313038 -0.03324647171318418
0.5151451134372138 0.23902234224304664 -0.03857806550669807
0.4593184707813691 0.17780822416337116 -0.023603864499818883
0.4948701254250665 0.21736199826551683 -0.058114745192966666
0.48156062666656396 0.24052859648040226 -0.0838697844931886
0.5537684371718683 0.20353671931390238 -0.07391623301720074
0.3997594295990865 0.23539573944283632 0.055931938618527965
0.49780138970227483 0.1805040085133669 -0.06469048963691648
0.49276288505706134 0.2109967101311696 -0.04782604688173819
0.5231784924411613 0.232373866512944 -0.05055555760509378
0.4057637020509617 0.16324557488917435 -0.11613827654342401
0.4063759112441403 0.20227012909190023 -0.018567135680854108
-0.3560286018744847 0.34457795906450883 -0.31577345949585833
0.5218486915390059 0.17937484402813197 -0.08940086404297176
0.5244018180959813 0.18329862430299215 -0.029393327960377746
0.4072930138044768 0.2297639616332532 0.008415022264600225
0.48519586284969307 0.1961065360465568 -0.042899141586815404
0.48177822158160666 0.17672827770869048 -0.030040151003305482
0.5767092254385631 0.22783401489863309 -0.032188745017009524
0.4802471592791733 0.189364183672609 -0.0471213045176313
0.5333728645476441 0.20639113197104564 -0.04360697098240962
0.41353614696591023 0.20523744181505776 -0.032765043510721625
0.40921993716389693 0.11120252093036243 -0.0002574882197450279
0.5310917741556125 0.19580221096950368 -0.04537914595708514
0.4878757734038004 0.28560925447987984 -0.006399528785053121
0.4897446393886611 0.19939038355829553 -0.03550990045543756
0.552061993184239 0.2701400273869723 0.005071942447386846
0.4624396465367937 0.15755155387844866 -0.06288833899694168
0.47722678711001265 0.09692245262803567 -0.11519952749424078
0.5567939719178838 0.1392089645622292 -0.15165610227431614
0.472778245646424 0.17772938624833046 -0.09582261364568012
0.4838235175759422 0.07328159226918274 -0.20046495344247717
0.4374751402701378 0.1863816416916393 0.0695894844516971
0.4788342289345735 0.20781966464009827 -0.05712622018302227
0.5048275484105034 0.21787148921336552 -0.03691364821378329
0.40449001707304433 0.1906317489049485 -0.0034847904630908033
0.5296587102100148 0.2198953357459743 -0.0011331576619539874
0.5593341284619839 0.2035978617800538 -0.05953977152083212
0.49806521693381 0.22251904234474296 -0.04506735028019193
0.2083837893823528 0.33278493600960246 0.0720242216874567
0.5394979703012694 0.24053616428832925 -0.014756730515415484
0.49217029755273245 0.1981876009624841 0.015676317656925676
0.20095822457204804 -0.2786395735211471 0.1501170155392657
0.5348887003273148 0.22871888643693694 -0.07654913867676783
0.509930350762005 0.20991705602159527 -0.06600179269128148
0.4886769188753419 0.201535564314554 -0.020889570072711194
0.5183342530252304 0.18606687778458308 -0.11273576588556011
0.42054252140739834 0.1933835638386654 0.06813937088080024
0.45856316710467127 0.21925988151578224 0.03446715067738637
0.557250650816087 0.20780306128020243 -0.05883503209221885
0.4939361965230802 0.2768914231367603 -0.03749250169585139
0.4654778353576603 0.18212733519038693 -0.061276666824511494
0.5623210815642068 0.20545440490279532 -0.08437914374013644
0.5543449966055078 0.2024117526110274 -0.038511328072104334
0.5583019460221976 0.19929745303073787 -0.10302705952472024
0.38046279801264404 0.20052737676583376 -0.06506704581138933
0.462224527978762 0.1473129809512841 -0.08434614817392116
0.42493909159664156 0.23662996123366042 0.04059959459297602
0.49413750924098565 0.18397771432030652 -0.06959754520116235
0.541474522095271 0.20861066674743256 -0.03851894346334461
0.5675722000187307 0.1497213465810887 -0.10145982142697108
0.5516451159707856 0.06771789879446999 -0.04463449540401143
0.46921607358733297 0.2071383254783825 -0.06808661030089525
0.4982677562910567 0.17659550937136714 -0.1017169435898495
0.5332530114374379 0.16642701930808812 -0.06221287936543263
0.4769898494434557 0.20818943954800773 -0.04105783165461219
0.40526756688753096 0.15095977486221557 0.08416117355719166
0.5196436343041171 0.2377621135288166 -0.014945312671471811
0.48782964748890834 0.19754006953073144 -0.04172006238545123
0.4474924610922244 0.1794649686775216 -0.008813676418483851
0.442953646951608 0.1609781375406385 -0.062003254055639445
0.4539023038395129 0.17529224750417427 -0.075503191238397
0.4818096928722184 0.18194984412021142 -0.038204857085375465
0.5330010772052418 0.17299853402928989 -0.02606986959787605
0.44904601349881546 0.17245285120441167 0.008424065730295638
0.4688814822869176 0.22462150121985758 -0.001209273656854748
0.4909502604498215 0.2252002107611446 0.005339283524733673
0.464027338943211 0.20200837159667628 -0.02378300169291947
0.4855668844421217 0.07141078398325362 -0.09769380569818509
0.5642737778756981 0.2330603324818128 0.04710177622204981
0.46471926676186115 0.16325308419858686 -0.11057143726024776
0.4307197565602081 0.26506600590256824 0.02104744800887204
0.6969178031589109 0.2585560365884447 0.019280665447354295
0.5326122305462491 0.2809173132037017 -0.3471154768434985
0.38101332919815434 0.19234021471811502 -0.038166574613342164
0.5392097916435006 0.17958091578243796 -0.06624359676553127
0.49328421435785685 0.20712591653365564 -0.007221381009230754
0.49110547552587036 0.18674157533077107 -0.05296947618626291
0.45724842984381553 0.1574991329330686 -0.039497226304632704
0.55867257884141 0.21851110238654314 -0.05088503983390069
0.5196480945395763 0.182333052346479 -0.07004954957076848
0.46464083491663644 0.17225449159695927 -0.1030578314008892
0.40252482682345203 0.268345045129621 0.07408983345322895
0.44539399885098874 0.13768267157487912 -0.05333865774233004
2.538403802962293 0.4553103678899362 -0.3503459183890527
0.40257263505044705 0.12063177226590938 -0.04527212055060659
0.5073217263283283 0.24701553611834015 0.040187546722862066
0.5101153140950743 0.12546026227636276 -0.1675207092114448
0.507355252629111 0.23977960540669585 -0.01819500264970486
0.5173962450153198 0.2221098966092967 -0.01753024926918556
0.41645078407053404 0.14080634078564458 -0.13564084471238402
0.514835696414707 0.15287591864415617 -0.060970560964136666
0.5032533937059753 0.1549619037939749 -0.054541443340667684
0.4905743468418109 0.18184705630162057 -0.06539557005473284
0.5016188104128361 0.2113797972018574 -0.06622055583552822
0.45718190750392296 0.22476280483081723 -0.044693208265130124
0.48219475707962545 0.17999977122650535 -0.0564971489460504
0.5362624400069222 0.23366571011800374 0.032689920725005095
0.5461664931163028 0.2234471277194814 0.01679322735233768
0.48787872425981504 0.18374577564557626 -0.08340726717324287
0.38703676762544603 0.24290568386143718 0.13591029305698044
0.4899814519104666 0.1863950088157651 -0.04350742267031649
0.43073094039559123 0.12867565778391565 -0.07732116982147375
0.5296481203661756 0.34928081817983525 0.3921569699331542
0.5120287205182024 0.1868987810799041 -0.058606826121149425
0.4627097799684208 0.1742056351513952 -0.06358224884085928
0.4426941410881966 0.17456127354498108 -0.05657573905092761
0.49979671636484113 0.15516200341315312 -0.028553212065219213
0.49434335672079044 0.23922160711695994 0.007831400996479942
0.47062244233261197 0.17444875760239142 -0.07573797910609414
0.5274066625325418 0.2615744253007932 -0.08826312863615726
0.5438582912065897 0.1899766842179531 -0.042966244482755656
0.15540729668094855 0.10140507948958088 -0.6272067017958278
0.4816402143101044 0.1669091517642869 -0.08178829027744428
0.401344654153192 0.13127350100413082 -0.09434641670819133
0.47379235315557366 0.23237783570151294 -0.0160399582299533
0.3746274399009337 0.19898115532424754 0.005237201072617381
0.516202593650462 0.1788462958945729 -0.11093319328722373
0.47531359658260897 0.21628469530976702 -0.0009352608202988222
0.5171773562919526 0.22595598942315576 -0.021253334417963288
0.48113107992327286 0.1941332940044731 -0.020370522382364697
0.5205180557969271 0.19859006095418863 -0.07583317799407041
0.4916802096538504 0.236679014435623 -0.08489475338262764
0.515417867023686 0.20713945482219742 -0.031284055840671954
0.4351197428590581 0.20253361091469912 -0.03556265398930236
0.5055214363681699 0.1374911456544936 -0.17960847239615418
0.5219768274681655 0.24935308609792628 -0.008284183605638873
0.45249380813147866 0.27046141784512656 0.06794445429380858
0.43569225776938936 0.18295167194463602 -0.009761759835257067
0.5388396308091643 0.2603339260527946 -0.017209365008454824
0.5138533036458739 0.14148338158690876 -0.09658611540999118
0.5360357079971578 0.1567431235707204 -0.1081652978726595
0.4711717625196883 0.184522709788979 -0.04936517838862642
0.4515266527441639 0.24529260326687563 0.05119379049931183
0.48022547547745376 0.23950312155909614 0.0019145792787469418
0.42821991480829524 0.19665061213200374 -0.0017760380957838606
0.4538224538307247 0.18798331371985455 0.010921765074641598
0.4385186957507301 0.17440931142594707 -0.03625211172928289
0.3994461513915013 0.1364263045912537 -0.07922490835136387
0.49550676376932756 0.19216746169536236 -0.0650939731736031
0.46124600006316996 0.22556140888292475 0.01989883833005024
0.4144184357120082 0.22372679632672998 0.01455453297850795
0.4634320360526516 0.1660538694265199 -0.1277482053324661
0.5291467442757494 0.2318231317410664 -0.015183612903797439
0.4477520458765696 0.2169488402068538 0.024013005828649625
0.4487231741074851 0.15846929513648433 -0.09922771067219571
0.522706386918415 0.14199413016407902 -0.005572918796900694
0.6445068110350718 0.16596332307804573 0.09496691185968587
0.4475641475580261 0.16658515982658173 0.08141082163916735
0.5101903002395574 0.17716005155830317 -0.20231904526676203
0.5028097018164175 0.17886475791887335 -0.06666461121263012
0.4627758537790072 0.21546847457324247 0.08344850786191671
0.5647322504203345 0.2580581952593519 -0.009682083152512178
0.4845399114941813 0.1942949225469306 -0.001353336115187176
0.4775079648851204 0.18811818655228763 -0.05227729633902811
0.44285729863862855 0.2239915132187491 0.020081656161934802
0.5567223789732054 0.21792787301946248 -0.04948849794226362
0.6451940871026665 0.22548574210870242 -0.08948735428823795
0.4782246858819974 0.16030176272350616 -0.04664079874481786
0.35735689122590486 0.14434654804043134 -0.06377095409325761
0.4304073370019097 0.1750145242457961 -0.00797272108296454
0.4884743039626471 0.28868220424004676 0.04019231995386008
0.49710905025740715 0.20654021980509185 -0.018574027921303582
0.45920443292352786 0.2038764955794079 -0.01199931531475329
0.5518510227961713 0.19201222285596486 -0.09302851596200412
0.4449612085677188 0.15814449965354527 0.032815232993584686
0.6044220669964488 0.4002814886118813 -0.014525648481225062
0.4910896571268921 0.1927288597477741 -0.11625719447386018
0.4928984611234739 0.1985189783444099 -0.052066450867314984
0.41260639075331085 0.13235795837771036 -0.016559972076464646
0.4928681308005025 0.1812160085547987 -0.07788045583083658
0.46184773091459874 0.21103257941231846 -0.04072534771671599
0.5485613276225507 0.19675121983954114 -0.036945904083609094
0.4743304183042767 0.21899059633730644 0.04705770637133355
0.4119822729782072 0.20390034095038345 -0.04280651406830316
0.4693907600773741 0.173687482461375 -0.022465728182652356
0.46886483334841955 0.18719319606199747 0.0036471517630047856
0.840566826970516 -0.02583096348524805 0.3501443439622278
0.5123869568299 0.20353856564240402 -0.015131155033358823
0.38902938802389997 0.1612318046148573 -0.0355606497658556
0.38523752974448655 0.21462037608728224 0.007553591704123619
0.4763995467977509 0.20419376154220004 -0.06690473167287792
0.44139340345972755 0.15936865541570455 -0.07433710428057339
0.47652799539312696 0.20480006664058692 -0.02172277782369747
0.8167827517906261 0.19280452381532598 -0.12485646690926444
0.5340964672923718 0.13567184306938884 -0.14995729985515993
0.4709340692695747 0.22471858393707578 -0.026483056257859516
0.37211293858332795 0.14157741036876814 -0.05068906217857716
0.5105682933335913 0.1640302566013645 -0.07823135372922252
0.47742383681814715 0.24316856530876407 0.033537238518931645
0.4653985040853996 0.15744990302263773 -0.051128058506250795
0.4954683889172884 0.22981393947463857 -0.0034679865835585133
0.395906390715993 0.18013006815930055 0.016506697935597003
0.48898353770250935 0.20367539938879986 -0.032546566201858695
0.26342904097298003 0.10130430323269479 -0.5212029918397434
0.4996613368026459 0.191155906431959 -0.07556240788832724
0.4605102076128986 0.2223809132574246 0.046641254826312206
0.5800423503983723 0.170261397350842 -0.1404773970055544
0.3979979011839134 0.17678082649777593 0.02939262020363742
0.5148667545555696 0.17628672337443163 -0.09196852377783671
0.5223066655192525 0.19842276837911754 -0.08964729368676672
0.3300837830157093 0.13706235218791107 -0.08570889062593778
0.4398641566854451 0.1999214418008819 -0.013789050185650353
0.5196641049377178 0.20623225791914024 -0.05733746473512724
0.44469182445033084 0.2110729428523257 0.010734787896296893
0.39685016147157626 0.14620053105596753 -0.002077463915327371
0.4651240513713617 0.24326435119760959 -0.05554144187156851
0.5342685486342873 0.21721372374179282 -0.054538047614855145
0.5637129852671734 0.1891012537933534 -0.06344526168180664
-0.27977538093156795 -0.09394174068592065 -0.3765642525969497
0.5652502055733066 0.29684568479795814 -0.08039432256796886
0.451310701722349 0.21906717551448196 0.04449129176879296
0.5460978097199103 0.2652383540874155 -0.008083272853696144
0.45321302422307497 0.13573551169693587 0.01081337020252704
0.48636933512912606 0.20126945302166632 -0.05015010316452617
0.49823406112479063 0.14704979851505584 -0.14210741141653216
0.5227809472751375 0.22689710065898794 -0.015263867607629322
0.492181104254243 0.21153373697863742 -0.0358828653364327
0.45265498630708123 0.2763386768252474 0.010571109689124114
0.5201711622112128 0.1961781439202923 -0.04200869691463538
0.4330233242011019 0.17017054727540426 0.1391111677490926
0.5031297117611899 0.19737860983974542 -0.06177016718990558
0.4681621157437377 0.2899149907065066 0.13144771952318024
0.48649686548151294 0.10155628804349703 -0.12610530093213868
0.436256983375614 0.24034814625468925 0.05271358275378191
0.533394673881034 0.2604124473263312 0.03652344387063522
0.5481645785018827 0.2293577906743849 0.0667655786845387
0.5010890840813857 0.26904496711365766 0.06368893512573948
0.44653517674001364 0.15802241410989382 -0.0594210893453635
0.501027864895633 0.2614908651456176 0.039307655641465544
0.4906481523697721 0.2380489505888761 -0.08912371241099493
0.5303987812020097 0.12618883408080706 -0.15309858594730485
0.43822025990128566 0.13061339530884197 -0.11081089397461596
0.5255650836096493 0.2144991505492726 0.0035973786033309807
0.402041384638423 0.2701003783741385 0.044322266509027486
0.46428764758773866 0.16705326735566928 0.010459355509212287
0.49286166485474325 0.1514739626940127 -0.11562391645648518
0.47355622128688424 0.18780684055590768 -0.015088078212016853
0.5465208965164265 0.2121054434133498 0.03127863007378551
0.4765391926877527 0.2145461371765407 0.04746607421007809
0.4057574971819946 0.14810671881267012 -0.04618795089169225
0.5203728368607301 0.19914771986989876 -0.0485722252001608
0.45613068695166703 0.16287951304462922 -0.0692356093558999
0.45201971789521167 0.22767403749142545 -0.0252067051578706
0.4704904548242439 0.12088727255274989 -0.11379252820131569
0.40929028954907665 0.21809909286282902 0.04680843583118133
0.44456837957189066 0.14078749852255612 -0.09008655478106675
0.40536249309607797 0.13597561322340823 -0.039252931366860366
0.43828757475326086 0.15082568953738473 -0.07611790192225953
0.9081027892186597 0.12832588508618414 -0.2672158383069245
0.39366404592620086 0.20230840695640495 0.020968388258040704
0.49253194437609693 0.189285666658094 -0.007541456590971052
0.4718950098694421 0.22539712533964007 0.062280072245116
0.49525753581092147 0.21106350367756477 -0.0067032397382718045
0.4203548528997345 0.18202800020006293 -0.10329556375583593
0.4299327522155636 0.15089951710511684 -0.07673448925861237
0.5386738204774559 0.1715642919326541 -0.16552917650599852
0.518909017172021 0.24204842276026284 -0.16438207636244329
0.49737834883541154 0.18416231780096837 -0.057286135790164394
0.4398195025073761 -0.041955850856709276 -0.13782526290592045
0.4413649398380528 0.20393041738049078 -0.050173469127017256
0.5092809550213246 0.21863351330804903 -0.06493326860967841
0.4219847130557923 0.21113688929438013 -0.010751125340732415
0.5397040929824755 0.1822086237583136 -0.06536993321188334
0.39540846792594664 0.26516896016424596 0.0767122357143677
0.4252252303335098 0.15854277864431765 -0.08649367228068172
0.5090246748145688 0.2264512575843014 -0.026332339598610588
0.4496094334964482 0.24583714503843623 0.019069767338805832
0.4804104270331635 0.2186124275003749 -0.024314653988113832
0.4002280428962308 0.17790764496410816 -0.009351887310998563
0.486607045724341 0.19944221328151457 -0.04686538701706411
0.5041424018144909 0.18336043208509523 -0.03716729124781182
0.5080833791482462 0.22304440547321747 -0.02039438580715114
0.4856991527401959 0.20656710321384253 -0.029783703983383703
0.38334175211390686 0.10760506108780987 -0.045258725431182256
0.48175035944669276 0.23773592434568513 0.025480829159448604
0.49222499009856335 0.2386390381583965 0.013086945405461847
0.5005679569842414 0.21796516998102788 -0.01213561882636327
0.5079720118341697 0.21531510347048766 -0.05480947760645449
0.5114825671600585 0.18864122613621248 -0.035542955316913094
0.503114714265493 0.2073888758696114 -0.05709242279097282
0.38699030205539486 0.2007301124410361 -0.046116874486074266
0.39952262481490664 0.14679622585063612 -0.023164662825479354
0.4990672638576683 0.1641028085987557 -0.06293693930453514
0.2763991550951346 0.1828853149158931 -0.045083515116161266
0.5097901014048318 0.24422414885036403 -0.01843701351964455
0.49858679065874867 0.09680008877269586 -0.1391027849025761
0.532581782739669 0.16865893641269736 -0.09915357837601846
0.5051473655238823 0.14074176190574406 0.06286889127298423
0.51105534188153 0.18262473003227342 -0.028856017783411403
0.4126082197785763 0.09016771564333226 -0.056817682153166515
0.4550354349368888 0.5100902629407784 -0.39018883684369143
0.47898038772561335 0.21240621255147119 -0.0163508077176715
0.4759652964292229 0.1663205495226805 -0.013921828526747504
0.37266108836118406 0.16244566900172686 -0.06012530121972759
0.45250676591176386 0.14718333144600138 -0.07247652439292551
0.543679331908578 0.2707618683591875 -0.00863868798585088
0.5120415818364279 0.1984358633218335 -0.04364001869956269
0.6628156044211693 -0.0647263486227132 -0.1544297070200571
0.5131285458902681 0.1613993558234057 -0.06557243425427828
0.5223556113866721 0.1965706770711222 -0.015881892805126085
0.5528105319107368 0.1968988974340391 -0.04000768944382571
0.5245834551396484 0.1786513707070867 -0.06568340369378234
0.5469562683323659 0.1820145899688157 -0.022626831814022808
0.5084894361699099 0.20501949576377854 -0.07582065317870956
0.43963586246071884 0.11476535533634546 -0.16849325767732637
0.5091661114372528 0.11090836943071736 -0.07591578363940243
0.5525181511280124 0.2531723494359426 -0.040365507111218335
0.49380017575786894 0.2135209914232803 -0.03173633565930345
0.49355239602148515 0.19512009605757896 -0.04480226564206191
0.4870245222681433 0.18593296228021927 -0.03362547157402673
0.4988388961238428 0.19323283278096426 -0.05580198366796196
0.42041752082106143 0.16193209698505484 0.08542267895813893
0.4873982246563031 0.18557750341777535 -0.0542954215318332
0.5268290255088743 0.2520292863080442 -0.03318474468932209
0.46239452931612846 0.20988719699643354 -0.027925309995794123
0.46557921283388737 0.15549372364694136 -0.1437747992280265
0.45169605911431177 0.19149409464903044 -0.042810181838746075
0.45578744476459576 0.20793535023413767 0.008453701494602228
1.0470392728303892 -0.07992825503846746 0.34288387594389746
0.46711725616614785 0.20533261977894313 0.013928113430949907
0.4374424033851767 0.16810677145808484 -0.02709001208341988
0.4922404733949719 0.11757679523665843 -0.038043365321371425
0.48030708820895995 0.165611736857457 -0.07069319845462019
0.5462640667789316 0.1755506992304845 -0.03510149115504646
0.5077619597073237 0.18806182020348672 -0.08009921524111974
0.497206457444463 0.20005359382771815 -0.03815455929029099
0.4412620143090038 0.1715033152847525 -0.029472666334513065
0.48504399093953054 0.17841125599984764 -0.030925005700964903
0.5055188512853448 0.18190559230069425 -0.0854831042032913
0.49842406121548777 0.23242106627199632 -0.06787207960584851
0.5586587948449733 0.2509056186905809 -0.019507988544361865
0.39725763210159926 0.20957647140322422 0.023667058509772687
0.5351999434711558 0.2226313780305702 -0.06585797517595893
0.5200896094260798 0.14899048495348666 -0.058221727399228485
0.49453998255926024 0.19761378349528513 -0.04531158994377904
0.5108523684554171 0.24659404089439363 -0.0009806842027728635
0.4943112078767342 0.21324750478240162 -0.006090302506464695
0.4806986750175781 0.17677361707239925 -0.05998097897642651
0.6023405274039959 0.285643627569641 -0.09501833932209536
0.43312445642830255 0.22441369388786825 0.02708967975851806
0.576321289108833 0.1533679695623107 -0.10620887404041923
0.4054179069531756 0.1766311601133168 0.010594523433738345
0.5167153801547499 0.15678507331418245 -0.11080730246828807
0.4071894313455431 0.13185434543265728 0.05576892707240688
0.5452607289110176 0.1381519479640616 -0.1406681901672613
0.5303570393111414 0.22035557931857852 0.06564243347995102
0.5632567940953805 0.26170010164076984 -0.07695106479243918
0.4535128995633215 0.2250285491643922 -0.029424640849640582
0.49505649466027535 0.20047623563328898 -0.030023904064321982
0.4744326559775658 0.1099996037430202 -0.14524093468338606
0.5016676783732237 0.23304698795003276 -0.06692571524638424
0.4636814563736493 0.20281310878954173 -0.05705218172298032
0.5079082235082666 0.1891161562534336 -0.044796868064111095
0.44162943869910976 0.2081387538133015 0.06797917392758279
0.4725321075724196 0.1857742497228827 -0.03236012582692638
0.5138779831971618 0.16682345724481706 -0.02392665556233453
0.533881344893743 0.12542290734714356 -0.13724465529624297
0.542204616924721 0.1134598290814921 -0.13683170244982534
0.50763125354149 0.21778185474670408 -0.035579698280258754
0.414890069143695 0.21568543336076118 0.053471059731634796
0.5708259116923244 0.22675752898388168 0.005527339158476252
0.5756415726712447 0.27337985282937893 -0.06441434126392664
0.5205099993247444 0.19703507166624945 -0.06006688910201774
0.4286156871691986 0.1931272916000637 -0.05378962455311864
0.547073155643659 0.11990025012599403 -0.03984049032860071
0.49865369385690883 0.213184961103849 -0.018355133005556468
0.5172857114246341 0.18369373609871786 -0.051734126222996224
0.49016289089988163 0.1775142646128245 -0.05530399072029013
0.43512516743669494 0.20301559997741947 -0.05699885245569192
0.42099007491528084 0.21988989240819024 0.13498018690791014
0.4489991332740857 0.18151980093068687 -0.051855274941473795
0.5005636145663317 0.1765987295528646 -0.06597826177949173
0.28729036207853653 0.17387027050293113 -0.12235895595760837
0.5088033717620704 0.20077962786271542 -0.011384560592617277
0.48409500232216374 0.1735530334619284 -0.0784391263587878
0.46724822918679365 0.2425872370033062 0.024239877515199737
0.5383739262211549 0.23715171003848923 -0.02308896046228881
0.481981164423118 0.19438185848167677 -0.025938855116834247
0.46545968693583006 0.2627352606573794 -0.0011275419011553822
0.46644338243176264 0.20551735865322485 0.011737164766259411
0.5145323077213106 0.183925422986988 -0.06499423449417918
0.5267328589670512 0.2099688601365841 -0.0023884073276860818
0.4096192753613792 0.17962248610702147 0.02337478335725507
0.48216936401858845 0.26485677383845996 0.04182076462103623
0.46365366120342344 0.20925029915056825 -0.01243219732992884
0.6020099881357055 0.28461483469951077 -0.044732764748616205
0.5138787606436495 0.2312391413083219 -0.0925829849471711
0.501343649956894 0.19510747803623474 -0.03870137369116833
0.6481885024407177 0.28381184552850414 -0.010256093479299011
0.4687154641929112 0.1890057910153331 -0.04222059058568561
0.49656783613568223 0.25806226429924095 0.0482017992045769
0.45105469763993256 0.20310845693838075 -0.026728405446434067
0.5403788216207772 0.17230057787466535 -0.09237581679336415
0.5043954204417957 0.3071593774703132 0.10296281649956995
0.4814011454047744 0.1802184270690219 -0.06668047224641782
0.4920201831457547 0.07186971855939817 -0.09115304672130264
0.4772395694520526 0.17471196739970196 -0.07320766110618138
0.4460609621860101 0.16798321491961588 -0.09323693988437753
0.5231472591466257 0.22789562659815488 -0.044109679338390606
0.6945183835213413 0.30616034474189746 0.09446303871575878
0.4813943799751286 0.1875904247762037 -0.056971183849839235
0.42365052297067507 0.22136051734067053 -0.013275420709817354
0.4896993816421684 0.202209528398555 0.029160585766234703
0.4899276111523534 0.08346993641575295 -0.04671402625891119
0.556148594970395 0.21791297916286112 -0.011540015337217824
0.4856335408353658 0.2237890863914913 -0.0345890974832912
0.43998513982315046 0.17916226651728095 -0.001263458272603657
0.49837645621387594 0.1786914332630687 -0.0651446675657752
0.29520165227495454 0.20895671728673904 -0.1578580020161553
0.4981030921975389 0.1853722473384778 -0.0620521518978876
0.5176125486955669 0.1607750642207293 -0.11430388779905343
0.48174069833751787 0.18584250305673322 -0.06577892326333767
0.5352599891668177 0.22396181582760732 0.033598117275431605
0.5256941453942545 0.2307351421256243 -0.03845887133515191
0.5395119708691851 0.19032809106880677 -0.08338181088112151
0.45578668759246455 0.19097043989236795 -0.07195245411628548
0.5268485665682192 0.1638372447614671 -0.06636054688473791
0.47606010356173556 0.22024071383067678 -0.017736297536032453
0.49554033088415395 0.2087569224516983 -0.04400412631882489
0.4356000516937115 0.23658358518713385 0.043884380236761444
0.4610061592440502 0.1353732239351615 -0.11068290450108975
0.5218182387708623 0.17819471911352025 -0.055421286294887295
0.4791050883706873 0.18562187048866008 0.034523152217019515
0.553304582298324 0.258168212345538 -0.021796740394563585
0.44234126094639237 0.193051418208114 -0.031202810867100084
0.5066650206649967 0.17883124960656005 -0.028392917521273375
0.4145458351858622 0.1794527336815861 -0.07019618208809675
0.48266557509664665 0.22202306445973363 0.058602770076532806
0.5612601557785126 0.24401085693227742 -0.014565941285255235
0.3951813789961989 0.14159137957798862 -0.04435398745897601
0.5318654685293609 0.2777352222217644 0.010787752689225272
0.47808769411639673 0.18264951253803474 -0.06777481539249663
0.48810158345055754 0.19514879530265716 -0.0716956693157158
-0.15113963790383877 -1.0513234671352052 -6.482699834461727
0.48692050698572586 0.2201749611670749 0.06459312303863385
0.4819926199425879 0.2000322787441462 -0.08620254476369382
0.486940326949437 0.17705292620445334 -0.058732595971775936
0.48987297808339747 0.2036628602828472 -0.04333548706080137
0.4737480227728952 0.19640721712960385 -0.024302193321489085
0.43452985981309666 0.1469602081014898 -0.01438153712035728
0.4850439618159186 0.2054633704069886 0.031304944997756934
0.46689896709762024 0.207421614204236 -0.017121310998305717
0.5716676130481062 0.29065011434724397 -0.18332110215132502
0.466794046650449 0.23337087576265958 0.0010420306334850693
0.5131103815476763 0.1587134289149219 -0.04116547241915214
0.4136280850321157 0.18906184131436987 -0.014527220094677773
0.4906909112314679 0.2070118908088432 -0.03816654911912565
0.47421709420052593 0.20175964256438306 -0.022889720593553875
0.484443614930143 0.2010584395279409 -0.02570380029305852
0.4539049961965844 0.20487904507959342 -0.02033619057444014
0.3536932939818769 0.19497955584446913 0.14229917259800118
0.5790584275737842 0.2747963764747965 0.02722760384671119
0.4793564946421469 0.213307391339157 -0.009251446329272994
0.4618775436673985 0.23171964204456685 0.10949503298618879
0.40681981695648517 0.11152550826206209 -0.06164889482560909
0.4246008817628706 0.0853614263615583 -0.1335782887290975
0.5124531985927376 0.22695256846451173 -0.03280110165476913
0.5073326256655122 0.22406724767611763 -0.01870841426385539
0.4988460585161505 0.22446007081285302 0.02556488697538839
0.503094415584215 0.19008450945298705 -0.08016653003591045
0.6019209750729999 0.3199733475166511 0.009583848168091436
0.42082591965608174 0.11322886182868785 -0.059314826506394525
0.4842566298365938 0.19244608164977706 -0.04005891209345691
0.46446353315000977 0.1903412605584549 -0.07382726431424658
0.5015171841059498 0.2108449311665197 -0.0006920920052948532
0.49214526660713886 0.21074143893316943 -0.05238109861809903
0.4876498585412321 0.19522591806899925 -0.03766656918023159
0.5350642302564097 0.2473827901820016 0.002365111664687447
0.4908791040824383 0.2191629167277398 0.018280254701977583
0.5106218909231472 0.2294298353117199 -0.021007558112103197
0.4365362671355797 0.21505505905193445 0.026179086999974288
0.4916991055722235 0.20949402101044257 -0.026096679851050908
0.735367571936635 0.12458940139603669 -0.016976324788075203
0.5308060868648568 0.22361759033697126 -0.08141389440399394
0.4495654489728764 0.13847897689922206 -0.06823614761685803
0.49603282398369686 0.22380485051955645 0.0005453327122353357
0.40314645876797783 0.17957134996979107 0.04703420224043953
0.48976874141614246 0.20777362015024892 -0.053865895552903
0.4333622223577862 0.25588579545132006 0.01688621564579762
0.3816056199598421 0.19021492616121805 0.005090375057463348
0.4631775779054408 0.20669127209424687 0.0043123110952194565
0.4345360122857045 0.20933922744642075 0.014422111237763602
0.4788989071553118 0.28042076697295215 -0.026363679994531708
0.4394416693977945 0.16925271888362659 -0.03361401633659966
0.5119035898389939 0.1565868342920851 -0.07428031900874998
0.550113101543559 0.21251303316269343 -0.04247210613129937
0.45213343278301465 0.1859004039468175 -0.06658657592865325
0.4869864287548893 0.19758743535504664 -0.03219739548788425
0.47886525285190373 0.18664908495912869 -0.05325317239919514
0.5079355835612915 0.19884278892749307 -0.04217397821471991
0.4589566374122853 0.17091431641514987 -0.06990554427980555
0.48914458788206616 0.19352248923743787 -0.0635757358955118
0.4556849862228063 0.18191309923982146 -0.06177106555747969
