# .PCD v0.7 - Point Cloud Data file format
VERSION .7
FIELDS x y z
SIZE 4 4 4 
TYPE F F F 
COUNT 1 1 1 
WIDTH 798
HEIGHT 1 
VIEWPOINT 0 0 0 1 0 0 0 
POINTS 798
DATA ascii 
0.5183920432262852 0.18788763390503505 -0.050719257261093276
0.44879755025078794 0.19251960469449614 -0.00222354461899954
0.5192662533093113 0.17610086812851478 -0.06128372452832309
0.41901970646590314 0.1554236386356962 0.0053273033317537966
0.46378633117203094 0.2157249079842245 -0.1523315382036401
0.5649542132469492 0.21493081884759135 -0.013268698849159932
0.4534827450743535 0.2102560771191122 -0.0250164368663377
0.5478287455247681 0.1811606535415251 -0.13179619965167433
0.5504428921166351 0.1964127795870354 -0.08821440103477585
0.564443672008963 0.2249914279588836 -0.04402795152768135
0.5211634949415469 0.26852496502604595 -0.09708095688068852
0.4815739608117724 0.16422930233110833 -0.06164465898594074
0.45419836809665526 0.22699562668246642 -0.0025707554559772916
0.44328561084297746 0.25201915117135343 0.04225754027422113
0.40200922539432327 0.11012544612944453 -0.08155272255756074
0.4571363830674642 0.20944044483618995 0.010655876748245419
0.47260779441313616 0.19005572576084262 -0.03972901603603418
0.5470456377508128 0.22575658808949584 -0.03676907492344128
0.4170022244404237 0.1470100824465419 -0.07392284744473443
0.36956663831399794 0.1782989733667506 -0.1657500724617762
0.47094266036528154 0.25126325369545555 -0.16913370442046016
0.44848029757514496 0.13812859143065737 -0.09727444812756403
0.4286371594330518 0.19086046178354366 -0.02731457637503354
0.4988708016375938 0.19527586976631994 -0.06672903715093526
0.5068921608230283 0.2178745016953627 -0.014325412712466346
0.4928862347191796 0.20586076542859644 -0.022401660724852945
0.5070440533675651 0.2069257855808928 0.05210255442349876
0.6056074304474208 0.1890770499905443 -0.059525100078161586
0.4499614286266933 0.2043587467149166 -0.021797442174886328
0.4994071020209674 0.18796911774470004 -0.020551543139276873
0.4692559870652673 0.09530794295038447 -0.1779428589453289
0.4982223840238049 0.2013386887219326 -0.023500548695409407
0.5189598091562004 0.23581138254888856 0.014241343422128239
0.4733507025096344 0.22312118419421267 -0.022729269217009573
0.39792037334638053 -0.008039127470723884 0.2763217545303007
0.5273030513646262 0.2007007745154823 0.06525840980454234
0.49088844876978044 0.1697985662328989 -0.02605213694604913
0.4946823761433592 0.18876620361368168 -0.0731531462276962
0.4485666579495131 0.1580890764151377 -0.06480229911670676
0.5350791701526703 0.17735353812031462 -0.088780799171019
0.4737794722055497 0.2255714250594565 -0.04979412342763112
0.4951068061504742 0.21927989633967115 -0.036672485128121934
0.5686754938998888 0.18119501437982422 -0.09344865615773301
0.4768355316733164 0.19941736645463948 -0.03125253100314751
0.47605553904462283 0.1774882013150716 -0.06296832572715516
0.48567343117936446 0.2299587955388347 -0.003825267909178365
0.3842795100455163 0.23119924799560465 0.04706983179644908
0.3667967410634816 0.1960793548373374 -0.03417556367180907
0.4769207774485409 0.17502580900122666 -0.05332674455610231
0.4889719034792819 0.19880082721198278 -0.06860736824276614
0.5269415003179461 0.1730337564220008 -0.09798440920560836
0.4675235201822119 0.21394644380067973 0.002234979674369697
0.6095456500331267 0.17996594360135987 -0.06859670061092515
0.5593023130369801 0.23378408925916006 0.0019343502617772401
0.45517337899859456 0.22834964648281186 -0.00230877081233416
0.4741509715251482 0.2678219948461589 0.12508157640368722
0.4909999059141654 0.15242289742543846 -0.07633530436785918
0.45621226522514746 0.24064259427889567 0.06408960979672429
0.4632483345825591 0.20648418800976742 0.011618618550727433
0.481764808067382 0.2941032235573289 0.052641430788071375
0.5001433499311503 0.2174595403122339 -0.03642744658232289
0.451863113139936 0.19643811558070468 -0.03103016023641203
0.4472728309913947 0.19525861628378038 -0.09019214216543503
0.5426465909261111 0.22984335257679334 0.07075627807394369
0.42059986056609944 0.183327350852295 -0.03748496629195586
0.4967422996325155 0.18593625671962855 -0.08054017101407851
0.48242693138622883 0.22994266782134787 0.11350460905896398
0.4791695473008133 0.18215429023780416 -0.04990879385817948
0.4926638297222752 0.19250456707368357 -0.03114509869621429
0.493941730228741 0.20599733693441635 -0.029342856726202626
0.5077385434063899 0.23631596926674092 0.0005929289699651008
0.4633054461589836 0.2242659336822328 0.03139953022029829
0.49416996976925986 0.19449796257435992 -0.03562203028312183
0.5430895239188374 0.24634248393849134 0.02312693489307094
0.494042840419624 0.17217867590029812 -0.09107141722216738
0.4849343212713677 0.16998061766629746 -0.0635662371730632
0.42316647421564824 0.11337745678795841 -0.11792874244436291
0.5861927726180909 0.26313030638539203 -0.03053782087644663
0.5129131991465954 0.2636365928015323 0.09142984450099334
0.5278791809685117 0.1963877177743143 -0.06180177054331182
0.4290520225177943 0.23954918580142248 -0.005837108193276208
0.5220681413071446 0.21746325890021012 -0.015947615967760953
0.49034873379946475 0.2179751452281664 -0.01865651950662084
0.5404448583547179 0.1602874043011866 -0.09380280757886794
0.5261516709672946 0.22101782706609185 -0.006328391628784402
0.4424450964232136 0.2422088048227522 0.04835833368645126
0.5335195605084806 0.2504823418388753 -0.008941933104068767
0.4508410933616318 0.18064713322155512 -0.06167993346494427
0.5347526167401355 0.16730211295896424 -0.0865451547625753
0.4955436280627765 0.11103348545057656 -0.09450832382239582
0.5412637331087211 0.2658228970266663 -0.01603146944532341
0.4334841244813532 0.1547685270907948 -0.06209707565480471
0.45931228178577044 0.11979118196238403 -0.13672414144927814
0.5161345999291314 0.22189390629691275 -0.03705710535570006
0.5263537135201943 0.2439143760181821 -0.0006971474050061488
0.5239597497569832 0.21223078181233745 -0.089896030362425
0.41206056277874836 0.26282620091815545 0.0931949929837117
0.48792036092875435 0.20498829005143193 -0.019390340083532465
0.502421928863555 0.2596352052320583 0.043868529936020195
0.45527616456308806 0.2062907798059257 0.05180998603805165
0.4682173081578469 0.1852684586379496 -0.013051162646675607
0.4777821315795876 0.2113775392018482 -0.030321088435329102
0.487815923339582 0.20020274658025983 -0.008531156242980842
0.4467293690950527 0.23170495302713334 -0.014192430097949682
0.5643837428486762 0.24107953752607614 0.0433044800102067
0.5016074362616223 0.189322211781203 -0.07922256680924988
0.5802575036016151 0.23474044479642941 -0.004015816791792304
0.48333055274760284 0.16808709463472837 -0.07316450319487444
0.47636914147850007 0.26593820268143986 0.1487558906040931
0.49256195066702446 0.19657170734721774 -0.0426620800961075
0.5132479016093612 0.19400873579471067 -0.017019881134189063
0.4972092566878388 0.24217973324330444 0.0067372752167358385
0.506512341711101 0.24420379512608292 0.06898989997807803
0.42610877245935797 0.15257790115603598 -0.05481949285744747
0.4524390570069272 0.21593997719318736 -0.04610629606617067
0.5299163359943719 0.1777818990506148 -0.1024207477808261
0.49686858390975885 0.15857469206363817 -0.049426624569889555
0.5361532553144315 0.22451282378419535 -0.03870082308597489
0.4795206883043619 0.1427404794463314 -0.07608491328267064
0.5827700545153078 0.21521658265717747 -0.009684978493339713
0.5553069779812887 0.1872277697432878 -0.11840927274792534
0.4532332091106923 0.22729105265409544 -0.04115390943493935
0.4260722592835151 0.1832376546557839 -0.05620047840810116
0.49363205824948864 0.22767399337354277 -0.020182563832207734
0.5048831371896227 0.21638813602012874 -0.06676600591396209
0.4788701432777174 0.2185318701295813 -0.014718051832488754
0.47640155524777583 0.1613294152869571 -0.11276628695588897
0.5436463565013696 0.3000906861483088 0.06486000206174936
0.0827506949990493 0.028647493801443602 -0.15351327733637277
0.49940743109050345 0.10931497012717273 -0.09777718035994098
0.5432120500444171 0.1948790759300607 -0.07993849243902673
0.6207845086082244 0.20439088167616148 -0.04951880125219077
0.5562416774727126 0.1858652312014044 -0.034106563267044976
0.36897236594998617 0.14133073148286712 -0.09534974517609385
0.5121115148996012 0.1410365384373904 -0.09819339356383239
0.4928083516864348 0.20631875359325136 -0.03939130029581861
0.54217668467669 0.2399464262190918 0.018983361410306543
0.4821786452751553 0.14749946761332922 -0.11807792329884137
0.4429510434778763 0.10316608555189077 -0.07508699971876354
0.5012727783381763 0.1769058420646843 -0.02526066209554756
0.45446888962153764 0.23226987196595417 0.04553144864431147
0.53745732016462 0.19436459076875678 -0.062134717267468886
0.47492432849735167 0.1816610881928966 -0.11492558707351463
0.47488575849638437 0.18522499016148686 -0.06182486789634822
0.441008543257027 0.19456740844017872 0.0009435835896738354
0.4364920172882165 0.33783053410387254 0.027283006593961545
0.4878651379584227 0.260183133510381 0.00048106122821423014
0.49999412983748925 0.26303145461633903 -0.015474457408402031
0.4892530270800961 0.14277083568339322 -0.1271493655985978
0.47674109544786347 0.18682474518936942 -0.042970103947226335
0.5341631496065133 0.15010875458236228 -0.12433199521490224
0.3253874973011506 0.29070443025071313 0.11056581194523574
0.5216699332910224 0.24075363954906948 0.018463842019045273
0.4622018211426706 0.16422185049913196 -0.10251917508222164
0.44051893695355204 0.16405449183164933 -0.08933048502589713
0.5494429117821653 0.2564662406901874 -0.012656924295498584
0.5034589644211422 0.22077879633687303 -0.011111357427722623
0.4796758032138939 0.19662824476519347 -0.021538632621755482
0.4505670309554972 0.20191667315205564 -0.0454919284583184
0.4880431523003068 0.24924171070162515 0.0032545410742557124
0.486940918998954 0.1419965539938346 -0.09572880733209388
0.5293207789318473 0.16284244305677475 -0.13819885000177123
0.5075270554765154 0.15696920141505188 -0.08470785546606407
0.48325370537887125 0.18105234198371534 0.0018182460645306264
0.46586109292087485 0.19480351409077912 -0.05605177107140946
0.44876288688529087 0.1647765911935437 -0.07024021206269992
0.5651074182083988 0.30209432885750687 -0.01237726865454647
0.49879582900493347 0.22289522284459906 -0.02847846483773253
0.3991753927209629 0.1958667608469966 0.0076604187021303005
0.4782175697323936 0.1875410645923523 -0.07922752101055153
0.5406866219391446 0.2122926331931012 -0.058377423923971605
0.5319637542854281 0.1852650982446562 -0.13534178320770707
0.4781204769412426 0.182416155708097 -0.031439441274969226
0.4870885120842985 0.2138204215761732 -0.009844401297442573
0.3408207918864008 0.03683849914324355 -0.10031790400361729
0.4716393809917747 0.21355171334613487 -0.08942369742533174
0.5189498600863658 0.20995313483780365 -0.036803683627042005
0.5066686015980224 0.11522310871458785 -0.14009642751000229
0.45888750689229596 0.2347338041102489 0.000414968545925376
0.5139124240688204 0.21284344319283832 -0.050128955229240546
0.47104637201364596 0.1753852131750051 -0.018925870793765398
0.5950477490630561 0.3764442536488133 -0.3730317525615874
0.46136730430214357 0.22253068340289417 -0.060199362940267065
0.5315915977131311 0.2291396475751526 -0.01098236297517019
0.5273066884880961 0.17967227536838948 -0.10250105396792719
0.5238811006453687 0.21855107622872083 -0.022395856567968053
0.5653580013107842 0.1497632068666519 -0.05333907486226508
0.43219956018911887 0.12593784996923318 -0.05615048361050867
0.5902459406201928 0.2946593970090987 -0.09545853760010914
0.5083275497749753 0.21440302565666514 -0.02408530924861907
0.5416402405622875 0.2661555801255986 -0.028885544967948817
0.44667270527530434 0.2420026319935289 0.007409443737515176
0.5095023887098336 0.17674476231354674 -0.043217412490193396
0.5133117856076694 0.13152409231656748 -0.07321703559878756
0.4987028393271089 0.2333004153174869 0.00737855027449541
0.3938349820398628 0.1729957300515821 -0.04742819298067502
0.53888474417883 0.2098903672913366 -0.05623551605043531
0.5022752896191207 0.17690527023221136 -0.04763695263750378
0.4553901691869129 0.1217358046264394 -0.038123370740080986
0.47329791404033017 0.2335365397428717 -0.04378083993002235
0.48505832660551107 0.16986175652559155 -0.03088038201107679
0.49031458451524657 0.20196375521487653 -0.04954927509533036
0.5155592037564816 0.2436276925723888 -0.1291007235109305
0.5017220476751021 0.2220962383033651 0.003896071865739259
0.5258996196472339 0.19232128444866703 -0.06002144918662111
0.5576675211750626 0.17701715993024436 -0.07592882029865677
0.568377494175266 0.19799822192555894 -0.10010209565925265
0.542392515784627 0.19810227205863384 -0.07722070187217867
0.5080786404303836 0.2188334945984991 -0.020843003951711125
0.5235031482952763 0.19323355281485988 0.038906679637449315
0.43157449128712244 0.24176536463755838 0.03935226163378047
0.5150368818515432 0.1932359245899562 -0.0251560571789895
0.42968373911094204 0.20117760654692063 -0.014362617223810048
0.4844916480055588 0.21242656899215717 -0.037775593948396136
-0.31201483190031354 -0.18678238056759255 -0.4580693046131046
0.46069564897624105 0.22890274736320748 0.003062253538615778
0.4670413447573054 0.1631763277032121 -0.07048174093409898
0.4467728188060107 0.21335490426457682 0.0353066180662438
0.5230004714485688 0.23898989743227617 0.046983299878647244
0.5823481482834723 0.24427550829906863 -0.010130059369572564
0.4401170647769561 0.2198150743161449 0.015953038565442057
0.4939176541609527 0.21277320259389398 -0.04921867376639
0.46110271259105673 0.1702532788682447 -0.04551641336439616
0.49585629974316703 0.1873630845775267 -0.05267261634084264
0.5484341199068297 0.22030487630553353 -0.06716855289727164
0.5029159705039916 0.18408306635937777 -0.06786574948785074
0.4869191561158459 0.22033738749448162 0.00031223605590469106
0.48468832146673435 0.20437101081560627 -0.06040703621799537
0.4546070059605114 0.18510869643304773 -0.029629129095980034
0.49536399149448584 0.29818865564990915 0.06508864612374055
0.2716724646850963 0.20024693591403775 -0.1385053387787849
0.47185503205481893 0.15112757378773267 -0.09013139710432938
0.5196905853467797 0.17252917117932043 -0.09619896452971943
0.4763564411306618 0.17113266848366493 0.3521241845047598
0.5589461298352774 0.13546489689673535 -0.1051831278548434
0.5079590510557637 0.21122094632141852 -0.011142081501418488
0.47096802356890066 0.1357865438764918 -0.10726247507909648
0.44937798315494604 0.1267086284224206 -0.08498773394487102
0.4956864434611816 0.21038957010637205 -0.040267322432043784
0.4638180073648215 0.22637340701996322 -0.0018193068792982103
0.5251406623844446 0.2104542007777752 -0.05472325424983637
0.5069237129515045 0.22618746790568878 -0.010728351049010598
0.5061171421847632 0.2385757683763785 0.027778345884314604
0.5482738044513411 0.20167431182147766 -0.07109579391200782
1.126521417824705 0.26613249078005197 -0.14259893478075014
0.5312193455228851 0.24790948346701214 0.02847659859629914
0.4410598301492996 0.1839180993490146 -0.05049333378778442
0.5342272721420898 0.15556224847000522 -0.12191317064562668
0.5250282049840251 0.2223960517392527 -0.02733923208251099
0.49382364461702366 0.19408070275480327 -0.04765818240690578
0.03962763149702653 1.2096771736892435 -0.48663037908660556
0.447985739338975 0.23892772273667617 -0.0018242618096167007
0.4794374269513071 0.20426526927258237 -0.05866172534720704
0.46643134610536663 0.1650214942894621 0.01927536790758211
0.4524789020136524 0.17190673130461676 -0.0468609475091597
0.5432734716045502 0.15997907719702198 -0.09545283581402941
0.4010504067415752 0.14452371595291424 0.0009543562468934397
0.43067689289235034 0.19585471627054574 -0.029769534011592214
0.6520148611577667 0.18027662551462242 -0.057317527906093346
0.13875431910081204 0.9901148444146202 0.11369515776019057
0.48784307786041836 0.15032077064867622 -0.07252656163007032
0.45382691977256684 0.23436849952992134 -0.021868061131584682
0.5434071226028578 0.2338750043213338 -0.038676558678588435
0.4521370225575083 0.1750655831998813 -0.0783636410243389
0.5177007171448764 0.2175343293804417 -0.01885790897947004
0.5157135348874391 0.16330557037126425 -0.1100638680995587
0.4095907570032864 0.2077478914905555 0.011302546551078763
0.5674935265230943 0.1764513004512196 -0.08220011022388007
0.4264690051720521 0.14337170778638608 -0.16862456520199487
0.5139642768855595 0.13062647768413171 -0.2068252671130324
0.5213560759673896 0.1621174334983948 -0.08943746892283855
0.501802107168615 0.16931566773760665 -0.07961622057635509
0.535905618089572 0.16587966174829205 -0.0933777609433264
0.4064641688830619 0.1933266201434094 -0.055099644774458056
0.5069558258958438 0.23050568925032167 0.0069777386610496706
0.5363914408661543 0.2569755378167713 -0.11085793192182791
0.49173826853349567 0.23457819313516381 0.00306084171509724
0.35016816213361324 0.15363987302933424 -0.02602974294524074
0.4699645383013973 0.16543771877034885 -0.06448505397372628
0.4081454809574723 0.10656439961340425 -0.08000873696263966
0.6131214854213027 0.40880803735669247 0.11387641152327888
0.5282560529330453 0.1771396310369795 -0.0679789359174805
0.4682424342630327 0.1537518825373212 -0.04724626784728514
0.48041839625238936 0.16621368771589573 -0.05863130657904492
0.6006040367257839 0.189741814841085 -0.04884187411192897
0.5004435387631645 0.22310404409019213 -0.05216906699033075
0.49853115665816006 0.18463479436724128 -0.07538703561733939
0.1074737513621642 0.22024378486922558 -0.03615842591973717
0.5285066438478907 0.1707020756111035 -0.071025102163361
0.4866067500400959 0.26107123057366266 0.03605550268646596
0.5721076388921915 0.15635313595606704 -0.06341538252675605
0.5037577771164479 0.1911978681125106 -0.012479686226186004
0.4228167084073249 0.19297827083644847 0.030500386346631103
0.49718325084910475 0.30508601712756445 -0.015968669678429137
0.45176903523126555 0.1429621921118951 -0.17112232190602583
0.440164118577826 0.1668933162816728 -0.043963130892919366
0.46834872469428035 0.22719903048253798 0.042031188750698334
0.5052888196341456 0.18615533997154898 -0.03722618320202287
0.5277853439650357 0.23398109941578582 0.0019002173938957867
0.5391085932291872 0.18369271453805425 -0.0771070118910302
0.47350304593994963 0.27577348422073555 0.048220702533626536
0.5332453876950751 0.1840090164978676 -0.0809994290427909
0.4798957326712383 0.20386951893650007 -0.005970078606594598
0.506747963413261 0.143314211610857 -0.05106586840327054
0.4915999508357203 0.05359790103855744 -0.014565047022585986
0.5337983784829134 0.18706493434510207 -0.03746575607594593
0.42506661704075555 0.20383667850978782 -0.01441397112509435
0.4113525999147498 0.25928883647469547 0.014976753989145664
0.5291087860772734 0.24813241261969665 -0.0024202584479837697
0.44022822255203664 0.18384429875339947 -0.000610637060660224
0.5453059808459386 0.17972360679178223 -0.12189826599419007
0.49652534084272304 0.1952452159958682 0.003559642320482226
0.5965692553043027 0.1823054257166632 -0.09588467316061156
0.4634546732177256 0.17211747527301213 -0.05869130993686156
0.5055771947638874 0.26998310675395487 0.05735621759644971
0.4530469587950421 0.16225522857129704 -0.05060000284322541
0.5338015198592387 0.1776675349586867 -0.17025310682700479
0.6842800536433629 0.1640168694198394 0.2134782344294024
0.49984472847236816 0.2405836130391208 0.023961890205896452
0.46584522176368637 0.17556703799773743 0.019478468041370434
0.4995265008411849 0.23478880432705296 0.019810302840227223
0.786013601164683 0.0729002145040738 0.004092412371420551
0.49678064842333924 0.18374427419840345 -0.02043856761477514
0.4752495668619616 0.1938319367904029 -0.06237313086460006
0.4351043446238094 0.18301904366579436 -0.0002543805794346099
0.5061746875666984 0.16455935874773786 -0.07630731302906213
0.39406287862031775 0.16215535737418918 -0.06021394462722185
0.48677250532844596 0.20940247609789253 -0.03006983104275207
0.5675191852710526 0.20712922486131902 -0.03330637775574985
0.5570243878884895 0.19018868055037785 -0.12645847969440638
0.42329778333909474 0.244070658286347 -0.0006804676902163465
0.5151621071296688 0.16082496518112066 -0.0626054957720612
0.6156817659747986 0.14772653608930852 -0.09020805296202639
0.5327324776024511 0.1417249316153999 -0.14130943247904781
0.481140327390591 0.25683482993474627 0.012654198561449448
0.4656492854305867 0.21877176464273873 0.0020971041031572213
0.47816975876455103 0.2023376189834778 0.12144781013441275
0.48059201370601556 0.15881233598807398 -0.020827718676201812
0.47634558460765675 0.18282325533897392 -0.028346165990257077
0.5295820462501837 0.2295420428704631 -0.023767876903136198
0.42195707203180177 -0.010415134872857834 -0.25435939351831394
0.4843000324992346 0.2687047511774949 0.09808325914175953
0.3541924939217438 0.22245528532940284 0.10922391377209806
0.4805287769266471 0.20214928325758308 -0.03940471497909925
0.5694424462181047 0.22492775470004744 -0.023264348994175066
0.6404052633051549 0.4808720722823523 -0.048680463104290084
0.4505732530040518 0.23864960278201863 0.005144996900170895
0.4950764234915397 0.22412165160486097 -0.01900695134871455
0.5917188971027372 0.16644440629912083 0.2603106612094592
0.31103695741626325 0.19266197546807007 -0.09783997564115055
0.5084177951265474 0.22474391341322075 0.012493127559920936
0.42179618710909494 0.27707681793432926 0.009512170366278383
0.49265357309035096 0.26394202822257284 -0.028954249833134327
0.44059835047224283 0.16213159849915826 -0.07505854716279714
0.541763312287955 0.21803144315626355 -0.02944811809965131
0.5644295537100561 0.28567157167580604 0.03108618406071173
0.5254593869336901 0.23629780636770192 -0.14255099642694802
0.4721531065244875 0.24736539276452163 0.0279321304625455
0.4702062114788248 0.21340741952631959 -0.025905029767756105
0.29354840433040863 0.14814245202352083 -0.009058623140333566
0.4872904886420315 0.18569398532665105 0.00020160181395567633
0.46101488823478576 0.2865391345414139 0.04994102165726133
0.5065562102387275 0.1404939187141423 -0.04568137136379846
0.4972881019513693 0.14232140206593158 -0.023716342684437564
0.7702240564230465 0.14126850759993204 0.20760402737533923
0.567378357707554 0.29129320541832726 0.030696684172625055
0.5456296401456484 0.17751236402632742 -0.08380582826728755
0.5118476359366184 0.18168973211480477 -0.04165376372348817
0.501631371750733 0.19239038954003718 -0.051222742415490075
0.4729504647802827 0.17660564441406734 -0.04923754932215729
0.44261838761889294 0.15730554336707314 -0.11230457979553421
0.4590288624513903 0.19942989320473714 0.09142694644475569
0.5976896232661346 0.18734554789656954 -0.1623103457592947
0.4282225524970329 0.1165123365547629 -0.2813398227156654
0.44237523243211285 0.1591300226860568 -0.05387783597211637
0.5584863930011181 0.2078475873503578 -0.07874615559930476
0.5330587909922713 0.20732079323551034 -0.009329930474194725
0.5033563851888658 0.19384772925727134 -0.04991221376317867
0.47653472012649445 0.1986095429401189 -0.03202564694345256
0.406052207567285 0.18824761585264582 -0.04286060104406886
0.455792107624319 0.23686011359134795 0.016404090558211237
0.57836981003706 0.24990831336715758 -0.03590786968109683
0.5176183861647843 0.1973390302800766 -0.05028578511814885
0.529237144204572 0.23423944108688488 -0.024116755167682413
0.4681648516627632 0.15143093977766853 -0.06843680873537039
0.5369552906351487 0.17703224724040467 -0.08220976030632698
0.48562330582109325 0.17626268925985755 -0.06131363875941531
0.4354992825416133 0.13812308945654195 -0.05887109018792103
0.3803390994370943 0.19121029361801334 0.029547344783736662
0.5247515159270932 0.2214771165355387 -0.0037149971668668513
0.49631757210158867 0.1973600419807866 -0.07630507991672175
0.3872380123194574 0.3041198050587468 0.041873106088019085
0.4697184956607856 0.18932454633780083 -0.05457850700318545
0.5566171457274436 0.24607700177685388 -0.04486661973703576
0.5025836362724334 0.16012639586413968 -0.1135709546785506
0.4855278191092225 0.21230320798871105 -0.03023346703724883
0.5008090729992176 0.24082134745637518 0.013699482056665602
0.5113757262894865 0.2790319271212809 0.02186211846114361
0.5096609126506735 0.17429167767757292 -0.03496730151582028
0.5317793181360599 0.25298802584605085 -0.010559779409646808
0.3456580332811541 0.12104066195828977 0.030568556696238147
0.5680134458043113 0.2939754445372955 0.07010369981250619
0.4724159886491037 0.20282398933791512 0.032059403604378645
0.4587951521424287 0.1238444404854846 -0.1033984927719871
0.5039577764061249 0.2566108091245667 0.06545212527491628
0.49341170014251645 0.17985440845370704 -0.06610718544544625
0.5271555251720912 0.2154222120193907 -0.022306281904576508
0.5007884132556057 0.15695746668059485 -0.08028637654695103
0.4137231264268877 0.23181124470204395 0.056874596722153115
0.5598631782444414 0.20326745296254956 -0.09521714069569498
0.465189366328957 0.2024090998271788 -0.009089157365536948
0.5149208569282706 0.32104392648955127 0.010554199616294113
0.42982344490175706 0.17737928713575002 -0.06548929134123682
0.41885359517988263 0.1732842897233695 -0.03688644264377672
0.4988144126935765 0.2193797920591578 -0.03820566041692075
0.5036187587818546 0.16686830015790122 -0.08616496793023032
0.46914378533094236 0.2118073518281136 -0.0435917105220085
0.5539535731544305 0.1777808388283404 -0.10045327078401556
0.5054242944625855 0.19456231375488642 -0.030942897402653102
0.4544707278027573 0.2043250439187716 -0.01152364125542249
0.523310677463698 0.2339892616908088 0.002827662464923719
0.4371102282500914 0.12842965907256598 -0.08398846046620179
0.5309873916483099 0.11669640097440492 -0.0860558508547058
0.5132326461111205 0.23583869550652992 0.07565223002939092
0.45124034184672723 0.17427459530071587 -0.06172671054528678
0.49997969571946044 0.19566375516464518 0.005834722676738124
0.4358392444871839 0.23421847292789266 0.04469809370910127
0.5588150176358937 0.2266782005165453 -0.05236120671860078
0.5146896389400126 0.22503761187246596 -0.010379847530685993
0.8323234976358123 0.1380613168625473 -0.17410635357848037
0.4463484123330801 0.17217783138855225 -0.03318545110028026
0.5028108264229303 0.23471936988572395 0.07269780607386167
0.5333750678998825 0.2134326955271888 -0.05074684944574415
0.4267041437582435 0.18178851065916035 0.008257435119475076
0.5589293473187666 0.23884616549975135 -0.0005197105603542695
0.5078016168341435 0.22431407320510743 -0.019318561287235525
0.48301300999443697 -0.04338352193775563 -0.16757573343603838
0.4460810889161735 0.20831817391535878 -0.03202106042454034
0.5605753518278362 0.14466093195457574 -0.11225795465986721
0.5243460177533024 0.22777537347937482 0.001060233857671733
0.42664421558124843 0.18542863294668166 0.10176543009532679
0.4952241603692471 0.1982652460445138 -0.0430416248529184
0.5025588197188 0.24019459366587625 -0.07111857082836082
0.48201949945683964 0.20488778774632976 -0.01594095009474472
0.47038150424133107 0.2260630155005856 -0.021325745269592744
0.41862748705875674 0.1197134679103442 -0.1590648175604059
0.5852858525497311 0.259637921645691 -0.0148313011032144
0.4975004627705033 0.2505981074314434 -0.03393639059268594
0.48777711878595653 0.22370896861779954 -0.01295682672065368
0.49256311510646356 0.261353386656765 0.013566229605487479
0.5189314230220248 0.24303887532511226 -0.014054337498521363
0.48938305981950236 0.21802646978156304 -0.015691744217335213
0.5116618540368592 0.24461984513771995 -0.027995669808191792
0.496740068609796 0.20515970600575884 -0.054363274199957345
0.5307981138562354 0.18301261290075388 -0.028797484137044194
0.4305787558742935 0.24614662875580962 0.043992959117986175
0.5196215055312052 0.31875281833471547 -0.04435537890503838
0.4613366671842982 0.2627682794449697 0.043312181338492906
0.4250642563298044 0.23076782575439836 -0.023978304803634387
0.47220323507683304 0.18180845220717856 -0.04804082162895895
0.5724502256147304 0.2329177587125173 -0.05007927580410865
0.5015466587578032 0.19689601608564544 -0.03789529032408723
0.5042836215335456 0.17930703433663098 -0.09210481200825882
0.44569310770890525 0.14745687751991454 -0.06765521701518651
0.5013713477401041 0.15390660966627934 -0.03942789943512537
0.5342204673472963 0.23551409957846658 0.008021269435261047
0.5369637918325196 0.14820678902619022 -0.13349235987138286
0.5591417498459634 0.17084930215834504 0.011101827771824446
0.5000819469893258 0.1774512557152974 -0.08223690532565797
0.4712777711029048 0.18502609394228386 -0.042034019432776404
0.5398554111153118 0.2501214800617646 -0.007049841544557012
0.5338430437707018 0.09982424436532256 -0.12817347805764712
0.5593289925882914 0.2145605818401748 -0.11936084692021609
0.44864012513733087 0.22726722689375833 0.01915607066878522
0.5128668837473782 0.2545425079212009 0.020297794480228504
0.4902086335713989 0.1935943885800384 -0.01864087575523854
0.547529122517389 0.23198088391046667 -0.04228522949632918
0.4830257153454056 0.21720678700009444 -0.04423627400953478
0.44674538435118905 0.23224187643174332 0.05573480917104234
0.5022110297609572 0.20420495869487354 -0.0990328869497148
0.5434904783584216 0.24812303247423984 -0.040917760470961184
0.654120897270019 0.12769846997181844 -0.23050339438391632
0.5443858921681226 0.1910970977062334 -0.07001822110917999
0.4581964304430528 0.1976390865734743 -0.013283523736106417
0.434531096939196 0.22343529990735078 -0.018704891651395883
0.501258364497005 0.21768813867893755 0.021315659701514278
0.3610953933579424 0.2063630428922636 0.002729699888760706
0.5290419242004418 0.19430724563122226 -0.08193182105580377
0.5334994063074561 0.2120132211267105 -0.07676073405716011
0.3395904246000043 0.10869608678416398 0.14432308901828605
0.4810347173182805 0.15414645999476306 -0.029830432348205704
0.49528319502276474 0.18455063681993522 -0.08180076613047049
0.5510425725834978 0.3174472275019582 -0.014997972006170812
0.5129288820482998 0.25262544615330285 0.00256186498380373
0.46508168317777177 0.19878861990294183 -0.03987671271588056
0.45511238675564414 0.14935548284307743 -0.10202967957545184
0.43982960388198933 0.11735679099700747 -0.1038452036691524
0.42695718558329077 0.21017258484641843 0.04828122341461949
0.4938028373883441 0.19499604894284062 -0.060696325992694256
0.5408549255470234 0.16717522624361436 -0.06711846240737884
0.5567625335600752 0.19143063454937703 -0.12603475660662866
0.52646346484471 0.15810172501704756 -0.058649640520869184
0.4797571387243522 0.2099843320380046 0.0012308445350583952
0.5559858234687738 0.18459674277011118 -0.0896172911826767
0.6643230477082795 0.27537703156539806 -0.1251842991601393
0.4311745929867641 0.1684932251770732 -0.03946626581702617
0.3949547633342547 0.19447996610409746 0.10310613954897008
0.45404087905289714 0.21730540697467404 -0.03016993023416603
0.45077499015097544 0.19524279650690346 0.02348098071001914
0.518634503886787 0.18992446480991987 -0.02192358596539634
0.5156194966644421 0.1868046041454079 -0.08655397215987648
0.37401244207285345 0.1494699490129392 0.31119121002934946
0.4997884983995249 0.19622995963834455 -0.057191341899653025
0.5248307907286858 0.2513524552155957 0.009836433734193406
0.44023999430309857 0.22717266798257185 0.033464394521899976
0.4514416783822952 0.19792653207233002 -0.012828211559025249
0.4629405739460708 0.1966950267554921 -0.13657713868929022
0.5651328951913399 0.2063902637274566 -0.04647262845401201
0.5446007869197871 0.2615454357211888 0.011759685635837513
0.4458746697237643 0.16741748506494503 -0.006988794650879981
0.5180631871007648 0.2094842174130349 -0.10102464221243679
0.5656167990340464 0.22124510974984446 -0.03589260398962324
0.4855572947219997 0.19786931638810756 -0.04667319098240341
0.4989442962922226 0.19625159973477935 -0.028714030220768905
0.46201507648116547 0.1579016539106135 -0.04620744078147254
0.44709876105051194 0.2462714682621936 0.008638688178649545
0.4047570571667478 0.19510192301549978 -0.03320164278252946
0.5124805969251156 0.18025002581063632 -0.06360788102070103
0.5195900597405654 0.09064405188092906 -0.13439706979167454
0.5169272536348473 0.2213587246980353 -0.04117656864741548
0.5182614908330976 0.1974126724154246 -0.020527220217573472
0.4808461901432537 0.16577647604958656 -0.09459314701778965
0.5462327689414934 0.23903904557406008 -0.03797981671688433
0.5014184654609579 0.10798723126237064 -0.046074639515254034
0.4784183655457923 0.18461525499283482 -0.07117992202208256
0.5064651115084757 0.17528912591737367 -0.09989736931592574
0.34035596234801346 0.28511667250398887 0.23992792729066537
0.48176436154010105 0.1621310975499597 -0.03382730259082223
0.45218316531844494 0.21138009784291967 -0.0347339620279854
0.5007294507292528 0.20970134748492342 -0.04147270531419167
0.8871659171036299 0.13052465904431187 0.5875303721512637
0.5200314650763289 0.22388417449717224 -0.01579769715137047
0.5355413600983923 0.2591412596988505 -0.028015678454494264
0.4698071380911699 0.18800275724059645 -0.0556936018443821
0.4982037966295394 0.16122708660378748 -0.12311457687277994
0.540492195420228 0.2828093196684165 0.06847402231596789
0.6569521415627975 -0.24663965834365342 0.13183153295372563
0.4911575124147305 0.23425839014407757 -0.02520670508636158
0.41611822735936244 0.140616367191285 -0.10846121592524582
0.5155917772151071 0.20876769193671407 -0.03349119295732805
0.5173295413277543 0.10641205236188966 -0.2744769308827273
0.4864822031265561 0.16410260471420202 -0.051771639206322106
0.5207520002906847 0.22734907503172508 -0.013120058569967341
0.508033784662743 0.19470605481126313 -0.03951897476608224
0.4659952705704029 0.19765388296551123 -0.012778389320317274
0.4456659623650694 0.1676527361078115 -0.05429640978064754
0.6095755003204744 0.19532698720598773 0.03745507344814314
0.49154315352551237 0.14006899427386088 -0.0761073652081592
0.45348617815039916 0.15626744480948673 -0.0933885148639888
0.49946294441490124 0.20221916844141674 -0.031570795532843476
0.5655306183378457 0.14113634923498353 -0.09289547380433305
0.5123409533019583 0.18995463965904946 -0.004056125922957676
0.4435998620252377 0.18329865138925072 0.08636478309097129
0.587974839345307 0.3120553003829798 -0.08731980084428415
0.5276490730356187 0.1092316102514701 -0.10577569817559151
0.5381850986816232 0.2525674014997321 0.011156754631628019
0.5809450122170716 0.26633817195994425 0.00020612855996660073
0.5077732079126633 0.3281310207146646 0.1457048308528499
0.48787583013501035 0.1858642634088028 -0.06469888753235864
0.5568439674942169 0.17084919016828337 -0.1080083127391731
0.45437668589313773 0.25735401970987937 0.10036647202377935
0.5330651326839444 0.16799345703230983 -0.09014657565001016
0.4664070507540856 0.28338852051304286 0.09418315435753755
0.5046343466104872 0.15576086172268333 -0.06609392441828277
0.4698815934632705 0.1449017609075156 -0.060702533121457236
0.47774263655907134 0.17523284595205268 -0.05121029054927817
0.5859764533728224 0.18291848561921142 -0.0869969899134162
0.49222992341708505 0.22296823380114006 0.007341045433406634
0.5137016445574005 0.19409638434484577 -0.04822052411637401
0.48047130781064595 0.2021014798976637 0.0027296756580028614
0.5194943529596685 0.21441773663615038 -0.054094850612358414
0.4986684448993799 0.21504395033011292 -0.029159624552988817
0.5485914891773405 0.20297230619800644 -0.21923863362067664
0.5148462026085383 0.20641477430024224 -0.03581816454803288
0.4961674102512461 0.1474853984681488 -0.12129531859653753
0.5423892536570492 0.2390410885169274 -0.01846861712161285
0.5385309736983288 0.1935438252767483 -0.07028486249564025
0.4600835149625624 0.15376371395269928 -0.09272443753297921
0.4643423849884414 0.1637487633653052 -0.07350525809329156
1.0012921948987668 0.17267257601784536 0.5229056263329994
0.43964064333135866 0.26218920477302277 -0.06366051729607136
0.41181284193548606 0.12231404476918328 -0.12672477120649717
0.5602789892211035 0.24968859571156088 -0.04600943207714181
0.45362666266382234 0.19821576093072224 -0.026799379000408408
0.47447802092264624 0.18673359359998187 -0.025267542950416555
0.4853848655614854 0.22475250803807967 -0.0504215591500099
0.45886241965777685 0.23821261452300746 0.025384531840629165
0.4356968042934426 0.26971660514229256 -0.007214141721959777
0.48490740654385434 0.11558031869726904 0.021223098984847866
0.5525661395807759 0.22455106114264822 -0.033030020580383734
0.4732924841771933 0.19123943692281387 -0.05743734946740631
0.44585908655466255 0.2191638181733424 0.023962734907925665
0.44797263776035834 0.20517938369211208 -0.02037973781197877
0.47835843894439734 0.20078104173167333 -0.009080466554721056
0.4892925364066514 0.23501994555439865 -0.04239393554541948
0.4938917616181442 0.18398797358989327 -0.049228698464986564
0.49698236965561193 0.22228230268750337 -0.07106230681672798
0.48834328248180725 0.16960664164099626 -0.08288290414205335
0.5738064574940438 0.22601502401045082 -0.09484545785056753
0.43086054148803044 0.22321164258335102 0.03129206652796768
0.6049999042332388 0.23580559785222022 -0.11030543699772011
0.4477091079713773 0.27553755580839834 0.06325244923621653
0.5028544466844806 0.1995593290161537 -0.059076956438303796
0.49639930425017553 0.22979013025310735 -0.006479335691267352
0.4992408412032603 0.25698931446729034 -0.0024682179309252206
0.4873065662618359 0.20219842450109127 -0.04878566067553436
0.49316095872056565 0.14237998413582886 -0.10080416087234312
0.5750345547350264 0.2383759857242893 0.09319765804252711
0.5270773412090506 0.2073076610529938 -0.05937938050519165
0.472677518548835 0.1498567755793232 -0.07529029759687944
0.5513596586107923 0.25499824653732617 0.0007742327724287179
0.5546308013556711 0.29205526045379315 0.06106346966338094
0.48761782368175943 0.15602524983353305 -0.08552298191131058
0.5028433109902011 0.21189021657298213 -0.05287252638353834
0.48293021241151735 0.24780167696327737 0.015642967384081885
0.47325839951872695 0.20570298979905033 -0.06819299507037613
0.6189351988665805 0.15131743924065688 0.03317662316605663
0.4346540736165565 0.15137603357133855 -0.028181973975279107
0.4699972789444047 0.23327987031251496 -0.004462663053999449
0.5422765723730265 0.2021176152581603 -0.04523492652032246
0.4835281331314576 0.19993090666929447 -0.04760973666702739
0.551690244612999 0.22929723548026004 0.06303454832180932
0.5028674866887144 0.22442502435507095 -0.07453893367430453
0.48095250192449157 0.18269860741567356 -0.08370871724611106
0.4973206458821835 0.20803076344625993 -0.03982249733466858
0.49894451172558263 0.21553795766932637 0.010160113277777327
0.4242555604094065 0.24153531399389294 -0.10397460084422505
0.46699547723162027 0.18929775476996724 -0.009758392934344329
0.5068444037386541 0.19437363296680132 -0.06892971476678156
0.5083093962097109 0.20461444683903096 -0.03762875196224513
0.5070553832511422 0.1801954290131249 -0.10898489444736015
0.5242056655030183 0.1250202452429221 -0.13855279511288643
0.5327558785138393 0.23713789130124496 -0.028774779747124057
0.49499445291067445 0.17598822490074895 -0.07307688599389905
0.5304925591479446 0.1811158508365338 -0.0780022783046661
0.5414997872564413 0.17322492443062742 -0.12848439901210895
0.502308780955147 0.2060455238718646 -0.04353562215626994
0.43298891999869227 0.1903146140053309 0.023587946449410424
0.44166713394986346 0.2248595086498426 0.010505043347819765
0.5053627026153862 0.20484179010774994 -0.04004789973288325
0.3452756195742239 0.1868280181894022 -0.027030726435626207
0.48680073448377925 0.17606930443119495 -0.05327723074833557
0.49375366897757544 0.23145548453803144 -0.009993084873855196
0.48784794369056783 0.20224499302626953 -0.04110699981370658
0.4359352771244289 0.1787400792716909 -0.03845386020933006
0.3802865540765481 0.21323660763461305 -0.0025362968420949983
0.4950130715266283 -0.04280554630959443 -0.28731107793134925
0.49291074106990607 0.18809024541801023 -0.039691160093781264
0.47411542156345376 0.18060416189359785 -0.07400200976486815
0.45297860145053903 0.21275504475939044 0.06726722625984394
0.5242844983129942 0.267651921349767 0.017649383561462173
0.48720537071804415 0.206484693162011 -0.0007750251093057159
0.525776510062812 0.18864679475298374 -0.00943092983874294
0.6354665007208951 0.2578033829290689 -0.03644663302003437
0.4618762815249653 0.23368514802342588 -0.0036959688954141257
0.2753307573225925 0.3235978476801904 0.006011719893393774
0.46194605050047244 0.24545837568115303 -0.006041479903387881
0.49087973117285344 0.1881398241862371 -0.05368764976287821
0.5511463375939343 0.22368998710868482 -0.01876292398668511
0.4732217503618159 0.28394311264094085 0.004310435956341507
0.48759769403774555 0.22710262615078136 0.02563911773268046
0.4994831926927361 0.19627049290772902 -0.05664280927756238
0.4844100850782951 0.20509507206729438 -0.0315357675060568
0.43125599166128836 0.2191118064587556 0.031740762831532265
0.5297272408096916 0.2226095589654591 -0.04364409174255002
0.5442305351132575 0.22827928308475975 -0.030571700092210108
0.45162390342008507 0.19136827493014152 -0.06324540696093095
0.5557269122709272 0.1767201300292527 0.07689062861368257
0.4861146528280784 0.23582939943122483 -0.014764431480216444
0.47029498738824316 0.18163730215711382 -0.07247758680304628
0.49947004297791864 0.20991145611844786 -0.05611290965025262
0.6055260927505799 0.25682178036367986 -0.020793634681979256
0.43208105125981433 0.06604102924055155 -0.19490278763592528
1.0109544635221823 -0.09469746936213141 -0.18764839209168827
0.466134475573881 0.2407884193353027 -0.03859716246836342
0.42803013835069237 0.22371414364204156 -0.01433154732532671
0.522771917167077 0.22812036914200462 -0.07093380173100172
0.45319489861265083 0.1563019325929531 -0.07857897351789234
0.5752680281285194 0.19530788491894668 -0.0819142246082123
0.44166374709512013 0.12098182824591674 -0.19182725594561134
0.457380748479963 0.17976321951397267 -0.07317457452148801
0.4969801974455237 0.19127433203388478 -0.050111164406018815
0.44382247606667136 0.1744094064770394 -0.049827609896183844
0.48375140742770384 0.21752849594653867 -0.048964650453172
0.5713380512665083 0.21016065687079788 -0.08426365957953408
0.4707487660375307 0.17816589409417816 -0.06622290789135832
0.45888706475935237 0.15764102406596692 -0.18444103405684587
0.5362084076149216 0.1724977659033584 -0.1114935636152552
0.4349333696027031 0.1818802728681277 -0.06351802256230599
0.5179221847802893 0.1763464923843685 -0.07383315619992459
0.524617203283384 0.2551505246864423 -0.06493648112922301
0.44139230712865185 0.14571595708385132 -0.09155706573361044
0.579262212437996 0.18308587946427224 -0.09515173624822637
0.5252473903994854 0.06651979857839763 -0.16081569819263564
0.5104318243279806 0.1451193896247105 -0.05224820847612932
0.4655826365139717 0.1748800951124423 -0.034176686408002865
0.5049021861117637 0.14504126962802388 -0.09966055929720596
0.43990913058807735 0.2541138062197206 -0.0254523240956388
0.5176315270885397 0.21808341116377505 -0.006083513130903384
0.4832015818491726 0.1453450857291898 -0.030622684109772536
0.5711525965185302 0.22564104701967835 -0.18338305938365806
0.511508705723358 0.21333090196669957 -0.05051375949813064
0.36135790846293503 0.17418864411445156 -0.12500869751022492
0.5389831815686961 0.23741525244264494 -0.16303947466207092
0.6023153388880615 0.22453166497311372 -0.05993560074830384
0.5041869818426505 0.21665978074753411 -0.02048386649060774
0.5084629730636436 0.195749734926693 -0.08309730581002839
0.43317878538483967 0.1794336451549725 0.004574817622057026
0.5014284560401734 0.1967992413068771 0.05419334561398159
1.0046066421629405 0.6974572830774264 0.34484915426709506
0.436771310084751 0.18136393943095186 0.018386525935952136
0.533434226128108 0.2312242553258983 0.02095112994790327
0.5478549715544716 0.28187504242450245 0.05919920935748735
0.5131058875725358 0.1714891259534994 -0.06916407604734331
0.5294854421778865 0.17334076741192916 -0.10209064712165627
0.48872091296262 0.19996490749819884 -0.06688630997717837
0.37195415658288766 0.1546203102599577 0.032634544202181814
0.36540754123454633 0.18259528411627457 -0.003689905429268947
0.48458158116083894 0.2046256462978704 -0.07748594558526634
0.4300232313098036 0.22926847305464548 -0.017745112801947016
0.12919115220493893 0.6581705079627511 0.46939576782571635
0.4834657654250236 0.19462613014481178 -0.04873190638164715
0.48225786725168973 0.205337163674443 -0.034265628252256874
0.4427973534532583 0.15775152421969096 -0.014549613864701882
0.5077155345831414 0.1611504063700835 -0.07288094667458722
0.5448556728863423 0.2383713652605195 0.009966153748365514
0.563365225676776 0.1471043454205585 -0.11515567640904578
0.4707780459803246 0.1734600407997533 -0.052680092491954156
0.49653005271984796 0.23387852326303005 0.06655819497051141
0.5063179812496656 0.22045993288105592 -0.005401874087823444
0.503694958000878 0.18894966681358483 -0.03457643683684353
0.39276519907198804 0.0981246063786898 -0.10539051054922766
0.4215545589295715 0.09396913853663591 -0.15235036604366314
0.509818601423973 0.25849590928065425 0.009253875579446458
0.46837006229465317 0.1859456137582498 -0.04208345200277108
0.5153861474226318 0.2011616045107587 -0.020365782208870087
0.5082085016630344 0.24697067004812823 0.008781289267844272
0.4916988324224434 0.1324758116087139 -0.14032066041086466
0.5551111348990077 0.1838642400929018 -0.0903138105485084
0.5539202881076619 0.2483640298284513 -0.037263310627380974
0.5032963944192517 0.024499001445434487 -0.22914208131416558
0.5391789359047294 0.1906649074813913 -0.08462567858296666
0.46003192993404696 0.18816956113479932 -0.022316844498803334
0.49188531487172327 0.1780841975746057 -0.05977721497914956
0.41558900310346303 0.35251067155863325 -0.9524530581115869
0.44592004084356063 0.21650836983366162 -0.0027089431796980534
0.4381407683600429 0.17647584832999996 -0.026356994489844965
0.5445232281987558 0.17550928126999565 -0.09661214445173982
0.36102251026629517 0.19353915787297638 0.03963083618934604
0.4733461972634103 0.05023533762947352 -0.35506032792213205
0.35968176012185893 0.0810344930818303 -0.11526959118297953
0.5173242495645809 0.21948838642717305 -0.03050778729692638
0.532468152806473 0.21979689445046802 -0.0951783943374096
0.41310191788787165 0.1776442715895854 -0.0340046323803449
0.5706656978456692 0.285072095686985 -0.04228513564495984
0.5378528899313295 0.1700615127120244 -0.154627172007622
0.5054959143871969 0.1666158973381755 -0.08423308207170521
0.5091772851888692 0.1835056748191164 -0.021970715367501725
0.4491960145300027 0.1322036424569859 -0.041473202595256
0.39899171116258003 0.2228141968298587 0.016259639767312706
0.5293851544551984 0.23108977807387987 -0.01875178979369707
0.5250098497991189 0.19066122001795804 -0.07965522222308152
0.532378503150639 0.230271404457568 -0.07947315192313908
0.36850798886882785 -0.018457629163634692 -0.21189473907884349
0.4845645729702568 0.2280904015010492 -0.03117283833122997
0.5290451364928117 0.21207041454128728 -0.025785606243942993
1.031388565069605 0.3799947802191923 0.11590651056228296
0.39272230321680013 0.23212014672034798 0.017471380563392813
0.4049899592157544 0.20959702299444416 -0.02638743635547769
0.4444030789806419 0.17430161537058098 -0.052751343327230416
0.4768358347149757 0.20618908050903428 -0.015993737911685457
0.34517540067373886 0.3798314368426645 -0.06515308447261248
0.46540106603804077 0.13241552801892453 -0.11310801393869951
0.45312891173794867 0.18036182466930484 -0.06584053252804267
0.4565401670514433 0.11453672665548709 -0.1382610624553422
0.5065583851340278 0.2213695756551033 -0.03917461930751642
0.5194794556744995 0.18866550395378567 -0.128599016872883
0.4610574711562947 0.11882348693222866 -0.09470183314586222
0.31487451416293766 0.014437852431342435 -0.0772018027898298
0.5094398121890293 0.20711464966063886 -0.046594177979017104
0.4397400724713947 0.19118434131053164 -0.004469597957722726
0.49776675409141546 0.17796567940855823 -0.05753934993927601
0.45460485842704657 0.17041607088964383 -0.09790639652783284
0.5349208481881647 0.09875462600842866 -0.16078480044517107
0.5621446761335562 0.23306630522924365 -0.04147474151922381
0.5082954199869505 0.24552756293968514 -0.01134711362841756
0.5192595117120788 0.2213513407389769 -0.011190885879955204
0.4494415491824384 -0.4341655821715733 -0.11552843172367488
